0.218040 -0.013171 -0.034542
-0.207257 -0.919705 -0.011126
0.218040 -0.586390 -0.135543
-0.154923 0.210031 0.217998
0.087389 0.986711 -0.102369
0.001450 0.074284 0.217998
0.161567 0.969934 -0.018308
0.218040 0.801961 -0.048390
0.136855 0.111865 -0.217754
-0.162285 0.858225 0.015820
0.028644 0.893653 -0.159827
0.108350 -0.331954 -0.217754
-0.217712 -0.777057 -0.192413
-0.217712 0.804835 0.182968
-0.217712 0.455498 0.203959
-0.217712 0.088867 -0.192734
-0.217712 -0.355733 -0.198724
-0.217712 -0.507414 0.092281
-0.217712 0.153398 -0.051321
-0.131198 0.986711 0.083348
0.080075 -0.919705 0.139128
-0.099695 -0.771676 0.217998
-0.087444 -0.556471 -0.217754
-0.015717 0.986711 0.145961
0.218040 -0.623640 -0.116446
-0.102940 -0.632381 0.217998
-0.217712 -0.896186 0.065549
-0.217712 0.609410 -0.176188
-0.217712 -0.406685 -0.012201
0.218040 0.529355 0.099673
-0.217712 0.458257 0.030437
0.069530 0.468810 -0.217754
-0.215282 -0.074311 -0.217754
0.045795 -0.850289 -0.217754
0.218040 -0.492817 0.047756
-0.217712 0.387703 0.030301
-0.044384 0.823303 -0.189396
0.218040 -0.071034 -0.124016
-0.217712 -0.729645 -0.055474
-0.155920 -0.547193 0.217998
0.218040 0.250037 0.109629
0.211049 -0.919705 -0.020349
0.095150 -0.401529 -0.217754
-0.126493 -0.779693 -0.217754
0.138829 0.842189 -0.084511
0.024116 0.986711 0.133808
0.218040 -0.442932 0.121433
-0.214321 0.560219 0.217998
-0.159149 0.449361 0.217998
-0.173243 0.559853 -0.217754
0.218040 -0.647716 -0.209569
-0.217712 0.050148 0.035790
-0.217712 0.256614 -0.053023
-0.196215 0.823303 0.197428
-0.120931 0.880175 -0.109014
-0.217712 -0.023136 -0.096773
-0.217712 0.082099 0.114866
-0.010851 -0.071933 -0.217754
-0.136212 -0.564114 0.217998
0.170689 -0.694839 -0.217754
0.218040 0.604118 -0.080474
-0.214858 -0.919705 0.120159
0.209870 0.684877 -0.217754
0.041089 0.522018 -0.217754
0.218040 -0.767598 -0.051774
-0.217712 -0.671155 -0.178364
-0.217712 -0.746371 0.000726
0.218040 0.745093 0.028857
-0.217712 -0.888679 0.214588
0.213079 -0.898052 0.217998
0.099306 -0.861942 0.217998
-0.182631 0.823303 -0.116991
-0.217712 0.552921 -0.074763
-0.217712 0.509726 -0.029375
-0.012988 -0.919705 -0.188455
0.072409 -0.210741 0.217998
0.191537 -0.919705 0.132730
-0.080959 0.240824 -0.217754
-0.217712 -0.024466 -0.058998
-0.034154 -0.277514 0.217998
-0.176055 -0.804178 0.217998
-0.217712 -0.628038 -0.145951
-0.187853 0.489413 0.217998
0.083808 -0.919705 -0.082086
0.095598 -0.574535 -0.217754
-0.217712 -0.650317 -0.173404
0.072032 0.593704 -0.217754
0.218040 -0.541772 -0.088255
-0.205472 -0.474969 -0.217754
0.218040 0.464315 0.160138
0.218040 0.320466 0.023217
-0.147055 0.376125 0.217998
-0.217712 -0.067305 0.079738
0.067095 -0.233386 0.217998
0.218040 0.057795 0.164190
0.218040 -0.778652 -0.000559
0.218040 0.256402 -0.158658
-0.208056 0.690641 -0.217754
-0.163861 -0.919705 -0.100048
-0.095301 -0.919705 -0.061013
0.218040 0.081875 -0.172841
0.209213 -0.031254 0.217998
-0.217712 -0.687558 -0.179109
0.218040 0.165614 0.163120
0.082972 0.986711 0.020546
-0.217712 0.524555 -0.124419
0.218040 0.240282 -0.081843
-0.217712 0.121616 -0.083259
0.218040 -0.469244 0.018945
0.160633 0.952292 -0.026895
-0.202476 0.436072 -0.217754
0.218040 0.621293 -0.101276
0.218040 -0.731181 0.139460
-0.058719 0.901935 -0.152124
0.134475 -0.214737 -0.217754
-0.217712 0.189369 0.113102
0.037323 0.978845 -0.158404
0.218040 0.052563 0.121148
0.000854 -0.426732 -0.217754
0.029781 0.725149 0.217998
0.187716 -0.308627 -0.217754
-0.217712 0.290118 -0.091063
0.153665 0.396187 0.217998
0.218040 0.536609 -0.151445
0.118582 -0.626118 0.217998
-0.134400 -0.514103 -0.217754
-0.088931 0.279606 0.217998
0.216372 -0.683331 -0.217754
-0.217712 0.278306 -0.024100
-0.217712 -0.102599 0.152512
-0.027743 0.222064 0.217998
-0.018546 -0.257249 0.217998
0.056143 0.498723 0.217998
-0.217712 0.708609 0.010620
0.218040 0.097224 -0.171132
-0.007459 0.160135 0.217998
-0.129392 -0.794850 -0.217754
-0.217712 -0.004605 -0.060578
0.218040 -0.819643 -0.085212
0.218040 0.028818 0.038138
-0.050755 0.986711 -0.154303
0.218040 0.400702 0.018697
0.218040 0.799331 0.001909
0.218040 0.603522 -0.121758
0.182536 0.278162 -0.217754
0.136047 -0.676527 -0.217754
0.218040 -0.581447 0.096877
-0.178779 -0.198526 -0.217754
-0.019469 0.468215 0.217998
-0.017617 -0.919705 0.147672
-0.189467 0.492687 -0.217754
-0.146258 -0.182775 0.217998
-0.135622 0.238450 0.217998
-0.071403 0.659006 -0.217754
-0.217712 0.688800 -0.039129
-0.217712 0.660387 0.117982
-0.217712 0.706705 -0.104577
0.001558 -0.911033 0.217998
-0.217712 -0.884134 0.194680
0.023403 0.823303 0.209137
0.026824 -0.523687 -0.217754
-0.023776 0.763139 0.217998
-0.217712 -0.705307 0.161793
-0.163141 0.352331 -0.217754
-0.217712 -0.723106 0.138983
-0.217712 0.524462 0.024456
0.051409 -0.919705 -0.056634
-0.091813 0.823303 -0.181658
-0.217712 -0.225346 0.050667
0.117324 0.638061 0.217998
0.218040 -0.160786 0.067357
0.093358 -0.109623 0.217998
0.218040 0.279933 -0.214450
-0.135102 -0.086835 0.217998
-0.047091 0.986711 0.106811
0.179381 -0.919705 -0.141418
0.120980 -0.839189 -0.217754
-0.111792 0.986711 0.004635
-0.217712 0.322344 0.167332
0.218040 -0.264215 0.092549
0.150305 -0.855489 0.217998
0.218040 -0.877924 0.061694
-0.152719 -0.674798 0.217998
0.118464 0.827993 -0.111212
0.067929 0.889960 0.147991
-0.045719 -0.395405 0.217998
-0.035368 -0.256644 0.217998
-0.148544 -0.044643 0.217998
0.136548 0.719641 0.217998
-0.217712 -0.530649 0.192920
0.052302 0.712894 0.217998
0.055391 0.156009 0.217998
0.177924 -0.101388 -0.217754
-0.045035 -0.377237 0.217998
-0.217712 -0.640356 0.103491
0.097098 0.168536 0.217998
0.192508 0.793458 -0.217754
-0.217712 -0.540600 -0.151136
-0.209683 0.551471 0.217998
-0.217712 -0.127424 0.089267
0.055479 -0.894894 -0.217754
0.150742 0.950522 0.061987
0.108144 0.224524 -0.217754
-0.085920 0.946920 -0.138107
-0.217712 0.047203 0.102312
-0.131811 0.301062 -0.217754
-0.217712 0.514149 -0.025026
0.218040 -0.064390 0.061759
0.125471 -0.133845 -0.217754
-0.017284 0.986711 -0.075917
0.003029 -0.919705 -0.214554
-0.166302 0.823303 0.166290
-0.109594 -0.166384 0.217998
-0.217712 -0.580226 -0.141371
0.218040 0.704180 0.162633
0.091842 0.986711 0.013660
-0.158513 0.840207 0.034925
0.218040 -0.805309 0.109146
0.146111 -0.788169 0.217998
-0.044598 0.986711 0.032651
-0.217712 -0.781973 0.207797
0.218040 -0.281930 -0.126880
-0.025616 -0.081217 -0.217754
-0.070784 -0.919705 -0.162856
-0.217712 0.682288 0.216295
0.079550 0.823303 0.173296
0.157921 0.794792 -0.217754
0.074767 0.914557 -0.145023
-0.217712 -0.258335 -0.214655
0.030297 0.310365 0.217998
0.218040 -0.338127 -0.019570
-0.130003 0.431562 0.217998
-0.097385 -0.751097 -0.217754
-0.209846 0.377269 0.217998
0.218040 0.289691 0.082994
-0.217712 -0.901576 0.025431
-0.065474 -0.919705 0.215704
0.062850 0.078055 0.217998
-0.217712 0.161554 -0.179616
-0.217712 0.206234 -0.201066
-0.095743 -0.603686 0.217998
0.111650 -0.690960 0.217998
-0.217712 -0.798133 -0.036231
0.218040 0.519446 0.151639
-0.217712 0.797627 0.185704
-0.040572 0.126170 0.217998
-0.217712 0.282746 -0.039810
0.218040 0.276454 0.083134
-0.132449 0.423729 0.217998
-0.167553 0.823303 0.154392
-0.167460 -0.445010 -0.217754
-0.111659 -0.443710 0.217998
-0.045699 -0.493214 -0.217754
0.218040 -0.057936 -0.009395
0.164320 0.219333 0.217998
-0.108174 -0.308413 -0.217754
-0.106571 0.769351 0.217998
0.089749 0.395664 -0.217754
-0.217712 0.578207 0.191948
0.018033 -0.919705 -0.191911
-0.217712 -0.799579 0.122032
0.218040 -0.637367 0.001798
0.218040 0.270410 -0.100155
-0.217712 -0.149983 0.182944
-0.170058 -0.609442 0.217998
-0.217712 -0.314678 0.116774
-0.214411 0.688409 -0.217754
0.164284 -0.919705 0.198433
-0.217712 -0.482046 -0.210966
-0.217712 0.333371 0.010659
-0.070748 -0.884275 0.217998
0.188599 0.685440 -0.217754
-0.217712 -0.796473 -0.102856
-0.217712 -0.048320 0.156755
0.218040 -0.474613 0.008292
-0.090461 0.370753 -0.217754
-0.217712 0.315528 0.002847
0.045877 -0.545674 -0.217754
0.112284 0.884077 0.117979
-0.217712 -0.556857 0.077672
0.059119 0.460772 -0.217754
-0.217712 -0.440495 -0.077874
0.014267 0.203992 -0.217754
0.116938 -0.830896 -0.217754
-0.217712 0.789883 -0.130707
0.218040 -0.427812 -0.109252
0.218040 -0.749790 0.034515
-0.133370 -0.640235 -0.217754
-0.217712 -0.331407 -0.214580
-0.217712 -0.614255 0.118025
-0.170458 -0.495965 0.217998
0.020057 0.707464 -0.217754
-0.031632 0.677329 0.217998
0.218040 -0.919423 0.052288
-0.217712 -0.832750 -0.076225
-0.217712 0.565975 -0.006382
0.013299 0.067573 0.217998
0.047931 0.986711 0.053287
-0.152395 0.185966 0.217998
0.218040 -0.412078 0.208937
0.127525 0.270587 0.217998
0.218040 -0.157802 0.006769
0.098019 -0.116453 -0.217754
0.082224 -0.578559 -0.217754
-0.194723 -0.919705 0.104454
-0.107330 0.140847 0.217998
0.218040 -0.691016 -0.083374
0.218040 -0.257187 -0.039605
-0.217712 -0.576440 -0.025866
0.128698 0.896889 -0.100407
-0.192283 -0.919705 0.095856
-0.071805 0.569846 0.217998
-0.217712 -0.088801 0.162678
0.218040 0.216335 -0.050538
-0.217712 -0.828159 0.142489
-0.217712 0.172832 -0.064268
0.218040 0.530158 -0.020964
-0.075962 0.823303 -0.192854
0.218040 -0.279010 0.021455
0.218040 -0.669417 0.201775
-0.169151 -0.919705 0.149047
0.115060 -0.543208 0.217998
0.217408 0.823303 0.211974
0.133033 0.021607 0.217998
0.218040 0.541944 -0.129040
-0.217712 0.233087 -0.120763
0.000645 0.788557 -0.217754
-0.058058 -0.391953 -0.217754
-0.160338 -0.827361 -0.217754
0.163391 0.693523 0.217998
-0.100874 -0.919705 0.071911
0.084041 0.066809 -0.217754
0.218040 -0.459449 0.074474
-0.174258 0.392868 0.217998
-0.191144 -0.410421 -0.217754
-0.217712 -0.734023 -0.022885
-0.158374 0.160765 -0.217754
0.004266 -0.919705 0.133862
-0.051619 -0.304961 -0.217754
-0.079386 -0.919705 -0.157265
-0.190778 0.722870 -0.217754
0.218040 0.785909 -0.135965
-0.201433 -0.492506 0.217998
0.209611 0.110587 0.217998
-0.126793 0.772959 -0.217754
0.193748 0.598156 0.217998
-0.217712 0.284034 -0.055256
-0.211680 0.621092 0.217998
0.166182 0.033384 -0.217754
0.004457 0.931959 -0.162799
0.218040 0.102890 0.037007
-0.191250 -0.742519 -0.217754
-0.217712 0.222710 -0.083492
0.161652 0.327274 0.217998
0.153759 0.986711 -0.014631
0.031952 0.763015 -0.217754
0.056517 -0.285007 0.217998
-0.217361 -0.791800 -0.217754
0.218040 0.619532 -0.173768
0.218040 0.582400 0.054910
-0.217712 -0.118696 0.145235
-0.217712 0.222975 -0.095996
-0.056215 0.701350 0.217998
0.218040 0.358400 0.155984
-0.217712 -0.592289 -0.002792
0.136040 0.322089 0.217998
0.218040 -0.212932 0.159974
-0.217712 0.476028 -0.050441
-0.217712 0.033619 -0.000349
0.218040 -0.756577 0.037661
0.041229 0.823303 0.187076
0.218040 -0.572636 -0.105690
0.163033 0.836341 0.005074
-0.022617 0.821293 0.217998
-0.171010 -0.533193 -0.217754
0.218040 0.215756 0.173726
-0.084260 0.986711 -0.131318
-0.217712 -0.436351 0.019393
0.218040 -0.776998 -0.013059
0.218040 0.078385 -0.127049
-0.159624 0.883932 -0.029636
0.218040 0.663088 -0.070851
0.218040 -0.194904 0.127724
-0.217712 0.541356 0.080809
0.022378 0.810065 -0.217754
0.017087 0.986711 -0.149638
-0.140378 0.253791 0.217998
-0.030344 0.489817 0.217998
0.038302 -0.550466 0.217998
0.041911 0.201417 -0.217754
0.137110 -0.322552 -0.217754
0.218040 0.608369 -0.195175
0.197328 0.815024 0.217998
-0.217712 0.530797 -0.054395
-0.003862 0.922821 0.162591
0.008617 0.986711 0.103542
0.218040 -0.231920 -0.126301
-0.172832 -0.256783 0.217998
0.046354 0.599478 -0.217754
0.218040 -0.829089 0.180967
0.218040 0.544558 0.003249
0.172749 -0.280201 0.217998
-0.217712 -0.097770 -0.000419
0.044824 0.154008 -0.217754
-0.169528 -0.345893 0.217998
0.079353 0.773934 0.217998
0.218040 0.290913 0.200539
-0.217712 0.795328 -0.044678
-0.217712 -0.051670 0.057908
-0.217712 0.584605 0.053083
0.218040 0.044006 -0.128537
0.218040 -0.382625 0.153879
-0.191834 0.011908 0.217998
0.218040 -0.324956 0.068391
0.143891 -0.213577 0.217998
-0.217712 0.445796 0.183179
0.063852 0.823303 -0.206551
0.121303 0.896105 0.108458
0.032647 0.823303 -0.188378
0.197080 -0.458503 -0.217754
0.218040 0.361491 -0.162524
-0.217712 -0.549421 -0.141165
0.184897 0.303740 -0.217754
-0.115555 0.449307 -0.217754
-0.198379 0.290852 0.217998
-0.187621 0.823303 -0.147823
-0.145353 -0.655882 -0.217754
-0.217712 -0.240824 -0.110561
0.034016 -0.167670 -0.217754
-0.006001 0.552834 0.217998
0.218040 -0.390261 -0.122560
-0.140972 -0.685688 -0.217754
-0.086040 0.433699 0.217998
-0.217712 -0.448543 -0.189785
-0.001704 -0.712396 -0.217754
-0.217712 0.712455 0.026394
-0.081019 -0.711042 -0.217754
0.190872 -0.262186 0.217998
0.163896 -0.232574 0.217998
-0.066991 0.641441 -0.217754
0.072226 -0.811470 0.217998
-0.082885 0.437704 0.217998
0.089657 0.700556 -0.217754
-0.061289 -0.717019 0.217998
0.218040 0.219138 -0.141326
-0.217712 0.039771 -0.062432
-0.217712 -0.078586 0.042970
0.218040 0.027112 -0.019061
-0.022961 -0.529180 0.217998
-0.006951 -0.522500 0.217998
0.218040 -0.409690 0.059032
-0.217712 0.125327 0.104811
-0.190081 0.643519 0.217998
-0.217712 0.145398 -0.021408
-0.155768 0.977097 0.047395
0.186879 -0.629786 -0.217754
0.194404 0.577531 -0.217754
-0.217712 -0.023686 0.015899
-0.217712 -0.724017 0.119110
-0.041116 -0.346800 -0.217754
-0.217712 -0.686138 -0.097636
0.184892 0.139734 -0.217754
0.038953 -0.713902 -0.217754
-0.077880 -0.025428 0.217998
0.218040 0.400398 -0.179776
-0.081514 0.150997 -0.217754
0.218040 -0.029815 0.145403
0.148128 0.823303 -0.108935
-0.160964 -0.771782 -0.217754
0.142032 -0.349250 0.217998
0.218040 -0.656791 0.169948
0.218040 -0.474622 0.204084
-0.217712 -0.242367 -0.142492
-0.217712 0.267831 0.044447
0.218040 -0.143171 0.009196
0.064177 -0.783486 0.217998
0.214337 -0.646872 0.217998
0.148145 -0.028566 0.217998
0.207589 -0.367184 -0.217754
-0.050117 -0.256563 -0.217754
-0.217712 0.653553 0.154083
-0.056665 0.332402 0.217998
0.136217 -0.326495 0.217998
-0.217712 0.090046 0.124411
0.218040 -0.901936 0.140839
0.024371 0.070592 -0.217754
-0.065499 0.031863 -0.217754
-0.031885 0.284734 0.217998
0.105075 0.259481 0.217998
0.189061 0.250325 -0.217754
0.216154 0.534347 0.217998
0.218040 0.788715 -0.138995
0.146089 0.487634 -0.217754
-0.217712 -0.672135 -0.198271
-0.167401 -0.453096 -0.217754
-0.136862 -0.506524 0.217998
-0.217712 -0.600233 -0.137909
-0.139034 0.109472 0.217998
0.132421 -0.027865 0.217998
-0.217712 -0.757424 0.039129
0.218040 0.172248 -0.078484
-0.217712 0.539008 0.041735
0.218040 -0.465675 -0.070996
0.218040 -0.152221 0.188026
-0.217712 -0.696336 -0.083353
0.211475 -0.720158 0.217998
0.114754 0.823303 -0.122650
0.218040 0.394989 0.139470
-0.020104 -0.141363 -0.217754
-0.078849 0.250494 0.217998
-0.217712 0.010800 0.183139
-0.217712 0.104751 -0.041720
0.218040 -0.406679 0.205317
-0.217712 0.769933 0.014096
-0.117153 0.672078 -0.217754
0.189795 -0.897000 0.217998
0.033320 0.869540 0.159304
-0.217712 0.635521 0.090163
0.218040 -0.838822 0.054149
-0.217712 -0.495526 -0.137991
-0.165364 0.823303 0.213339
0.218040 0.204381 -0.170900
0.017529 -0.743463 0.217998
-0.217712 0.493174 0.188404
0.139366 0.820113 0.217998
-0.174491 -0.870399 0.217998
0.104265 -0.821457 0.217998
0.218040 0.300139 0.000429
-0.105520 -0.007003 0.217998
-0.217712 -0.572805 0.116225
-0.027733 -0.236064 0.217998
0.008962 0.612675 0.217998
-0.217712 -0.016952 0.198074
-0.217712 0.337036 0.047250
-0.160454 0.978948 -0.025863
-0.121163 0.678036 -0.217754
-0.185911 -0.861998 0.217998
0.094505 -0.919705 0.207302
0.195499 0.011667 -0.217754
-0.217712 -0.103906 -0.169457
0.186828 -0.191221 0.217998
0.160359 0.858109 0.029656
-0.182937 -0.220123 -0.217754
-0.158564 0.966513 0.034692
0.118128 -0.919705 -0.130266
-0.217712 -0.731859 0.001192
0.193745 -0.698417 0.217998
0.218040 -0.387443 0.010014
-0.007792 -0.919705 -0.170047
0.218040 -0.776266 0.042446
0.218040 -0.074446 0.070039
-0.176009 0.282796 0.217998
0.191088 0.823303 -0.205079
-0.027300 0.986711 -0.002029
0.218040 -0.114818 0.080502
-0.054609 -0.919705 0.198802
-0.217712 -0.835191 0.018853
0.218040 0.181720 -0.101182
-0.217712 -0.856137 -0.079549
-0.212776 0.581730 -0.217754
0.218040 0.072257 0.001985
-0.217712 -0.862640 -0.051787
-0.073828 -0.099900 -0.217754
0.218040 0.596222 0.020999
-0.217712 -0.904510 -0.179771
0.106027 -0.788850 0.217998
0.209826 0.304341 -0.217754
-0.217712 -0.135254 0.118405
0.218040 0.231347 0.035167
-0.217712 -0.012228 -0.059724
-0.040370 0.986711 0.040940
-0.191553 -0.919705 0.210836
-0.205269 0.329644 -0.217754
-0.140822 -0.807778 0.217998
0.119945 -0.422620 0.217998
0.218040 -0.665520 0.053012
0.013452 -0.607990 0.217998
-0.074246 -0.048663 -0.217754
-0.040811 -0.689179 0.217998
-0.217712 0.251043 0.046380
0.218040 -0.603238 -0.191555
-0.200714 -0.506917 0.217998
0.145476 0.083474 0.217998
-0.217712 0.590470 -0.104245
0.015091 0.220141 0.217998
0.033787 -0.393592 -0.217754
-0.002369 -0.833413 -0.217754
-0.033086 0.850801 -0.159241
0.218040 0.686511 0.039343
-0.051053 -0.792559 -0.217754
0.218040 -0.044293 0.185667
0.218040 0.718914 0.197508
0.218040 -0.258980 0.018331
0.079966 0.882907 -0.142039
-0.201189 -0.527442 0.217998
0.218040 0.659983 -0.009459
0.026665 0.038032 -0.217754
0.002804 -0.139001 -0.217754
0.087127 0.927833 -0.137184
-0.217712 -0.507231 -0.183990
-0.053864 0.633608 -0.217754
-0.174706 -0.471854 0.217998
-0.204089 0.238305 0.217998
0.218040 0.628032 0.210832
0.048409 0.481676 -0.217754
0.218040 -0.214762 -0.105872
0.108818 -0.121676 0.217998
0.218040 0.239135 -0.154326
-0.051103 0.986711 0.148268
0.174137 0.823303 0.198456
0.218040 0.689262 -0.053649
0.019873 -0.919705 -0.148172
0.218040 -0.237815 0.014896
0.218040 0.563968 -0.176836
0.202465 -0.919705 0.167352
0.127842 0.769810 -0.217754
0.218040 -0.189882 -0.115242
0.199764 -0.268090 -0.217754
-0.217712 -0.849927 0.110586
-0.093151 -0.919705 -0.215313
-0.024712 -0.919705 0.187155
0.089333 0.984110 -0.135689
0.150847 -0.452866 0.217998
-0.217712 -0.570727 -0.081980
-0.048997 0.400748 -0.217754
0.218040 -0.563109 0.070835
0.218040 0.659272 -0.045043
-0.217712 0.716117 -0.090411
0.083277 -0.919705 -0.041247
-0.086191 0.275042 -0.217754
0.169241 0.823303 0.017705
-0.191194 -0.830129 -0.217754
-0.217712 -0.851384 0.010786
0.089642 -0.520444 -0.217754
0.218040 -0.555645 -0.003806
-0.217712 -0.687534 -0.037059
0.218040 -0.426992 0.006113
0.007234 -0.127405 -0.217754
0.090275 -0.830902 -0.217754
-0.217712 -0.678220 -0.160517
-0.217712 -0.810773 -0.165564
0.181880 0.231330 -0.217754
-0.143644 0.627836 -0.217754
0.101669 0.752703 -0.217754
-0.217712 -0.460851 0.197153
0.163954 -0.201568 0.217998
0.190945 0.752976 -0.217754
0.039400 -0.269047 -0.217754
0.218040 -0.819250 -0.023942
0.218040 -0.149801 -0.077295
-0.217712 -0.236215 -0.067716
0.218040 -0.686042 0.189128
0.218040 -0.658796 -0.184376
0.131001 -0.919705 -0.143151
-0.137495 0.304524 -0.217754
-0.025746 -0.340087 0.217998
-0.217712 -0.383098 -0.007575
-0.173224 0.568439 0.217998
0.218040 0.357506 0.019770
-0.025151 0.066335 -0.217754
0.196272 -0.760707 -0.217754
-0.217712 0.021708 0.173668
0.218040 0.178285 -0.031661
-0.086447 -0.919705 -0.033776
-0.217712 -0.576106 0.025347
-0.146504 -0.574474 0.217998
0.170346 0.823303 -0.198170
0.182534 -0.919705 -0.004718
-0.217712 0.701768 -0.105261
-0.217712 0.687274 0.194031
-0.094643 0.331681 0.217998
-0.217712 -0.039636 -0.035918
0.086075 0.823303 0.184881
0.163189 0.935767 0.003640
-0.209953 0.597714 -0.217754
0.157529 0.914107 0.041844
0.218040 0.097055 -0.128909
-0.024691 0.364947 0.217998
-0.136022 -0.109905 0.217998
-0.217712 -0.297323 -0.086384
0.057444 -0.013685 0.217998
-0.099496 0.986711 -0.060131
-0.217712 0.755697 -0.186614
-0.051224 0.274910 0.217998
0.218040 -0.677561 -0.098785
-0.007550 0.986711 0.131104
0.218040 -0.528206 0.107664
-0.062066 0.073570 0.217998
-0.217712 -0.143978 0.132735
-0.045148 0.972628 -0.155892
-0.133416 -0.375828 0.217998
0.218040 0.119284 0.008150
0.151660 0.910836 0.059262
-0.201093 0.576143 0.217998
0.033181 -0.420329 -0.217754
-0.217712 0.334853 -0.140621
-0.128113 0.934051 -0.099566
0.044686 -0.564705 0.217998
0.218040 0.325762 -0.096986
-0.196941 -0.919705 0.043822
0.147345 0.105863 -0.217754
-0.156767 0.823303 -0.113332
0.170713 -0.016555 0.217998
-0.217712 0.275552 -0.094449
-0.146534 0.390665 0.217998
-0.080057 -0.035372 -0.217754
-0.076389 0.251999 -0.217754
0.004297 0.777897 0.217998
0.151617 -0.919705 -0.048701
0.211361 -0.005089 -0.217754
-0.062444 0.878327 -0.150553
0.001739 0.914985 0.162895
-0.217712 -0.405403 -0.004967
0.037332 0.462487 0.217998
0.099631 0.986711 0.002044
-0.119385 0.117895 0.217998
0.031429 0.263136 -0.217754
-0.217712 -0.431684 -0.192617
-0.073176 0.005965 0.217998
-0.069840 -0.153337 -0.217754
-0.076916 -0.919705 0.092313
0.218040 0.430805 0.074188
-0.217712 0.118622 0.113923
-0.217712 -0.317562 0.117160
0.218040 -0.495152 -0.109846
0.071228 -0.780991 -0.217754
-0.162677 -0.613219 0.217998
-0.189262 0.114104 -0.217754
-0.217712 -0.309439 0.132106
-0.217712 -0.818659 0.189362
0.218040 0.201090 -0.125296
-0.217712 0.286206 -0.003641
-0.032033 0.400794 -0.217754
-0.185985 -0.575116 -0.217754
0.167930 -0.919705 0.180643
-0.180149 0.142039 -0.217754
-0.084633 -0.919705 0.214672
0.218040 -0.742680 0.067193
0.218040 0.815762 0.133062
-0.217712 0.269689 0.107781
0.054180 0.697451 -0.217754
0.052489 -0.137851 -0.217754
0.218040 0.313693 -0.183207
-0.180701 -0.015426 0.217998
-0.217712 -0.148825 0.179336
0.054161 -0.661578 0.217998
0.170974 0.048166 0.217998
0.015933 0.460969 -0.217754
-0.217712 -0.701810 0.192141
0.148556 -0.040291 0.217998
0.109946 0.893946 -0.120204
-0.143222 -0.057900 -0.217754
-0.100176 0.245813 0.217998
0.207939 0.134218 0.217998
-0.217712 -0.174374 -0.178188
-0.154068 -0.033974 0.217998
-0.217712 -0.821186 0.037449
0.218040 -0.769779 0.027582
0.218040 -0.789415 0.064226
-0.067464 -0.208304 0.217998
-0.084838 0.072465 -0.217754
-0.014892 -0.183718 -0.217754
-0.077495 0.042799 -0.217754
0.218040 0.005943 -0.061674
0.162542 0.825935 0.009584
-0.217712 -0.620489 0.134258
-0.018241 -0.656803 0.217998
-0.098717 -0.416742 -0.217754
0.218040 0.703673 0.142037
0.207707 -0.387859 0.217998
0.146913 0.557106 0.217998
0.129180 0.622028 0.217998
-0.102626 -0.468859 0.217998
0.139179 0.986711 -0.060693
0.218040 0.583320 -0.053563
0.071750 0.032182 -0.217754
0.218040 0.482298 0.159081
-0.217712 -0.006960 -0.214244
-0.034987 -0.333927 -0.217754
0.074699 0.377094 0.217998
-0.217712 0.394960 -0.159917
0.218040 -0.224854 0.183590
-0.053293 -0.229107 0.217998
-0.217712 -0.494927 -0.193016
0.153056 -0.155806 -0.217754
-0.217712 0.704264 -0.068056
-0.007059 0.986711 0.062529
0.218040 -0.343107 0.029904
-0.091239 0.986711 -0.048532
-0.014710 -0.808324 -0.217754
-0.217712 -0.741691 0.155769
0.218040 -0.137131 -0.191762
0.218040 0.237612 0.184787
0.218040 0.179745 0.076501
0.066874 -0.886793 -0.217754
-0.002374 -0.435478 -0.217754
-0.217712 -0.751680 -0.128221
0.168316 0.520751 -0.217754
0.218040 0.611410 0.094237
0.218040 0.053269 -0.070055
-0.067494 0.711560 -0.217754
-0.188527 -0.538782 0.217998
-0.148584 -0.466833 -0.217754
0.218040 0.013815 0.065816
0.218040 0.354212 -0.023899
-0.099292 -0.636233 0.217998
-0.217712 -0.553778 -0.144902
-0.076782 -0.602334 -0.217754
-0.121989 -0.748952 0.217998
0.218040 0.048474 0.011331
-0.015833 0.810233 0.217998
-0.111455 0.242336 -0.217754
0.218040 -0.529417 0.005082
-0.216141 -0.847904 -0.217754
-0.172799 -0.919705 -0.003556
-0.217712 -0.256480 -0.009468
0.218040 -0.102288 0.011360
-0.028068 -0.466853 0.217998
-0.217712 0.543811 -0.078548
-0.164024 -0.607693 0.217998
-0.217712 0.726867 0.118802
0.218040 -0.277249 -0.168133
0.123770 -0.853509 -0.217754
0.002387 -0.272547 -0.217754
0.067171 0.520570 0.217998
-0.149565 -0.400768 0.217998
0.218040 -0.651269 0.051293
-0.217712 -0.431770 -0.029613
-0.217712 -0.512285 -0.063706
-0.142991 0.492898 -0.217754
0.036358 -0.919705 -0.207691
-0.155851 0.902431 0.047018
0.218040 0.333126 0.135078
0.218040 0.347373 -0.076725
0.109056 -0.093664 -0.217754
-0.217712 0.307188 0.006420
0.218040 -0.125169 0.102698
0.131609 0.555421 -0.217754
-0.217712 -0.864971 0.026139
-0.217712 0.296393 0.037346
-0.217712 0.233484 -0.067111
0.210708 0.774830 -0.217754
-0.132355 -0.919705 0.181299
0.209101 0.823303 -0.160088
0.218040 0.426270 -0.148598
-0.217712 0.366516 0.136184
0.218040 0.792406 0.155900
-0.085598 0.819752 -0.217754
-0.196286 0.823303 -0.074413
0.024608 0.986711 0.030969
-0.217712 -0.581806 -0.182822
-0.217712 0.278469 -0.051226
0.218040 0.075210 0.152538
0.095775 0.481448 -0.217754
0.131127 0.938189 -0.097313
-0.217712 -0.470219 -0.167564
0.069553 0.823303 -0.199092
-0.003859 0.644081 -0.217754
-0.143701 -0.358021 -0.217754
-0.097189 0.823303 0.197372
-0.108594 -0.807331 -0.217754
-0.184349 0.823303 -0.065745
-0.056835 -0.320193 -0.217754
-0.041484 -0.493301 -0.217754
-0.217712 0.451992 0.119883
0.218040 -0.719405 -0.074506
0.140959 -0.661968 -0.217754
-0.198807 -0.332145 -0.217754
-0.217712 -0.118545 0.007521
0.066687 0.457441 0.217998
-0.191571 -0.130796 -0.217754
0.090491 0.586225 0.217998
0.218040 -0.461657 -0.014956
-0.069156 -0.133689 0.217998
-0.217712 0.542332 -0.076723
-0.097451 0.818229 0.217998
-0.217712 -0.708686 -0.151999
0.218040 0.509775 -0.197877
0.218040 -0.892233 0.085529
0.132028 0.853534 0.096058
0.218040 -0.268240 0.196868
-0.013988 0.954597 0.162042
0.065769 -0.697956 -0.217754
0.215338 0.605871 -0.217754
-0.180497 0.823303 -0.166380
-0.053347 -0.919705 -0.179366
0.218040 0.714024 -0.055760
0.120713 0.376985 0.217998
-0.036360 -0.919705 -0.121291
-0.106400 0.022967 0.217998
-0.193471 0.501963 -0.217754
-0.217712 0.763408 -0.116841
0.218040 -0.203222 0.061533
-0.217712 -0.195509 -0.141256
-0.039649 -0.454465 -0.217754
-0.077724 0.272323 -0.217754
0.129454 0.960168 -0.099610
-0.217712 0.244211 -0.036686
0.218040 0.754736 0.122764
0.182357 0.422563 -0.217754
-0.002092 0.026544 -0.217754
0.000262 -0.220788 0.217998
-0.217712 -0.180111 0.166574
0.056244 -0.033047 -0.217754
-0.217712 -0.837114 0.063123
-0.024048 -0.823073 0.217998
0.218040 -0.487868 -0.174721
0.218040 -0.388094 0.132387
-0.026444 -0.919705 0.106010
-0.211465 -0.852521 -0.217754
0.000615 0.986711 -0.099886
0.194352 0.734589 -0.217754
-0.217712 0.217740 0.060339
-0.217712 -0.814032 -0.117946
0.218040 0.261731 0.098014
-0.217712 -0.528907 0.035653
0.140846 -0.919705 0.136521
-0.217712 0.679260 0.026398
-0.217712 0.354288 0.015334
-0.205104 -0.410088 -0.217754
-0.192671 -0.919705 0.004852
-0.065986 -0.363789 -0.217754
0.218040 0.367864 -0.031830
0.207831 -0.709285 0.217998
-0.169198 0.823303 0.033399
0.218040 0.357604 0.123841
-0.126846 -0.764258 0.217998
-0.217712 -0.439712 0.104362
-0.217712 0.639810 0.113475
-0.166489 0.442144 0.217998
0.031888 -0.063228 0.217998
0.218040 0.370350 -0.049345
0.218040 0.207132 -0.060037
0.218040 -0.812123 -0.164320
0.099622 -0.471980 -0.217754
-0.070705 0.440582 0.217998
-0.030990 -0.163943 0.217998
-0.138290 -0.697582 0.217998
0.218040 0.328319 -0.167596
-0.217712 0.498240 0.038250
0.003533 -0.665301 0.217998
-0.008759 -0.830583 0.217998
-0.217712 0.443822 -0.101689
0.097672 0.823303 0.174172
-0.217712 -0.604385 0.050255
-0.206133 -0.625354 0.217998
-0.128114 0.963436 0.099809
-0.181714 0.115376 0.217998
-0.217712 0.015519 0.196620
-0.217712 -0.860986 0.130337
-0.176987 -0.840851 -0.217754
-0.205736 0.350731 0.217998
0.218040 0.138848 0.166573
-0.217712 0.062347 -0.198886
-0.217712 -0.838225 0.106139
0.218040 -0.535817 0.103724
0.218040 -0.843309 -0.074866
0.197002 0.493545 -0.217754
0.218040 -0.019461 -0.050935
-0.001897 0.986711 -0.096892
0.218040 -0.438792 -0.057900
-0.197232 -0.805863 -0.217754
-0.217712 0.371917 -0.200031
0.218040 -0.648761 -0.078648
-0.133237 -0.245080 0.217998
0.218040 0.442639 -0.052209
-0.175746 0.358557 -0.217754
-0.023187 0.928741 0.161544
0.218040 -0.909607 -0.189206
0.218040 -0.708386 0.146196
0.139534 0.153367 -0.217754
0.025622 -0.493239 0.217998
0.218040 -0.632790 0.100516
-0.139724 -0.053020 -0.217754
0.055310 0.583352 0.217998
-0.106811 0.357449 -0.217754
0.218040 -0.457258 0.014590
-0.140666 -0.504176 0.217998
-0.186972 -0.669833 -0.217754
0.218040 -0.612821 -0.119790
-0.097420 0.498701 0.217998
-0.071830 0.649505 -0.217754
0.218040 0.806475 -0.203114
0.218040 -0.393459 0.044659
-0.217712 -0.806606 -0.113254
-0.105665 0.823303 -0.171892
0.071174 -0.627715 0.217998
0.043338 -0.741362 -0.217754
-0.217712 -0.572027 -0.170066
-0.217712 -0.307544 0.009659
0.218040 0.375037 -0.036019
0.079421 -0.137568 0.217998
0.218040 -0.492640 -0.080210
0.001780 0.986711 0.009409
0.218040 0.527267 0.092202
-0.148825 -0.334847 0.217998
-0.217712 -0.785768 -0.028578
-0.217712 0.502201 -0.029099
-0.170822 0.317030 0.217998
0.155734 -0.011105 -0.217754
0.171056 -0.461678 -0.217754
0.218040 -0.875726 0.056328
0.147284 -0.866400 -0.217754
-0.051310 -0.470678 -0.217754
0.218040 -0.605793 0.187874
0.218040 -0.156841 0.061270
0.104309 0.389517 -0.217754
0.104278 -0.919705 0.001132
0.154690 0.903298 0.050269
0.028008 -0.109890 0.217998
0.218040 0.501941 -0.202131
-0.039259 -0.042069 -0.217754
-0.088446 0.738831 0.217998
0.197149 -0.236627 0.217998
-0.217712 -0.284361 0.119499
-0.217712 0.564307 -0.112686
-0.217712 -0.258495 0.179971
0.218040 -0.229494 -0.212992
-0.217712 0.332066 -0.170608
0.218040 -0.219077 -0.132705
0.218040 -0.213156 -0.171591
-0.009985 -0.169606 -0.217754
0.218040 -0.091217 0.112455
-0.217712 0.053691 -0.025096
-0.217712 -0.505413 -0.142003
-0.096244 -0.636219 0.217998
-0.217712 -0.236921 -0.206541
0.218040 0.782731 -0.069396
-0.217712 0.342045 0.036851
-0.192260 -0.919705 0.112421
0.156275 0.398092 -0.217754
-0.217712 -0.024691 -0.008512
0.089167 0.533468 0.217998
0.218040 0.353496 -0.163609
-0.217712 -0.800664 0.171903
0.218040 0.209265 0.002219
-0.020360 -0.383909 -0.217754
-0.217712 -0.661024 -0.092884
-0.217712 -0.468252 -0.028130
-0.138793 0.816943 0.217998
0.099469 -0.896363 -0.217754
0.218040 0.429609 0.211045
0.218040 0.032152 0.081045
-0.127597 0.823303 0.149722
-0.033015 -0.004580 0.217998
0.218040 -0.091466 -0.199272
0.044690 -0.819478 -0.217754
0.029881 -0.398660 -0.217754
0.115098 0.823303 -0.195226
0.218040 -0.264693 -0.030604
0.164987 0.605194 -0.217754
-0.114332 -0.919705 -0.047182
0.218040 0.192529 0.111741
-0.088662 0.669352 0.217998
0.213347 -0.399851 0.217998
0.218040 -0.121692 -0.106025
0.218040 0.074735 -0.197007
-0.175928 0.780267 -0.217754
0.002278 -0.845996 -0.217754
0.218040 -0.672934 -0.044141
-0.217712 0.741566 -0.216561
-0.067471 -0.574065 -0.217754
-0.038842 0.079892 -0.217754
-0.217712 0.764988 0.014336
0.131623 0.416180 -0.217754
0.218040 -0.539111 0.103701
0.138028 -0.788853 0.217998
-0.217712 0.555605 0.049414
-0.217712 0.821771 0.190602
0.089455 -0.161316 -0.217754
0.101509 0.506063 0.217998
0.213451 0.823303 -0.184621
-0.150726 0.703810 -0.217754
-0.084302 -0.138929 -0.217754
-0.217712 -0.379447 -0.082617
-0.196744 0.823303 0.064170
0.218040 0.777630 0.176896
0.175707 -0.017883 0.217998
0.042734 0.731138 -0.217754
-0.050154 0.186000 -0.217754
0.218040 -0.259806 0.035227
0.218040 -0.823039 0.211236
-0.099656 0.348716 -0.217754
0.103880 0.702430 0.217998
0.086274 0.350177 -0.217754
-0.217712 -0.219290 0.133821
0.218040 0.226118 -0.087831
0.218040 0.381190 -0.109391
0.062154 -0.412121 -0.217754
0.108354 0.324707 0.217998
0.218040 0.648669 -0.058151
-0.010550 0.534507 -0.217754
0.034096 0.533856 0.217998
-0.197463 0.335645 0.217998
-0.217712 -0.830036 0.108456
0.218040 -0.321730 -0.130396
0.002641 -0.144476 0.217998
0.218040 -0.395398 0.202381
-0.154265 0.823303 -0.204794
0.218040 -0.913583 0.079982
-0.217712 -0.347004 0.117694
0.218040 -0.752746 -0.138539
0.029217 0.277180 0.217998
0.162404 0.982480 0.010850
-0.217712 -0.309917 -0.146219
-0.197331 -0.735728 -0.217754
-0.217712 -0.475754 0.175932
0.017170 0.518567 0.217998
-0.215061 0.569338 0.217998
-0.217712 0.389931 -0.151794
-0.217712 -0.385728 -0.058734
0.218040 0.270198 -0.010922
0.218040 -0.791560 -0.205520
0.155902 -0.118160 -0.217754
0.131808 0.058298 -0.217754
0.218040 0.797496 -0.216470
0.218040 0.178427 0.154038
0.196649 0.084065 0.217998
0.218040 -0.357184 0.043464
0.218040 0.096811 0.112598
0.218040 -0.127119 -0.038127
0.218040 -0.784193 -0.188730
0.170709 0.419041 0.217998
-0.054675 0.829559 0.153490
-0.168898 0.823303 -0.132802
0.218040 0.129449 0.216349
0.115709 -0.225126 -0.217754
0.137658 -0.180129 0.217998
-0.217712 -0.480992 -0.169324
-0.217712 -0.083548 0.119022
0.030859 -0.875353 -0.217754
0.058460 0.261932 -0.217754
0.186374 -0.305216 -0.217754
-0.174279 0.559185 -0.217754
0.218040 0.062686 0.179214
0.051509 0.744998 0.217998
0.218040 -0.480274 -0.173575
0.138739 0.883125 0.084906
0.203934 0.823303 0.149135
0.218040 -0.558419 -0.056412
0.218040 -0.846105 0.069317
0.111029 0.986711 -0.060679
0.218040 0.170628 -0.076950
-0.026126 0.210982 -0.217754
0.218040 -0.500098 0.091877
0.181231 0.096052 0.217998
-0.217712 -0.002614 -0.193505
-0.117331 -0.154547 0.217998
-0.048225 0.714261 0.217998
0.055656 0.986711 -0.116618
0.065690 0.476222 0.217998
0.218040 -0.201632 0.178041
-0.217712 0.485795 0.144623
0.218040 -0.295612 0.082411
0.179510 0.813122 -0.217754
-0.086816 0.654569 -0.217754
0.019387 -0.232979 0.217998
0.218040 0.057672 -0.129238
-0.075828 -0.023460 -0.217754
-0.217712 -0.220836 -0.129083
-0.023163 0.541192 0.217998
-0.217712 0.710541 -0.211775
0.218040 0.541709 0.167264
-0.024738 0.402567 -0.217754
-0.092970 0.579326 0.217998
0.126555 0.986711 -0.045441
-0.189332 -0.919705 -0.167272
-0.186418 0.014423 0.217998
-0.039527 0.979566 -0.157452
0.218040 0.335053 -0.216214
-0.217712 0.766239 -0.179494
0.150890 0.891050 0.061548
0.001720 0.780854 -0.217754
-0.079976 -0.500188 0.217998
-0.071434 -0.211918 -0.217754
-0.172243 -0.046100 -0.217754
-0.100078 -0.634000 -0.217754
-0.112066 -0.256656 0.217998
0.217851 -0.151050 -0.217754
0.218040 0.749106 -0.029196
-0.033070 -0.420220 -0.217754
-0.103582 -0.919705 -0.181243
0.218040 0.412444 0.143583
-0.217712 0.312594 -0.197456
-0.217712 0.746525 -0.094235
-0.127382 0.154178 -0.217754
0.173390 0.013463 -0.217754
-0.125385 0.489254 -0.217754
-0.200082 -0.325360 0.217998
-0.147324 0.823303 0.156625
0.112180 -0.168031 0.217998
-0.051243 -0.000703 0.217998
0.218040 -0.532558 0.081082
-0.016953 0.962562 0.161882
-0.191098 0.427978 -0.217754
0.124289 0.887079 0.105306
-0.185552 0.289943 0.217998
0.177862 -0.450291 0.217998
0.218040 -0.330110 -0.055950
0.101585 0.102246 -0.217754
0.218040 -0.424686 0.118608
-0.217712 -0.461411 0.066080
-0.217712 0.632033 -0.146378
-0.109360 -0.378669 -0.217754
0.218040 -0.073793 0.204807
-0.217712 -0.458280 -0.154346
0.218040 0.100194 0.033192
-0.217712 0.589377 -0.034223
0.218040 -0.523195 -0.118166
-0.096043 -0.814359 -0.217754
-0.217712 -0.719142 -0.031540
-0.208523 -0.192186 0.217998
-0.181777 -0.023034 0.217998
0.077827 0.553642 -0.217754
-0.028330 0.823303 0.213969
0.215715 -0.919705 -0.134113
0.143248 0.823303 0.158851
0.218040 -0.871274 -0.153975
0.218040 0.233100 -0.130959
-0.217712 0.600015 -0.138610
0.044335 0.372272 0.217998
0.070177 -0.694990 -0.217754
-0.158241 0.927374 -0.035917
0.218040 0.510215 0.106475
-0.090003 0.936716 -0.135942
-0.013531 -0.548917 -0.217754
0.143879 -0.919705 -0.131441
-0.083104 0.725156 -0.217754
-0.154196 0.601461 0.217998
0.218040 0.760745 -0.150261
0.109781 0.986711 -0.008397
-0.200139 -0.919705 0.115056
0.024200 -0.049372 -0.217754
-0.036484 -0.490348 0.217998
-0.217712 -0.021452 0.171989
-0.217712 0.366370 -0.162875
-0.141161 0.337369 0.217998
-0.114089 -0.249684 0.217998
0.218040 -0.369308 0.043332
0.218040 -0.292100 0.126125
0.218040 0.518368 0.168480
-0.217712 -0.112072 -0.132211
0.218040 -0.105091 0.033015
0.218040 -0.239934 -0.217338
0.218040 0.144327 -0.074864
0.218040 -0.525644 -0.144706
-0.050130 0.921477 -0.154508
-0.217712 0.659570 -0.057802
-0.187071 -0.052503 -0.217754
0.218040 0.402685 0.182340
-0.114395 0.103984 0.217998
-0.147578 -0.865285 -0.217754
0.116441 -0.169992 0.217998
-0.217712 -0.810535 -0.015624
0.204691 0.494692 -0.217754
-0.072692 0.647480 -0.217754
0.065447 0.362303 -0.217754
-0.171830 -0.653390 -0.217754
-0.217712 0.244490 -0.211673
0.218040 0.665187 -0.149555
0.158507 0.946103 0.038941
-0.141374 0.288964 0.217998
-0.217712 -0.024702 0.084823
-0.119432 0.825698 -0.110986
0.027202 0.795607 0.217998
-0.217712 0.103181 -0.007032
-0.092294 0.133027 0.217998
0.218040 -0.789012 -0.077163
-0.217712 0.646891 -0.092380
-0.217712 0.079093 0.049416
0.199497 -0.532267 0.217998
0.166510 -0.919705 -0.217176
0.218040 -0.536493 -0.110822
0.218040 -0.577688 -0.166638
0.218040 -0.247596 0.188495
-0.217712 -0.552222 0.178804
-0.151545 0.841416 0.059093
0.084235 0.500794 -0.217754
0.218040 0.164183 0.106763
0.218040 -0.901774 0.084681
-0.217712 -0.899728 0.213222
0.209560 0.178629 -0.217754
0.176854 0.169187 -0.217754
0.202491 -0.711719 0.217998
0.083434 -0.390898 -0.217754
0.173309 -0.705097 0.217998
0.169373 0.253781 -0.217754
0.218040 0.488006 0.050527
-0.009251 -0.385751 -0.217754
0.149138 -0.919705 -0.119055
0.218040 0.297197 0.026935
0.117427 0.958549 -0.112306
0.218040 -0.482299 0.063061
0.218040 -0.620681 0.175421
-0.070348 0.986711 0.121349
-0.184707 0.214914 -0.217754
0.218040 -0.334157 0.214465
0.042343 0.034471 -0.217754
-0.217712 -0.476436 0.127827
0.036544 -0.880709 -0.217754
0.218040 0.450690 0.192622
-0.096425 0.139586 0.217998
-0.082035 0.173157 0.217998
-0.217712 0.775308 -0.175552
0.055266 0.823303 -0.166841
-0.217712 0.220949 -0.012828
0.218040 -0.554990 0.021141
0.218040 0.730706 -0.160765
-0.126331 -0.884172 -0.217754
0.218040 -0.544153 -0.110760
-0.059398 0.148420 0.217998
-0.217712 -0.813804 -0.150792
-0.106393 0.615414 -0.217754
0.076271 -0.544317 0.217998
0.049661 -0.919705 -0.170124
-0.057449 0.377890 0.217998
-0.208803 -0.154731 0.217998
-0.217712 0.671008 0.118758
-0.098685 0.155121 -0.217754
0.218040 0.140304 -0.134206
0.218040 -0.216206 0.020114
-0.165827 -0.693452 0.217998
0.218040 -0.437232 -0.157338
-0.217712 0.070844 0.090682
0.218040 0.662762 -0.070523
0.218040 0.577101 0.012671
-0.011527 0.986711 0.034124
-0.217712 0.589551 0.183554
-0.003365 -0.303702 -0.217754
-0.183597 -0.102965 0.217998
0.119862 0.892741 -0.109735
-0.217712 0.488949 0.194524
0.218040 -0.777805 0.136534
-0.217712 -0.870865 0.100938
-0.017736 0.521463 0.217998
-0.217712 -0.240008 -0.132033
-0.029888 -0.914958 -0.217754
0.049215 -0.371565 0.217998
0.218040 0.630137 -0.108166
-0.217712 -0.031615 0.156685
0.218040 -0.871775 -0.026853
-0.217712 0.322647 -0.160730
-0.006657 0.407400 -0.217754
0.170481 -0.919705 0.147010
0.218040 -0.690468 -0.145541
0.059832 0.213454 0.217998
-0.113056 -0.919705 0.018684
-0.217712 0.713661 -0.018002
0.031066 0.470674 -0.217754
0.218040 -0.719237 0.014541
0.218040 -0.087724 -0.027331
-0.217712 0.820580 0.067675
-0.217712 -0.548832 -0.057128
-0.217712 -0.228961 -0.211818
0.109472 0.986711 -0.064217
0.051176 0.773788 0.217998
-0.217712 0.324203 -0.064384
0.218040 -0.098081 -0.163599
0.218040 0.560118 -0.052805
-0.121860 0.818087 0.217998
0.215662 0.290025 0.217998
-0.204613 0.477400 -0.217754
-0.217712 0.763920 0.190929
0.051482 -0.843675 0.217998
-0.077846 -0.466147 -0.217754
0.206380 0.290182 0.217998
0.059941 -0.511543 -0.217754
0.200216 -0.919705 0.071906
-0.135478 0.823303 0.095836
0.141596 -0.326658 -0.217754
0.107515 0.624220 -0.217754
-0.217712 -0.915645 -0.196285
0.218040 -0.887473 0.070424
-0.125878 -0.081979 0.217998
-0.004488 -0.677347 0.217998
-0.030919 -0.170612 0.217998
-0.119501 0.083576 0.217998
0.218040 0.086718 0.193212
-0.217712 -0.009484 0.209134
-0.156999 0.823303 0.154211
-0.165199 -0.795161 0.217998
0.218040 0.206164 -0.059051
0.076326 -0.015237 -0.217754
-0.217712 -0.779628 0.083528
-0.072224 0.920890 -0.145368
-0.158926 0.902667 0.033051
0.218040 -0.628829 0.146140
-0.217712 0.263118 -0.032603
-0.217712 -0.237705 0.037011
-0.126998 0.858906 -0.101033
0.218040 -0.239309 0.021436
-0.217712 0.157916 -0.018155
0.077857 -0.801038 0.217998
-0.217712 0.283021 0.201203
-0.173470 0.663561 -0.217754
-0.217712 -0.090884 0.184883
0.218040 -0.729944 0.181002
-0.005350 0.228868 -0.217754
0.218040 0.520476 0.138916
-0.151761 -0.919705 -0.086119
-0.160272 -0.428123 0.217998
0.142772 -0.051693 -0.217754
0.218040 -0.498902 0.176289
-0.005935 -0.919705 -0.204296
0.112598 -0.919705 -0.202566
-0.141413 0.905586 -0.080751
-0.217712 0.821417 0.178555
-0.068591 -0.631378 0.217998
0.049459 -0.919705 0.216326
0.171936 0.058597 0.217998
0.015635 0.658192 -0.217754
-0.106463 -0.151691 0.217998
0.114773 -0.697217 0.217998
0.108238 0.839486 -0.122007
0.218040 -0.397969 -0.151294
-0.160610 -0.169646 0.217998
-0.217712 0.198374 -0.089945
-0.122922 0.146058 0.217998
-0.217712 -0.261170 -0.064487
-0.059595 -0.919705 -0.022475
0.218040 0.752315 -0.024812
-0.003745 -0.057009 -0.217754
0.218040 -0.087276 -0.135722
-0.020134 -0.530167 0.217998
0.011417 -0.168701 0.217998
-0.134641 -0.363398 -0.217754
0.007178 0.490096 -0.217754
0.218040 0.095565 0.027953
0.218040 0.003432 0.130416
0.170272 -0.919705 0.006807
-0.217712 -0.556397 -0.178189
-0.217712 0.365607 -0.166672
0.113110 -0.919653 0.217998
-0.217712 0.436081 0.011307
-0.217712 -0.009397 -0.109178
-0.045930 0.256821 -0.217754
0.000207 -0.190261 -0.217754
-0.217712 0.214591 0.169474
-0.217712 0.125727 -0.140257
-0.217712 -0.606851 -0.016494
-0.047598 -0.473705 0.217998
0.095903 0.903474 -0.131234
-0.217712 -0.039950 0.084723
-0.217712 -0.296490 -0.021604
0.015731 -0.919705 0.207534
0.218040 0.558572 -0.162308
-0.217712 0.818161 0.006715
-0.217712 -0.374962 -0.087324
0.218040 0.442425 -0.141120
-0.159655 0.841663 0.029736
0.218040 -0.024905 -0.006990
-0.217712 -0.881342 0.014888
-0.137865 0.808383 0.217998
-0.217712 0.308220 -0.216811
-0.044810 -0.919705 0.144839
-0.014216 0.040097 0.217998
-0.182402 0.558894 0.217998
-0.217712 0.098660 -0.063682
0.218040 0.306910 0.181597
-0.072717 -0.544121 -0.217754
-0.085670 -0.167976 0.217998
0.160530 -0.919705 -0.217325
-0.217712 -0.415496 0.190495
-0.217712 0.638091 0.168278
0.069280 0.769994 -0.217754
-0.217712 -0.589250 0.024739
-0.217712 0.350307 0.088813
-0.002690 0.267708 -0.217754
0.134254 0.896062 -0.092116
0.218040 0.627628 -0.054770
0.088524 0.986711 -0.111261
-0.217712 0.752542 0.020009
0.027552 -0.114328 -0.217754
-0.155215 -0.483386 0.217998
-0.217712 0.129906 0.128844
0.194493 -0.384235 0.217998
0.218040 0.028966 -0.145287
-0.091677 0.103476 -0.217754
0.107815 -0.119080 0.217998
-0.166409 0.425157 -0.217754
-0.178984 -0.919705 -0.149305
0.110863 -0.864477 0.217998
0.086640 0.801630 -0.217754
-0.217712 -0.150507 -0.171469
-0.028084 0.986711 0.111934
-0.217712 -0.527492 0.039719
-0.163189 0.540394 0.217998
-0.217712 0.146850 -0.076572
0.175192 -0.679824 0.217998
0.040245 -0.028679 -0.217754
0.218040 0.411422 0.144364
0.044694 0.986711 -0.023074
-0.217712 0.378047 -0.119781
0.218040 0.650390 0.149189
0.217994 0.823303 0.125559
0.145870 -0.455719 -0.217754
0.218040 -0.362587 0.173597
-0.006093 0.256136 -0.217754
0.218040 0.542225 0.023304
0.164058 0.567053 0.217998
-0.217712 -0.074436 0.010129
0.100286 0.759514 -0.217754
0.169164 0.555028 0.217998
-0.217712 -0.477349 -0.026949
-0.217712 -0.443046 0.059642
-0.024892 0.117673 -0.217754
-0.135786 -0.145775 0.217998
-0.114583 0.785321 0.217998
-0.004689 -0.522095 -0.217754
-0.196182 -0.219318 -0.217754
-0.010373 0.986711 -0.000123
-0.093538 -0.474895 -0.217754
0.218040 -0.428405 0.179570
0.218040 -0.204685 0.024008
-0.131201 -0.203132 -0.217754
0.218040 -0.031450 -0.090520
-0.217712 0.668039 0.055801
0.066402 0.954184 0.148599
-0.217712 0.424002 0.156516
0.057017 0.149648 0.217998
-0.182769 -0.328043 -0.217754
-0.217712 0.009519 -0.174926
-0.217712 0.288922 0.024363
-0.032246 -0.434450 -0.217754
-0.194276 -0.448648 -0.217754
-0.056805 0.796375 0.217998
0.100205 0.638832 0.217998
-0.197299 0.409820 -0.217754
0.218040 -0.912444 0.137676
0.160256 0.823303 0.062286
-0.026553 0.500798 0.217998
-0.217712 -0.486923 0.035645
-0.217712 -0.253979 -0.175269
0.150270 0.314721 0.217998
0.155105 0.405971 -0.217754
0.153557 0.131223 -0.217754
-0.069928 -0.735451 -0.217754
-0.217712 -0.651630 -0.138126
-0.080166 0.551701 -0.217754
-0.217712 -0.645402 -0.043820
0.131954 0.803833 -0.217754
0.218040 0.453815 0.184224
-0.162299 0.460789 -0.217754
0.218040 -0.571821 0.037981
0.100643 -0.168870 0.217998
0.218040 0.327596 0.030400
0.084167 -0.467395 -0.217754
-0.217712 0.349375 -0.171680
0.218040 0.239505 0.076753
0.218040 -0.028667 0.034869
0.039685 -0.822971 0.217998
-0.097973 0.773716 -0.217754
-0.192064 -0.919705 -0.036436
0.187195 0.564637 0.217998
-0.043127 0.784169 0.217998
-0.217712 -0.687609 0.124220
-0.217712 0.386765 -0.193877
-0.217712 -0.052038 0.089595
-0.047985 -0.431276 -0.217754
-0.162986 -0.919705 -0.140993
0.204559 0.327592 -0.217754
-0.020828 0.033470 0.217998
0.131959 -0.919705 0.118547
-0.217712 0.540256 -0.128125
0.170461 0.496130 0.217998
0.177200 0.823303 -0.030510
0.154339 -0.128371 0.217998
0.218040 0.715462 0.010001
-0.217712 0.682397 -0.123442
0.161274 0.149650 -0.217754
-0.217712 -0.319949 0.153304
0.038167 0.758463 0.217998
-0.217712 0.283037 -0.057832
0.206459 -0.660249 -0.217754
0.130114 -0.742539 -0.217754
0.218040 0.477692 0.150942
0.145806 0.943556 0.073160
0.133743 -0.455730 -0.217754
0.044874 -0.238707 -0.217754
0.000299 -0.539622 -0.217754
-0.098345 -0.586051 0.217998
0.218040 0.289053 0.101986
-0.217712 -0.086582 -0.053745
0.218040 -0.569419 -0.023898
0.218040 0.623818 0.074606
0.218040 0.748806 -0.193933
0.218040 -0.584254 0.162523
-0.217712 -0.072366 0.102702
0.021697 -0.919705 0.023872
0.218040 0.285786 -0.117865
0.139789 -0.583550 0.217998
-0.217712 -0.213654 -0.160665
0.218040 -0.289069 -0.145561
0.218040 0.703301 0.138324
-0.217712 0.434397 -0.207998
-0.217712 -0.366279 -0.059591
-0.217712 -0.046005 0.075399
-0.217712 -0.562530 0.087479
0.094639 -0.919705 -0.121561
-0.217712 -0.462573 -0.119496
-0.217712 0.388038 -0.006445
0.218040 0.452601 0.126607
-0.141902 -0.919705 0.044558
-0.003341 0.794228 0.217998
-0.217712 0.157728 0.015148
0.191912 0.372213 -0.217754
-0.066167 0.550835 0.217998
-0.113697 0.986711 -0.061223
0.218040 0.306936 0.044144
0.016166 -0.338920 0.217998
-0.217712 0.672298 0.138723
0.218040 0.220220 0.044098
-0.191703 -0.660361 0.217998
-0.217712 -0.512915 0.163246
0.077174 -0.859701 0.217998
0.218040 -0.408613 -0.042465
0.039325 -0.502847 0.217998
-0.217712 -0.503873 -0.004195
-0.180750 -0.659281 -0.217754
-0.217712 -0.098550 -0.071035
0.218040 -0.864284 0.197587
-0.217712 -0.880384 -0.144082
0.218040 -0.137286 -0.055790
-0.217712 0.189465 -0.008329
-0.098414 -0.214026 -0.217754
0.096363 0.334307 -0.217754
0.036965 0.009174 0.217998
-0.217712 0.754953 -0.064773
0.218040 0.039792 -0.178097
0.218040 0.027847 -0.072301
-0.016034 -0.908819 -0.217754
-0.125424 0.823303 -0.104116
-0.217712 0.150372 0.206590
0.145455 0.164978 0.217998
0.123908 -0.919705 -0.200847
-0.042884 0.986711 0.105422
-0.217712 -0.170772 -0.096378
-0.041288 0.203352 -0.217754
-0.137385 0.813515 0.217998
0.153217 0.311419 -0.217754
-0.217712 -0.732371 0.084177
-0.217712 0.658403 -0.016060
0.137349 0.739898 0.217998
-0.217712 -0.001934 0.098274
0.218040 0.308812 -0.012565
-0.090218 0.509928 -0.217754
-0.217712 0.356958 -0.148280
-0.124535 -0.919705 0.134610
0.218040 0.530712 0.163188
0.218040 0.359413 -0.074933
-0.211704 -0.385577 0.217998
-0.217712 0.483979 0.015543
-0.000662 -0.471961 0.217998
0.169860 0.441934 0.217998
-0.016921 -0.736223 0.217998
-0.123062 0.823303 -0.160898
0.161118 0.823303 0.135055
0.218040 -0.654321 0.035741
-0.054476 0.823303 0.206391
-0.217712 -0.657748 0.002949
0.134353 0.190965 0.217998
0.145881 0.289243 -0.217754
0.039870 0.574752 0.217998
-0.217712 0.028498 0.013144
-0.139451 -0.456640 -0.217754
-0.003602 0.631310 0.217998
-0.110866 -0.541979 0.217998
0.218040 -0.139782 0.171192
0.218040 -0.578976 -0.169334
-0.174179 -0.722992 -0.217754
-0.024752 0.128118 0.217998
-0.217712 -0.175336 -0.013580
-0.186401 0.151804 -0.217754
-0.129816 0.665280 0.217998
0.003492 -0.899710 -0.217754
0.218040 0.218518 -0.083192
-0.217712 -0.595336 -0.162944
-0.213518 0.477349 -0.217754
-0.134239 -0.919705 0.178888
0.212225 -0.748859 -0.217754
0.161135 -0.140031 -0.217754
-0.151244 0.934794 0.059745
-0.213258 -0.443321 -0.217754
