7.408910	43.854279	-46.778019	0.078217	0.866025	-0.493844
-11.025094	43.453342	-46.773750	-0.114712	0.866025	-0.486663
11.025094	43.453342	-46.773750	0.114712	0.866025	-0.486663
-9.404125	43.653812	-46.772293	-0.098559	0.866025	-0.490190
9.404125	43.653812	-46.772293	0.098559	0.866025	-0.490190
-5.043121	44.054749	-46.742622	-0.053634	0.866025	-0.497115
5.043121	44.054749	-46.742622	0.053634	0.866025	-0.497115
-13.910141	43.052406	-46.723339	-0.142668	0.866025	-0.479214
13.910141	43.052406	-46.723339	0.142668	0.866025	-0.479214
-12.656356	43.252872	-46.718792	-0.130740	0.866025	-0.482604
12.656356	43.252872	-46.718792	0.130740	0.866025	-0.482604
-7.795382	43.854279	-46.715168	-0.082297	0.866025	-0.493181
7.795382	43.854279	-46.715168	0.082297	0.866025	-0.493181
-5.429382	44.054749	-46.699333	-0.057742	0.866025	-0.496655
5.429382	44.054749	-46.699333	0.057742	0.866025	-0.496655
-9.790482	43.653812	-46.692951	-0.102608	0.866025	-0.489358
9.790482	43.653812	-46.692951	0.102608	0.866025	-0.489358
-11.411407	43.453342	-46.681004	-0.118731	0.866025	-0.485698
11.411407	43.453342	-46.681004	0.118731	0.866025	-0.485698
0.000000	44.255219	-46.666668	0.000000	0.866025	-0.500000
-0.385805	44.255219	-46.665073	-0.004134	0.866025	-0.499983
0.385805	44.255219	-46.665073	0.004134	0.866025	-0.499983
-0.771584	44.255219	-46.660286	-0.008267	0.866025	-0.499932
0.771584	44.255219	-46.660286	0.008267	0.866025	-0.499932
-5.815272	44.054749	-46.652851	-0.061846	0.866025	-0.496160
5.815272	44.054749	-46.652851	0.061846	0.866025	-0.496160
-1.157310	44.255219	-46.652313	-0.012400	0.866025	-0.499846
1.157310	44.255219	-46.652313	0.012400	0.866025	-0.499846
-8.181322	43.854279	-46.649124	-0.086372	0.866025	-0.492483
8.181322	43.854279	-46.649124	0.086372	0.866025	-0.492483
-1.542957	44.255219	-46.641151	-0.016532	0.866025	-0.499727
1.542957	44.255219	-46.641151	0.016532	0.866025	-0.499727
-1.928499	44.255219	-46.626801	-0.020662	0.866025	-0.499573
1.928499	44.255219	-46.626801	0.020662	0.866025	-0.499573
-13.042159	43.252872	-46.612564	-0.134725	0.866025	-0.481507
13.042159	43.252872	-46.612564	0.134725	0.866025	-0.481507
-10.176170	43.653812	-46.610413	-0.106650	0.866025	-0.488493
10.176170	43.653812	-46.610413	0.106650	0.866025	-0.488493
-2.313909	44.255219	-46.609264	-0.024792	0.866025	-0.499385
2.313909	44.255219	-46.609264	0.024792	0.866025	-0.499385
-14.295939	43.052406	-46.606743	-0.146625	0.866025	-0.478018
14.295939	43.052406	-46.606743	0.146625	0.866025	-0.478018
-6.200764	44.054749	-46.603180	-0.065946	0.866025	-0.495632
6.200764	44.054749	-46.603180	0.065946	0.866025	-0.495632
-2.699160	44.255219	-46.588543	-0.028920	0.866025	-0.499163
2.699160	44.255219	-46.588543	0.028920	0.866025	-0.499163
-11.796942	43.453342	-46.585068	-0.122743	0.866025	-0.484700
11.796942	43.453342	-46.585068	0.122743	0.866025	-0.484700
-8.566703	43.854279	-46.579895	-0.090440	0.866025	-0.491753
8.566703	43.854279	-46.579895	0.090440	0.866025	-0.491753
-3.084227	44.255219	-46.564636	-0.033045	0.866025	-0.498907
3.084227	44.255219	-46.564636	0.033045	0.866025	-0.498907
-6.585832	44.054749	-46.550323	-0.070041	0.866025	-0.495070
6.585832	44.054749	-46.550323	0.070041	0.866025	-0.495070
-3.469084	44.255219	-46.537548	-0.037169	0.866025	-0.498617
3.469084	44.255219	-46.537548	0.037169	0.866025	-0.498617
-10.561162	43.653812	-46.524693	-0.110685	0.866025	-0.487595
10.561162	43.653812	-46.524693	0.110685	0.866025	-0.487595
-8.951498	43.854279	-46.507477	-0.094503	0.866025	-0.490988
8.951498	43.854279	-46.507477	0.094503	0.866025	-0.490988
-3.853703	44.255219	-46.507275	-0.041290	0.866025	-0.498292
3.853703	44.255219	-46.507275	0.041290	0.866025	-0.498292
-13.427072	43.252872	-46.503147	-0.138701	0.866025	-0.480377
13.427072	43.252872	-46.503147	0.138701	0.866025	-0.480377
-6.970451	44.054749	-46.494286	-0.074132	0.866025	-0.494474
6.970451	44.054749	-46.494286	0.074132	0.866025	-0.494474
-14.680760	43.052406	-46.486965	-0.150572	0.866025	-0.476789
14.680760	43.052406	-46.486965	0.150572	0.866025	-0.476789
-12.181669	43.453342	-46.485947	-0.126746	0.866025	-0.483669
12.181669	43.453342	-46.485947	0.126746	0.866025	-0.483669
-4.238059	44.255219	-46.473827	-0.045408	0.866025	-0.497934
4.238059	44.255219	-46.473827	0.045408	0.866025	-0.497934
-4.622125	44.255219	-46.437202	-0.049523	0.866025	-0.497541
4.622125	44.255219	-46.437202	0.049523	0.866025	-0.497541
-10.945433	43.653812	-46.435791	-0.114712	0.866025	-0.486663
10.945433	43.653812	-46.435791	0.114712	0.866025	-0.486663
-7.354592	44.054749	-46.435070	-0.078217	0.866025	-0.493844
7.354592	44.054749	-46.435070	0.078217	0.866025	-0.493844
-9.335682	43.854279	-46.431885	-0.098559	0.866025	-0.490190
9.335682	43.854279	-46.431885	0.098559	0.866025	-0.490190
-5.005875	44.255219	-46.397404	-0.053634	0.866025	-0.497115
5.005875	44.255219	-46.397404	0.053634	0.866025	-0.497115
-13.811066	43.252872	-46.390553	-0.142668	0.866025	-0.479214
13.811066	43.252872	-46.390553	0.142668	0.866025	-0.479214
-12.565564	43.453342	-46.383652	-0.130740	0.866025	-0.482604
12.565564	43.453342	-46.383652	0.130740	0.866025	-0.482604
-7.738232	44.054749	-46.372681	-0.082297	0.866025	-0.493181
7.738232	44.054749	-46.372681	0.082297	0.866025	-0.493181
-15.064578	43.052406	-46.364006	-0.154509	0.866025	-0.475528
15.064578	43.052406	-46.364006	0.154509	0.866025	-0.475528
-5.389283	44.255219	-46.354431	-0.057742	0.866025	-0.496655
5.389283	44.255219	-46.354431	0.057742	0.866025	-0.496655
-9.719227	43.854279	-46.353119	-0.102608	0.866025	-0.489358
9.719227	43.854279	-46.353119	0.102608	0.866025	-0.489358
-11.328956	43.653812	-46.343716	-0.118731	0.866025	-0.485698
11.328956	43.653812	-46.343716	0.118731	0.866025	-0.485698
0.000000	44.455688	-46.319443	0.000000	0.866025	-0.500000
-0.382935	44.455688	-46.317860	-0.004134	0.866025	-0.499983
0.382935	44.455688	-46.317860	0.004134	0.866025	-0.499983
-0.765843	44.455688	-46.313114	-0.008267	0.866025	-0.499932
0.765843	44.455688	-46.313114	0.008267	0.866025	-0.499932
-5.772323	44.255219	-46.308292	-0.061846	0.866025	-0.496160
5.772323	44.255219	-46.308292	0.061846	0.866025	-0.496160
-8.121342	44.054749	-46.307121	-0.086372	0.866025	-0.492483
8.121342	44.054749	-46.307121	0.086372	0.866025	-0.492483
-1.148699	44.455688	-46.305199	-0.012400	0.866025	-0.499846
1.148699	44.455688	-46.305199	0.012400	0.866025	-0.499846
-1.531477	44.455688	-46.294121	-0.016532	0.866025	-0.499727
1.531477	44.455688	-46.294121	0.016532	0.866025	-0.499727
-1.914150	44.455688	-46.279877	-0.020662	0.866025	-0.499573
1.914150	44.455688	-46.279877	0.020662	0.866025	-0.499573
-12.948600	43.453342	-46.278183	-0.134725	0.866025	-0.481507
12.948600	43.453342	-46.278183	0.134725	0.866025	-0.481507
-14.194117	43.252872	-46.274788	-0.146625	0.866025	-0.478018
14.194117	43.252872	-46.274788	0.146625	0.866025	-0.478018
-10.102107	43.854279	-46.271183	-0.106650	0.866025	-0.488493
10.102107	43.854279	-46.271183	0.106650	0.866025	-0.488493
-2.296692	44.455688	-46.262470	-0.024792	0.866025	-0.499385
2.296692	44.455688	-46.262470	0.024792	0.866025	-0.499385
-6.154968	44.255219	-46.258991	-0.065946	0.866025	-0.495632
6.154968	44.255219	-46.258991	0.065946	0.866025	-0.495632
-11.711703	43.653812	-46.248470	-0.122743	0.866025	-0.484700
11.711703	43.653812	-46.248470	0.122743	0.866025	-0.484700
-2.679077	44.455688	-46.241901	-0.028920	0.866025	-0.499163
2.679077	44.455688	-46.241901	0.028920	0.866025	-0.499163
-8.503898	44.054749	-46.238400	-0.090440	0.866025	-0.491753
8.503898	44.054749	-46.238400	0.090440	0.866025	-0.491753
-15.447367	43.052406	-46.237877	-0.158435	0.866025	-0.474235
15.447367	43.052406	-46.237877	0.158435	0.866025	-0.474235
-3.061279	44.455688	-46.218174	-0.033045	0.866025	-0.498907
3.061279	44.455688	-46.218174	0.033045	0.866025	-0.498907
-6.537192	44.255219	-46.206524	-0.070041	0.866025	-0.495070
6.537192	44.255219	-46.206524	0.070041	0.866025	-0.495070
-3.443272	44.455688	-46.191284	-0.037169	0.866025	-0.498617
3.443272	44.455688	-46.191284	0.037169	0.866025	-0.498617
-10.484298	43.854279	-46.186085	-0.110685	0.866025	-0.487595
10.484298	43.854279	-46.186085	0.110685	0.866025	-0.487595
-13.330750	43.453342	-46.169552	-0.138701	0.866025	-0.480377
13.330750	43.453342	-46.169552	0.138701	0.866025	-0.480377
-8.885871	44.054749	-46.166515	-0.094503	0.866025	-0.490988
8.885871	44.054749	-46.166515	0.094503	0.866025	-0.490988
-3.825029	44.455688	-46.161240	-0.041290	0.866025	-0.498292
3.825029	44.455688	-46.161240	0.041290	0.866025	-0.498292
-14.576197	43.252872	-46.155861	-0.150572	0.866025	-0.476789
14.576197	43.252872	-46.155861	0.150572	0.866025	-0.476789
-6.918970	44.255219	-46.150902	-0.074132	0.866025	-0.494474
6.918970	44.255219	-46.150902	0.074132	0.866025	-0.494474
-12.093651	43.653812	-46.150066	-0.126746	0.866025	-0.483669
12.093651	43.653812	-46.150066	0.126746	0.866025	-0.483669
-4.206525	44.455688	-46.128040	-0.045408	0.866025	-0.497934
4.206525	44.455688	-46.128040	0.045408	0.866025	-0.497934
-15.829099	43.052406	-46.108589	-0.162350	0.866025	-0.472909
15.829099	43.052406	-46.108589	0.162350	0.866025	-0.472909
-10.865771	43.854279	-46.097828	-0.114712	0.866025	-0.486663
10.865771	43.854279	-46.097828	0.114712	0.866025	-0.486663
-7.300275	44.255219	-46.092121	-0.078217	0.866025	-0.493844
7.300275	44.255219	-46.092121	0.078217	0.866025	-0.493844
-4.587734	44.455688	-46.091686	-0.049523	0.866025	-0.497541
4.587734	44.455688	-46.091686	0.049523	0.866025	-0.497541
-9.267238	44.054749	-46.091476	-0.098559	0.866025	-0.490190
9.267238	44.054749	-46.091476	0.098559	0.866025	-0.490190
-13.711990	43.453342	-46.057766	-0.142668	0.866025	-0.479214
13.711990	43.453342	-46.057766	0.142668	0.866025	-0.479214
-4.968629	44.455688	-46.052185	-0.053634	0.866025	-0.497115
4.968629	44.455688	-46.052185	0.053634	0.866025	-0.497115
-12.474772	43.653812	-46.048508	-0.130740	0.866025	-0.482604
12.474772	43.653812	-46.048508	0.130740	0.866025	-0.482604
-14.957281	43.252872	-46.033775	-0.154509	0.866025	-0.475528
14.957281	43.252872	-46.033775	0.154509	0.866025	-0.475528
-7.681081	44.255219	-46.030193	-0.082297	0.866025	-0.493181
7.681081	44.255219	-46.030193	0.082297	0.866025	-0.493181
-9.647971	44.054749	-46.013287	-0.102608	0.866025	-0.489358
9.647971	44.054749	-46.013287	0.102608	0.866025	-0.489358
-5.349184	44.455688	-46.009533	-0.057742	0.866025	-0.496655
5.349184	44.455688	-46.009533	0.057742	0.866025	-0.496655
-11.246503	43.854279	-46.006424	-0.118731	0.866025	-0.485698
11.246503	43.854279	-46.006424	0.118731	0.866025	-0.485698
-16.209749	43.052406	-45.976151	-0.166254	0.866025	-0.471550
16.209749	43.052406	-45.976151	0.166254	0.866025	-0.471550
0.000000	44.656155	-45.972221	0.000000	0.866025	-0.500000
0.380064	44.656155	-45.970650	0.004134	0.866025	-0.499983
-0.380064	44.656155	-45.970650	-0.004134	0.866025	-0.499983
-0.760102	44.656155	-45.965939	-0.008267	0.866025	-0.499932
0.760102	44.656155	-45.965939	0.008267	0.866025	-0.499932
-8.061361	44.255219	-45.965118	-0.086372	0.866025	-0.492483
8.061361	44.255219	-45.965118	0.086372	0.866025	-0.492483
-5.729374	44.455688	-45.963737	-0.061846	0.866025	-0.496160
5.729374	44.455688	-45.963737	0.061846	0.866025	-0.496160
-1.140088	44.656155	-45.958084	-0.012400	0.866025	-0.499846
1.140088	44.656155	-45.958084	0.012400	0.866025	-0.499846
-1.519997	44.656155	-45.947086	-0.016532	0.866025	-0.499727
1.519997	44.656155	-45.947086	0.016532	0.866025	-0.499727
-12.855041	43.653812	-45.943802	-0.134725	0.866025	-0.481507
12.855041	43.653812	-45.943802	0.134725	0.866025	-0.481507
-14.092294	43.453342	-45.942829	-0.146625	0.866025	-0.478018
14.092294	43.453342	-45.942829	0.146625	0.866025	-0.478018
-1.899801	44.656155	-45.932949	-0.020662	0.866025	-0.499573
1.899801	44.656155	-45.932949	0.020662	0.866025	-0.499573
-10.028045	44.054749	-45.931950	-0.106650	0.866025	-0.488493
10.028045	44.054749	-45.931950	0.106650	0.866025	-0.488493
-2.279475	44.656155	-45.915676	-0.024792	0.866025	-0.499385
2.279475	44.656155	-45.915676	0.024792	0.866025	-0.499385
-6.109172	44.455688	-45.914803	-0.065946	0.866025	-0.495632
6.109172	44.455688	-45.914803	0.065946	0.866025	-0.495632
-11.626466	43.854279	-45.911873	-0.122743	0.866025	-0.484700
11.626466	43.854279	-45.911873	0.122743	0.866025	-0.484700
-15.337342	43.252872	-45.908550	-0.158435	0.866025	-0.474235
15.337342	43.252872	-45.908550	0.158435	0.866025	-0.474235
-8.441092	44.255219	-45.896904	-0.090440	0.866025	-0.491753
8.441092	44.255219	-45.896904	0.090440	0.866025	-0.491753
-2.658994	44.656155	-45.895260	-0.028920	0.866025	-0.499163
2.658994	44.656155	-45.895260	0.028920	0.866025	-0.499163
-3.038331	44.656155	-45.871708	-0.033045	0.866025	-0.498907
3.038331	44.656155	-45.871708	0.033045	0.866025	-0.498907
-6.488553	44.455688	-45.862724	-0.070041	0.866025	-0.495070
6.488553	44.455688	-45.862724	0.070041	0.866025	-0.495070
-10.407434	44.054749	-45.847477	-0.110685	0.866025	-0.487595
10.407434	44.054749	-45.847477	0.110685	0.866025	-0.487595
-3.417460	44.656155	-45.845024	-0.037169	0.866025	-0.498617
3.417460	44.656155	-45.845024	0.037169	0.866025	-0.498617
-16.589293	43.052406	-45.840569	-0.170147	0.866025	-0.470160
16.589293	43.052406	-45.840569	0.170147	0.866025	-0.470160
-13.234430	43.653812	-45.835957	-0.138701	0.866025	-0.480377
13.234430	43.653812	-45.835957	0.138701	0.866025	-0.480377
-8.820245	44.255219	-45.825550	-0.094503	0.866025	-0.490988
8.820245	44.255219	-45.825550	0.094503	0.866025	-0.490988
-14.471633	43.453342	-45.824757	-0.150572	0.866025	-0.476789
14.471633	43.453342	-45.824757	0.150572	0.866025	-0.476789
-3.796356	44.656155	-45.815205	-0.041290	0.866025	-0.498292
3.796356	44.656155	-45.815205	0.041290	0.866025	-0.498292
-12.005633	43.854279	-45.814186	-0.126746	0.866025	-0.483669
12.005633	43.854279	-45.814186	0.126746	0.866025	-0.483669
-6.867490	44.455688	-45.807514	-0.074132	0.866025	-0.494474
6.867490	44.455688	-45.807514	0.074132	0.866025	-0.494474
-4.174992	44.656155	-45.782253	-0.045408	0.866025	-0.497934
4.174992	44.656155	-45.782253	0.045408	0.866025	-0.497934
-15.716356	43.252872	-45.780182	-0.162350	0.866025	-0.472909
15.716356	43.252872	-45.780182	0.162350	0.866025	-0.472909
-10.786111	44.054749	-45.759869	-0.114712	0.866025	-0.486663
10.786111	44.054749	-45.759869	0.114712	0.866025	-0.486663
-9.198794	44.255219	-45.751064	-0.098559	0.866025	-0.490190
9.198794	44.255219	-45.751064	0.098559	0.866025	-0.490190
-7.245957	44.455688	-45.749176	-0.078217	0.866025	-0.493844
7.245957	44.455688	-45.749176	0.078217	0.866025	-0.493844
-4.553343	44.656155	-45.746174	-0.049523	0.866025	-0.497541
4.553343	44.656155	-45.746174	0.049523	0.866025	-0.497541
-13.612916	43.653812	-45.724979	-0.142668	0.866025	-0.479214
13.612916	43.653812	-45.724979	0.142668	0.866025	-0.479214
-12.383981	43.854279	-45.713367	-0.130740	0.866025	-0.482604
12.383981	43.854279	-45.713367	0.130740	0.866025	-0.482604
-4.931383	44.656155	-45.706966	-0.053634	0.866025	-0.497115
4.931383	44.656155	-45.706966	0.053634	0.866025	-0.497115
-14.849983	43.453342	-45.703548	-0.154509	0.866025	-0.475528
14.849983	43.453342	-45.703548	0.154509	0.866025	-0.475528
-16.967701	43.052406	-45.701855	-0.174028	0.866025	-0.468737
16.967701	43.052406	-45.701855	0.174028	0.866025	-0.468737
-7.623930	44.455688	-45.687706	-0.082297	0.866025	-0.493181
7.623930	44.455688	-45.687706	0.082297	0.866025	-0.493181
-9.576716	44.255219	-45.673454	-0.102608	0.866025	-0.489358
9.576716	44.255219	-45.673454	0.102608	0.866025	-0.489358
-11.164050	44.054749	-45.669132	-0.118731	0.866025	-0.485698
11.164050	44.054749	-45.669132	0.118731	0.866025	-0.485698
-5.309085	44.656155	-45.664635	-0.057742	0.866025	-0.496655
5.309085	44.656155	-45.664635	0.057742	0.866025	-0.496655
-16.094296	43.252872	-45.648685	-0.166254	0.866025	-0.471550
16.094296	43.252872	-45.648685	0.166254	0.866025	-0.471550
0.000000	44.856625	-45.625000	0.000000	0.866025	-0.500000
-0.377194	44.856625	-45.623440	-0.004134	0.866025	-0.499983
0.377194	44.856625	-45.623440	0.004134	0.866025	-0.499983
-8.001381	44.455688	-45.623116	-0.086372	0.866025	-0.492483
8.001381	44.455688	-45.623116	0.086372	0.866025	-0.492483
-5.686425	44.656155	-45.619183	-0.061846	0.866025	-0.496160
5.686425	44.656155	-45.619183	0.061846	0.866025	-0.496160
-0.754361	44.856625	-45.618763	-0.008267	0.866025	-0.499932
0.754361	44.856625	-45.618763	0.008267	0.866025	-0.499932
-1.131477	44.856625	-45.610970	-0.012400	0.866025	-0.499846
1.131477	44.856625	-45.610970	0.012400	0.866025	-0.499846
-13.990471	43.653812	-45.610874	-0.146625	0.866025	-0.478018
13.990471	43.653812	-45.610874	0.146625	0.866025	-0.478018
-12.761481	43.854279	-45.609425	-0.134725	0.866025	-0.481507
12.761481	43.854279	-45.609425	0.134725	0.866025	-0.481507
-1.508516	44.856625	-45.600056	-0.016532	0.866025	-0.499727
1.508516	44.856625	-45.600056	0.016532	0.866025	-0.499727
-9.953982	44.255219	-45.592720	-0.106650	0.866025	-0.488493
9.953982	44.255219	-45.592720	0.106650	0.866025	-0.488493
-1.885452	44.856625	-45.586025	-0.020662	0.866025	-0.499573
1.885452	44.856625	-45.586025	0.020662	0.866025	-0.499573
-15.227319	43.453342	-45.579220	-0.158435	0.866025	-0.474235
15.227319	43.453342	-45.579220	0.158435	0.866025	-0.474235
-11.541227	44.054749	-45.575275	-0.122743	0.866025	-0.484700
11.541227	44.054749	-45.575275	0.122743	0.866025	-0.484700
-6.063376	44.656155	-45.570614	-0.065946	0.866025	-0.495632
6.063376	44.656155	-45.570614	0.065946	0.866025	-0.495632
-2.262259	44.856625	-45.568878	-0.024792	0.866025	-0.499385
2.262259	44.856625	-45.568878	0.024792	0.866025	-0.499385
-17.344950	43.052406	-45.560017	-0.177897	0.866025	-0.467282
17.344950	43.052406	-45.560017	0.177897	0.866025	-0.467282
-8.378285	44.455688	-45.555408	-0.090440	0.866025	-0.491753
8.378285	44.455688	-45.555408	0.090440	0.866025	-0.491753
-2.638911	44.856625	-45.548618	-0.028920	0.866025	-0.499163
2.638911	44.856625	-45.548618	0.028920	0.866025	-0.499163
-3.015383	44.856625	-45.525246	-0.033045	0.866025	-0.498907
3.015383	44.856625	-45.525246	0.033045	0.866025	-0.498907
-6.439913	44.656155	-45.518929	-0.070041	0.866025	-0.495070
6.439913	44.656155	-45.518929	0.070041	0.866025	-0.495070
-16.471134	43.252872	-45.514069	-0.170147	0.866025	-0.470160
16.471134	43.252872	-45.514069	0.170147	0.866025	-0.470160
-10.330569	44.255219	-45.508869	-0.110685	0.866025	-0.487595
10.330569	44.255219	-45.508869	0.110685	0.866025	-0.487595
-13.138110	43.854279	-45.502361	-0.138701	0.866025	-0.480377
13.138110	43.854279	-45.502361	0.138701	0.866025	-0.480377
-3.391649	44.856625	-45.498760	-0.037169	0.866025	-0.498617
3.391649	44.856625	-45.498760	0.037169	0.866025	-0.498617
-14.367069	43.653812	-45.493652	-0.150572	0.866025	-0.476789
14.367069	43.653812	-45.493652	0.150572	0.866025	-0.476789
-8.754618	44.455688	-45.484585	-0.094503	0.866025	-0.490988
8.754618	44.455688	-45.484585	0.094503	0.866025	-0.490988
-11.917616	44.054749	-45.478306	-0.126746	0.866025	-0.483669
11.917616	44.054749	-45.478306	0.126746	0.866025	-0.483669
-3.767683	44.856625	-45.469166	-0.041290	0.866025	-0.498292
3.767683	44.856625	-45.469166	0.041290	0.866025	-0.498292
-6.816010	44.656155	-45.464130	-0.074132	0.866025	-0.494474
6.816010	44.656155	-45.464130	0.074132	0.866025	-0.494474
-15.603614	43.453342	-45.451775	-0.162350	0.866025	-0.472909
15.603614	43.453342	-45.451775	0.162350	0.866025	-0.472909
-4.143459	44.856625	-45.436466	-0.045408	0.866025	-0.497934
4.143459	44.856625	-45.436466	0.045408	0.866025	-0.497934
-10.706450	44.255219	-45.421909	-0.114712	0.866025	-0.486663
10.706450	44.255219	-45.421909	0.114712	0.866025	-0.486663
-17.721014	43.052406	-45.415066	-0.181754	0.866025	-0.465796
17.721014	43.052406	-45.415066	0.181754	0.866025	-0.465796
-9.130351	44.455688	-45.410656	-0.098559	0.866025	-0.490190
9.130351	44.455688	-45.410656	0.098559	0.866025	-0.490190
-7.191640	44.656155	-45.406227	-0.078217	0.866025	-0.493844
7.191640	44.656155	-45.406227	0.078217	0.866025	-0.493844
-4.518952	44.856625	-45.400658	-0.049523	0.866025	-0.497541
4.518952	44.856625	-45.400658	0.049523	0.866025	-0.497541
-13.513841	43.854279	-45.392189	-0.142668	0.866025	-0.479214
13.513841	43.854279	-45.392189	0.142668	0.866025	-0.479214
-12.293189	44.054749	-45.378223	-0.130740	0.866025	-0.482604
12.293189	44.054749	-45.378223	0.130740	0.866025	-0.482604
-16.846848	43.252872	-45.376343	-0.174028	0.866025	-0.468737
16.846848	43.252872	-45.376343	0.174028	0.866025	-0.468737
-14.742685	43.653812	-45.373322	-0.154509	0.866025	-0.475528
14.742685	43.653812	-45.373322	0.154509	0.866025	-0.475528
-4.894137	44.856625	-45.361748	-0.053634	0.866025	-0.497115
4.894137	44.856625	-45.361748	0.053634	0.866025	-0.497115
-7.566779	44.656155	-45.345222	-0.082297	0.866025	-0.493181
7.566779	44.656155	-45.345222	0.082297	0.866025	-0.493181
-9.505461	44.455688	-45.333622	-0.102608	0.866025	-0.489358
9.505461	44.455688	-45.333622	0.102608	0.866025	-0.489358
-11.081598	44.255219	-45.331844	-0.118731	0.866025	-0.485698
11.081598	44.255219	-45.331844	0.118731	0.866025	-0.485698
-15.978842	43.453342	-45.321220	-0.166254	0.866025	-0.471550
15.978842	43.453342	-45.321220	0.166254	0.866025	-0.471550
-5.268987	44.856625	-45.319736	-0.057742	0.866025	-0.496655
5.268987	44.856625	-45.319736	0.057742	0.866025	-0.496655
-7.941401	44.656155	-45.281116	-0.086372	0.866025	-0.492483
7.941401	44.656155	-45.281116	0.086372	0.866025	-0.492483
-13.888648	43.854279	-45.278915	-0.146625	0.866025	-0.478018
13.888648	43.854279	-45.278915	0.146625	0.866025	-0.478018
-12.667922	44.054749	-45.275043	-0.134725	0.866025	-0.481507
12.667922	44.054749	-45.275043	0.134725	0.866025	-0.481507
-5.643476	44.856625	-45.274628	-0.061846	0.866025	-0.496160
5.643476	44.856625	-45.274628	0.061846	0.866025	-0.496160
-18.095865	43.052406	-45.267010	-0.185599	0.866025	-0.464277
18.095865	43.052406	-45.267010	0.185599	0.866025	-0.464277
-9.879920	44.455688	-45.253487	-0.106650	0.866025	-0.488493
9.879920	44.455688	-45.253487	0.106650	0.866025	-0.488493
-15.117294	43.653812	-45.249889	-0.158435	0.866025	-0.474235
15.117294	43.653812	-45.249889	0.158435	0.866025	-0.474235
-11.455990	44.255219	-45.238678	-0.122743	0.866025	-0.484700
11.455990	44.255219	-45.238678	0.122743	0.866025	-0.484700
-17.221411	43.252872	-45.235516	-0.177897	0.866025	-0.467282
17.221411	43.252872	-45.235516	0.177897	0.866025	-0.467282
-6.017581	44.856625	-45.226421	-0.065946	0.866025	-0.495632
6.017581	44.856625	-45.226421	0.065946	0.866025	-0.495632
-8.315480	44.656155	-45.213913	-0.090440	0.866025	-0.491753
8.315480	44.656155	-45.213913	0.090440	0.866025	-0.491753
-16.352978	43.453342	-45.187572	-0.170147	0.866025	-0.470160
16.352978	43.453342	-45.187572	0.170147	0.866025	-0.470160
-6.391273	44.856625	-45.175129	-0.070041	0.866025	-0.495070
6.391273	44.856625	-45.175129	0.070041	0.866025	-0.495070
-10.253705	44.455688	-45.170261	-0.110685	0.866025	-0.487595
10.253705	44.455688	-45.170261	0.110685	0.866025	-0.487595
-13.041789	44.054749	-45.168766	-0.138701	0.866025	-0.480377
13.041789	44.054749	-45.168766	0.138701	0.866025	-0.480377
-14.262506	43.854279	-45.162548	-0.150572	0.866025	-0.476789
14.262506	43.854279	-45.162548	0.150572	0.866025	-0.476789
-8.688991	44.656155	-45.143623	-0.094503	0.866025	-0.490988
8.688991	44.656155	-45.143623	0.094503	0.866025	-0.490988
-11.829597	44.255219	-45.142422	-0.126746	0.866025	-0.483669
11.829597	44.255219	-45.142422	0.126746	0.866025	-0.483669
-15.490870	43.653812	-45.123363	-0.162350	0.866025	-0.472909
15.490870	43.653812	-45.123363	0.162350	0.866025	-0.472909
-6.764529	44.856625	-45.120747	-0.074132	0.866025	-0.494474
6.764529	44.856625	-45.120747	0.074132	0.866025	-0.494474
-18.469481	43.052406	-45.115860	-0.189431	0.866025	-0.462727
18.469481	43.052406	-45.115860	0.189431	0.866025	-0.462727
-17.594795	43.252872	-45.091595	-0.181754	0.866025	-0.465796
17.594795	43.252872	-45.091595	0.181754	0.866025	-0.465796
-10.626788	44.455688	-45.083946	-0.114712	0.866025	-0.486663
10.626788	44.455688	-45.083946	0.114712	0.866025	-0.486663
-9.061908	44.656155	-45.070244	-0.098559	0.866025	-0.490190
9.061908	44.656155	-45.070244	0.098559	0.866025	-0.490190
-7.137322	44.856625	-45.063282	-0.078217	0.866025	-0.493844
7.137322	44.856625	-45.063282	0.078217	0.866025	-0.493844
-13.414765	44.054749	-45.059402	-0.142668	0.866025	-0.479214
13.414765	44.054749	-45.059402	0.142668	0.866025	-0.479214
-16.725996	43.453342	-45.050831	-0.174028	0.866025	-0.468737
16.725996	43.453342	-45.050831	0.174028	0.866025	-0.468737
-14.635388	43.854279	-45.043095	-0.154509	0.866025	-0.475528
14.635388	43.854279	-45.043095	0.154509	0.866025	-0.475528
-12.202397	44.255219	-45.043083	-0.130740	0.866025	-0.482604
12.202397	44.255219	-45.043083	0.130740	0.866025	-0.482604
-7.509628	44.856625	-45.002735	-0.082297	0.866025	-0.493181
7.509628	44.856625	-45.002735	0.082297	0.866025	-0.493181
-10.999146	44.455688	-44.994553	-0.118731	0.866025	-0.485698
10.999146	44.455688	-44.994553	0.118731	0.866025	-0.485698
-9.434205	44.656155	-44.993790	-0.102608	0.866025	-0.489358
9.434205	44.656155	-44.993790	0.102608	0.866025	-0.489358
-15.863387	43.653812	-44.993755	-0.166254	0.866025	-0.471550
15.863387	43.653812	-44.993755	0.166254	0.866025	-0.471550
-18.841835	43.052406	-44.961624	-0.193250	0.866025	-0.461145
18.841835	43.052406	-44.961624	0.193250	0.866025	-0.461145
-13.786824	44.054749	-44.946960	-0.146625	0.866025	-0.478018
13.786824	44.054749	-44.946960	0.146625	0.866025	-0.478018
-17.966978	43.252872	-44.944595	-0.185599	0.866025	-0.464277
17.966978	43.252872	-44.944595	0.185599	0.866025	-0.464277
-12.574363	44.255219	-44.940662	-0.134725	0.866025	-0.481507
12.574363	44.255219	-44.940662	0.134725	0.866025	-0.481507
-7.881421	44.856625	-44.939114	-0.086372	0.866025	-0.492483
7.881421	44.856625	-44.939114	0.086372	0.866025	-0.492483
-15.007271	43.854279	-44.920559	-0.158435	0.866025	-0.474235
15.007271	43.854279	-44.920559	0.158435	0.866025	-0.474235
-9.805858	44.656155	-44.914257	-0.106650	0.866025	-0.488493
9.805858	44.656155	-44.914257	0.106650	0.866025	-0.488493
-17.097872	43.453342	-44.911015	-0.177897	0.866025	-0.467282
17.097872	43.453342	-44.911015	0.177897	0.866025	-0.467282
-11.370751	44.455688	-44.902081	-0.122743	0.866025	-0.484700
11.370751	44.455688	-44.902081	0.122743	0.866025	-0.484700
-8.252674	44.856625	-44.872417	-0.090440	0.866025	-0.491753
8.252674	44.856625	-44.872417	0.090440	0.866025	-0.491753
-16.234819	43.653812	-44.861073	-0.170147	0.866025	-0.470160
16.234819	43.653812	-44.861073	0.170147	0.866025	-0.470160
-12.945469	44.255219	-44.835171	-0.138701	0.866025	-0.480377
12.945469	44.255219	-44.835171	0.138701	0.866025	-0.480377
-10.176841	44.656155	-44.831654	-0.110685	0.866025	-0.487595
10.176841	44.656155	-44.831654	0.110685	0.866025	-0.487595
-14.157942	44.054749	-44.831444	-0.150572	0.866025	-0.476789
14.157942	44.054749	-44.831444	0.150572	0.866025	-0.476789
-11.741580	44.455688	-44.806541	-0.126746	0.866025	-0.483669
11.741580	44.455688	-44.806541	0.126746	0.866025	-0.483669
-19.212900	43.052406	-44.804317	-0.197055	0.866025	-0.459531
19.212900	43.052406	-44.804317	0.197055	0.866025	-0.459531
-8.623364	44.856625	-44.802658	-0.094503	0.866025	-0.490988
8.623364	44.856625	-44.802658	0.094503	0.866025	-0.490988
-15.378128	43.854279	-44.794956	-0.162350	0.866025	-0.472909
15.378128	43.854279	-44.794956	0.162350	0.866025	-0.472909
-18.337933	43.252872	-44.794521	-0.189431	0.866025	-0.462727
18.337933	43.252872	-44.794521	0.189431	0.866025	-0.462727
-17.468578	43.453342	-44.768127	-0.181754	0.866025	-0.465796
17.468578	43.453342	-44.768127	0.181754	0.866025	-0.465796
-10.547128	44.656155	-44.745987	-0.114712	0.866025	-0.486663
10.547128	44.656155	-44.745987	0.114712	0.866025	-0.486663
-8.993464	44.856625	-44.729836	-0.098559	0.866025	-0.490190
8.993464	44.856625	-44.729836	0.098559	0.866025	-0.490190
-13.315690	44.255219	-44.726616	-0.142668	0.866025	-0.479214
13.315690	44.255219	-44.726616	0.142668	0.866025	-0.479214
-16.605143	43.653812	-44.725319	-0.174028	0.866025	-0.468737
16.605143	43.653812	-44.725319	0.174028	0.866025	-0.468737
-14.528090	44.054749	-44.712864	-0.154509	0.866025	-0.475528
14.528090	44.054749	-44.712864	0.154509	0.866025	-0.475528
-12.111606	44.455688	-44.707939	-0.130740	0.866025	-0.482604
12.111606	44.455688	-44.707939	0.130740	0.866025	-0.482604
-15.747933	43.854279	-44.666290	-0.166254	0.866025	-0.471550
15.747933	43.854279	-44.666290	0.166254	0.866025	-0.471550
-10.916694	44.656155	-44.657261	-0.118731	0.866025	-0.485698
10.916694	44.656155	-44.657261	0.118731	0.866025	-0.485698
-9.362950	44.856625	-44.653957	-0.102608	0.866025	-0.489358
9.362950	44.856625	-44.653957	0.102608	0.866025	-0.489358
-19.582651	43.052406	-44.643951	-0.200848	0.866025	-0.457887
19.582651	43.052406	-44.643951	0.200848	0.866025	-0.457887
-18.707634	43.252872	-44.641388	-0.193250	0.866025	-0.461145
18.707634	43.252872	-44.641388	0.193250	0.866025	-0.461145
-17.838091	43.453342	-44.622181	-0.185599	0.866025	-0.464277
17.838091	43.453342	-44.622181	0.185599	0.866025	-0.464277
-13.685001	44.255219	-44.615002	-0.146625	0.866025	-0.478018
13.685001	44.255219	-44.615002	0.146625	0.866025	-0.478018
-12.480803	44.455688	-44.606281	-0.134725	0.866025	-0.481507
12.480803	44.455688	-44.606281	0.134725	0.866025	-0.481507
-14.897246	44.054749	-44.591228	-0.158435	0.866025	-0.474235
14.897246	44.054749	-44.591228	0.158435	0.866025	-0.474235
-16.974331	43.653812	-44.586514	-0.177897	0.866025	-0.467282
16.974331	43.653812	-44.586514	0.177897	0.866025	-0.467282
-9.731795	44.856625	-44.575024	-0.106650	0.866025	-0.488493
9.731795	44.856625	-44.575024	0.106650	0.866025	-0.488493
-11.285513	44.656155	-44.565483	-0.122743	0.866025	-0.484700
11.285513	44.656155	-44.565483	0.122743	0.866025	-0.484700
-16.116663	43.854279	-44.534573	-0.170147	0.866025	-0.470160
16.116663	43.854279	-44.534573	0.170147	0.866025	-0.470160
-12.849149	44.455688	-44.501575	-0.138701	0.866025	-0.480377
12.849149	44.455688	-44.501575	0.138701	0.866025	-0.480377
-14.053378	44.255219	-44.500340	-0.150572	0.866025	-0.476789
14.053378	44.255219	-44.500340	0.150572	0.866025	-0.476789
-10.099977	44.856625	-44.493046	-0.110685	0.866025	-0.487595
10.099977	44.856625	-44.493046	0.110685	0.866025	-0.487595
-19.076056	43.252872	-44.485199	-0.197055	0.866025	-0.459531
19.076056	43.252872	-44.485199	0.197055	0.866025	-0.459531
-19.951065	43.052406	-44.480530	-0.204626	0.866025	-0.456211
19.951065	43.052406	-44.480530	0.204626	0.866025	-0.456211
-18.206383	43.453342	-44.473183	-0.189431	0.866025	-0.462727
18.206383	43.453342	-44.473183	0.189431	0.866025	-0.462727
-11.653562	44.656155	-44.470661	-0.126746	0.866025	-0.483669
11.653562	44.656155	-44.470661	0.126746	0.866025	-0.483669
-15.265385	44.054749	-44.466545	-0.162350	0.866025	-0.472909
15.265385	44.054749	-44.466545	0.162350	0.866025	-0.472909
-17.342360	43.653812	-44.444656	-0.181754	0.866025	-0.465796
17.342360	43.653812	-44.444656	0.181754	0.866025	-0.465796
-10.467466	44.856625	-44.408028	-0.114712	0.866025	-0.486663
10.467466	44.856625	-44.408028	0.114712	0.866025	-0.486663
-16.484291	43.854279	-44.399807	-0.174028	0.866025	-0.468737
16.484291	43.854279	-44.399807	0.174028	0.866025	-0.468737
-13.216616	44.455688	-44.393829	-0.142668	0.866025	-0.479214
13.216616	44.455688	-44.393829	0.142668	0.866025	-0.479214
-14.420794	44.255219	-44.382637	-0.154509	0.866025	-0.475528
14.420794	44.255219	-44.382637	0.154509	0.866025	-0.475528
-12.020814	44.656155	-44.372799	-0.130740	0.866025	-0.482604
12.020814	44.656155	-44.372799	0.130740	0.866025	-0.482604
-15.632480	44.054749	-44.338825	-0.166254	0.866025	-0.471550
15.632480	44.054749	-44.338825	0.166254	0.866025	-0.471550
-19.443174	43.252872	-44.325974	-0.200848	0.866025	-0.457887
19.443174	43.252872	-44.325974	0.200848	0.866025	-0.457887
-18.573433	43.453342	-44.321148	-0.193250	0.866025	-0.461145
18.573433	43.453342	-44.321148	0.193250	0.866025	-0.461145
-10.834241	44.856625	-44.319973	-0.118731	0.866025	-0.485698
10.834241	44.856625	-44.319973	0.118731	0.866025	-0.485698
-20.318115	43.052406	-44.314068	-0.208391	0.866025	-0.454503
20.318115	43.052406	-44.314068	0.208391	0.866025	-0.454503
-17.709202	43.653812	-44.299767	-0.185599	0.866025	-0.464277
17.709202	43.653812	-44.299767	0.185599	0.866025	-0.464277
-13.583179	44.455688	-44.283047	-0.146625	0.866025	-0.478018
13.583179	44.455688	-44.283047	0.146625	0.866025	-0.478018
-12.387244	44.656155	-44.271904	-0.134725	0.866025	-0.481507
12.387244	44.656155	-44.271904	0.134725	0.866025	-0.481507
-16.850792	43.854279	-44.262012	-0.177897	0.866025	-0.467282
16.850792	43.854279	-44.262012	0.177897	0.866025	-0.467282
-14.787223	44.255219	-44.261902	-0.158435	0.866025	-0.474235
14.787223	44.255219	-44.261902	0.158435	0.866025	-0.474235
-11.200275	44.856625	-44.228886	-0.122743	0.866025	-0.484700
11.200275	44.856625	-44.228886	0.122743	0.866025	-0.484700
-15.998506	44.054749	-44.208073	-0.170147	0.866025	-0.470160
15.998506	44.054749	-44.208073	0.170147	0.866025	-0.470160
-13.948813	44.455688	-44.169239	-0.150572	0.866025	-0.476789
13.948813	44.455688	-44.169239	0.150572	0.866025	-0.476789
-12.752829	44.656155	-44.167980	-0.138701	0.866025	-0.480377
12.752829	44.656155	-44.167980	0.138701	0.866025	-0.480377
-18.939211	43.453342	-44.166080	-0.197055	0.866025	-0.459531
18.939211	43.453342	-44.166080	0.197055	0.866025	-0.459531
-19.808964	43.252872	-44.163715	-0.204626	0.866025	-0.456211
19.808964	43.252872	-44.163715	0.204626	0.866025	-0.456211
-18.074835	43.653812	-44.151844	-0.189431	0.866025	-0.462727
18.074835	43.653812	-44.151844	0.189431	0.866025	-0.462727
-20.683777	43.052406	-44.144581	-0.212141	0.866025	-0.452765
20.683777	43.052406	-44.144581	0.212141	0.866025	-0.452765
-15.152642	44.255219	-44.138138	-0.162350	0.866025	-0.472909
15.152642	44.255219	-44.138138	0.162350	0.866025	-0.472909
-11.565544	44.856625	-44.134781	-0.126746	0.866025	-0.483669
11.565544	44.856625	-44.134781	0.126746	0.866025	-0.483669
-17.216141	43.854279	-44.121189	-0.181754	0.866025	-0.465796
17.216141	43.854279	-44.121189	0.181754	0.866025	-0.465796
-16.363438	44.054749	-44.074295	-0.174028	0.866025	-0.468737
16.363438	44.054749	-44.074295	0.174028	0.866025	-0.468737
-13.117540	44.656155	-44.061043	-0.142668	0.866025	-0.479214
13.117540	44.656155	-44.061043	0.142668	0.866025	-0.479214
-14.313496	44.455688	-44.052410	-0.154509	0.866025	-0.475528
14.313496	44.455688	-44.052410	0.154509	0.866025	-0.475528
-11.930022	44.856625	-44.037655	-0.130740	0.866025	-0.482604
11.930022	44.856625	-44.037655	0.130740	0.866025	-0.482604
-15.517025	44.255219	-44.011360	-0.166254	0.866025	-0.471550
15.517025	44.255219	-44.011360	0.166254	0.866025	-0.471550
-19.303698	43.453342	-44.007996	-0.200848	0.866025	-0.457887
19.303698	43.453342	-44.007996	0.200848	0.866025	-0.457887
-18.439232	43.653812	-44.000908	-0.193250	0.866025	-0.461145
18.439232	43.653812	-44.000908	0.193250	0.866025	-0.461145
-20.173399	43.252872	-43.998440	-0.208391	0.866025	-0.454503
20.173399	43.252872	-43.998440	0.208391	0.866025	-0.454503
-17.580315	43.854279	-43.977352	-0.185599	0.866025	-0.464277
17.580315	43.854279	-43.977352	0.185599	0.866025	-0.464277
-21.048025	43.052406	-43.972073	-0.215877	0.866025	-0.450996
21.048025	43.052406	-43.972073	0.215877	0.866025	-0.450996
-13.481356	44.656155	-43.951088	-0.146625	0.866025	-0.478018
13.481356	44.656155	-43.951088	0.146625	0.866025	-0.478018
-12.293685	44.856625	-43.937523	-0.134725	0.866025	-0.481507
12.293685	44.856625	-43.937523	0.134725	0.866025	-0.481507
-16.727253	44.054749	-43.937511	-0.177897	0.866025	-0.467282
16.727253	44.054749	-43.937511	0.177897	0.866025	-0.467282
-14.677198	44.455688	-43.932571	-0.158435	0.866025	-0.474235
14.677198	44.455688	-43.932571	0.158435	0.866025	-0.474235
-15.880348	44.255219	-43.881573	-0.170147	0.866025	-0.470160
15.880348	44.255219	-43.881573	0.170147	0.866025	-0.470160
-18.802368	43.653812	-43.846962	-0.197055	0.866025	-0.459531
18.802368	43.653812	-43.846962	0.197055	0.866025	-0.459531
-19.666862	43.453342	-43.846905	-0.204626	0.866025	-0.456211
19.666862	43.453342	-43.846905	0.204626	0.866025	-0.456211
-13.844250	44.656155	-43.838135	-0.150572	0.866025	-0.476789
13.844250	44.656155	-43.838135	0.150572	0.866025	-0.476789
-12.656507	44.856625	-43.834385	-0.138701	0.866025	-0.480377
12.656507	44.856625	-43.834385	0.138701	0.866025	-0.480377
-17.943285	43.854279	-43.830505	-0.189431	0.866025	-0.462727
17.943285	43.854279	-43.830505	0.189431	0.866025	-0.462727
-20.536457	43.252872	-43.830158	-0.212141	0.866025	-0.452765
20.536457	43.252872	-43.830158	0.212141	0.866025	-0.452765
-15.039899	44.455688	-43.809731	-0.162350	0.866025	-0.472909
15.039899	44.455688	-43.809731	0.162350	0.866025	-0.472909
-17.089924	44.054749	-43.797718	-0.181754	0.866025	-0.465796
17.089924	44.054749	-43.797718	0.181754	0.866025	-0.465796
-21.410833	43.052406	-43.796562	-0.219598	0.866025	-0.449196
21.410833	43.052406	-43.796562	0.219598	0.866025	-0.449196
-16.242586	44.255219	-43.748787	-0.174028	0.866025	-0.468737
16.242586	44.255219	-43.748787	0.174028	0.866025	-0.468737
-13.018465	44.856625	-43.728252	-0.142668	0.866025	-0.479214
13.018465	44.856625	-43.728252	0.142668	0.866025	-0.479214
-14.206198	44.656155	-43.722183	-0.154509	0.866025	-0.475528
14.206198	44.656155	-43.722183	0.154509	0.866025	-0.475528
-19.164219	43.653812	-43.690018	-0.200848	0.866025	-0.457887
19.164219	43.653812	-43.690018	0.200848	0.866025	-0.457887
-15.401571	44.455688	-43.683895	-0.166254	0.866025	-0.471550
15.401571	44.455688	-43.683895	0.166254	0.866025	-0.471550
-20.028685	43.453342	-43.682816	-0.208391	0.866025	-0.454503
20.028685	43.453342	-43.682816	0.208391	0.866025	-0.454503
-18.305031	43.854279	-43.680668	-0.193250	0.866025	-0.461145
18.305031	43.854279	-43.680668	0.193250	0.866025	-0.461145
-20.898109	43.252872	-43.658882	-0.215877	0.866025	-0.450996
20.898109	43.252872	-43.658882	0.215877	0.866025	-0.450996
-17.451426	44.054749	-43.654938	-0.185599	0.866025	-0.464277
17.451426	44.054749	-43.654938	0.185599	0.866025	-0.464277
-13.379533	44.856625	-43.619133	-0.146625	0.866025	-0.478018
13.379533	44.856625	-43.619133	0.146625	0.866025	-0.478018
-21.772179	43.052406	-43.618053	-0.223304	0.866025	-0.447365
21.772179	43.052406	-43.618053	0.223304	0.866025	-0.447365
-16.603712	44.255219	-43.613007	-0.177897	0.866025	-0.467282
16.603712	44.255219	-43.613007	0.177897	0.866025	-0.467282
-14.567175	44.656155	-43.603241	-0.158435	0.866025	-0.474235
14.567175	44.656155	-43.603241	0.158435	0.866025	-0.474235
-15.762191	44.455688	-43.555073	-0.170147	0.866025	-0.470160
15.762191	44.455688	-43.555073	0.170147	0.866025	-0.470160
-19.524761	43.653812	-43.530090	-0.204626	0.866025	-0.456211
19.524761	43.653812	-43.530090	0.204626	0.866025	-0.456211
-18.665524	43.854279	-43.527843	-0.197055	0.866025	-0.459531
18.665524	43.854279	-43.527843	0.197055	0.866025	-0.459531
-20.389137	43.453342	-43.515739	-0.212141	0.866025	-0.452765
20.389137	43.453342	-43.515739	0.212141	0.866025	-0.452765
-17.811737	44.054749	-43.509171	-0.189431	0.866025	-0.462727
17.811737	44.054749	-43.509171	0.189431	0.866025	-0.462727
-13.739686	44.856625	-43.507030	-0.150572	0.866025	-0.476789
13.739686	44.856625	-43.507030	0.150572	0.866025	-0.476789
-21.258335	43.252872	-43.484619	-0.219598	0.866025	-0.449196
21.258335	43.252872	-43.484619	0.219598	0.866025	-0.449196
-14.927156	44.656155	-43.481319	-0.162350	0.866025	-0.472909
14.927156	44.656155	-43.481319	0.162350	0.866025	-0.472909
-16.963705	44.255219	-43.474251	-0.181754	0.866025	-0.465796
16.963705	44.255219	-43.474251	0.181754	0.866025	-0.465796
-22.132036	43.052406	-43.436569	-0.226995	0.866025	-0.445503
22.132036	43.052406	-43.436569	0.226995	0.866025	-0.445503
-16.121733	44.455688	-43.423275	-0.174028	0.866025	-0.468737
16.121733	44.455688	-43.423275	0.174028	0.866025	-0.468737
-14.098901	44.856625	-43.391953	-0.154509	0.866025	-0.475528
14.098901	44.856625	-43.391953	0.154509	0.866025	-0.475528
-19.024742	43.854279	-43.372044	-0.200848	0.866025	-0.457887
19.024742	43.854279	-43.372044	0.200848	0.866025	-0.457887
-19.883968	43.653812	-43.367188	-0.208391	0.866025	-0.454503
19.883968	43.653812	-43.367188	0.208391	0.866025	-0.454503
-18.170830	44.054749	-43.360428	-0.193250	0.866025	-0.461145
18.170830	44.054749	-43.360428	0.193250	0.866025	-0.461145
-15.286118	44.656155	-43.356426	-0.166254	0.866025	-0.471550
15.286118	44.656155	-43.356426	0.166254	0.866025	-0.471550
-20.748196	43.453342	-43.345688	-0.215877	0.866025	-0.450996
20.748196	43.453342	-43.345688	0.215877	0.866025	-0.450996
-17.322538	44.255219	-43.332523	-0.185599	0.866025	-0.464277
17.322538	44.255219	-43.332523	0.185599	0.866025	-0.464277
-21.617107	43.252872	-43.307384	-0.223304	0.866025	-0.447365
21.617107	43.252872	-43.307384	0.223304	0.866025	-0.447365
-16.480173	44.455688	-43.288506	-0.177897	0.866025	-0.467282
16.480173	44.455688	-43.288506	0.177897	0.866025	-0.467282
-14.457150	44.856625	-43.273911	-0.158435	0.866025	-0.474235
14.457150	44.856625	-43.273911	0.158435	0.866025	-0.474235
-22.490381	43.052406	-43.252113	-0.230671	0.866025	-0.443611
22.490381	43.052406	-43.252113	0.230671	0.866025	-0.443611
-15.644033	44.656155	-43.228573	-0.170147	0.866025	-0.470160
15.644033	44.656155	-43.228573	0.170147	0.866025	-0.470160
-19.382660	43.854279	-43.213276	-0.204626	0.866025	-0.456211
19.382660	43.854279	-43.213276	0.204626	0.866025	-0.456211
-18.528679	44.054749	-43.208725	-0.197055	0.866025	-0.459531
18.528679	44.054749	-43.208725	0.197055	0.866025	-0.459531
-20.241816	43.653812	-43.201321	-0.212141	0.866025	-0.452765
20.241816	43.653812	-43.201321	0.212141	0.866025	-0.452765
-17.680187	44.255219	-43.187832	-0.189431	0.866025	-0.462727
17.680187	44.255219	-43.187832	0.189431	0.866025	-0.462727
-21.105837	43.453342	-43.172676	-0.219598	0.866025	-0.449196
21.105837	43.453342	-43.172676	0.219598	0.866025	-0.449196
-14.814413	44.856625	-43.152912	-0.162350	0.866025	-0.472909
14.814413	44.856625	-43.152912	0.162350	0.866025	-0.472909
-16.837488	44.455688	-43.150784	-0.181754	0.866025	-0.465796
16.837488	44.455688	-43.150784	0.181754	0.866025	-0.465796
-21.974401	43.252872	-43.127190	-0.226995	0.866025	-0.445503
21.974401	43.252872	-43.127190	0.226995	0.866025	-0.445503
-16.000881	44.656155	-43.097763	-0.174028	0.866025	-0.468737
16.000881	44.656155	-43.097763	0.174028	0.866025	-0.468737
-22.847189	43.052406	-43.064701	-0.234330	0.866025	-0.441689
22.847189	43.052406	-43.064701	0.234330	0.866025	-0.441689
-18.885263	44.054749	-43.054066	-0.200848	0.866025	-0.457887
18.885263	44.054749	-43.054066	0.200848	0.866025	-0.457887
-19.739252	43.854279	-43.051559	-0.208391	0.866025	-0.454503
19.739252	43.854279	-43.051559	0.208391	0.866025	-0.454503
-18.036629	44.255219	-43.040188	-0.193250	0.866025	-0.461145
18.036629	44.255219	-43.040188	0.193250	0.866025	-0.461145
-20.598280	43.653812	-43.032497	-0.215877	0.866025	-0.450996
20.598280	43.653812	-43.032497	0.215877	0.866025	-0.450996
-15.170663	44.856625	-43.028961	-0.166254	0.866025	-0.471550
15.170663	44.856625	-43.028961	0.166254	0.866025	-0.471550
-17.193651	44.455688	-43.010109	-0.185599	0.866025	-0.464277
17.193651	44.455688	-43.010109	0.185599	0.866025	-0.464277
-21.462034	43.453342	-42.996716	-0.223304	0.866025	-0.447365
21.462034	43.453342	-42.996716	0.223304	0.866025	-0.447365
-16.356634	44.656155	-42.964005	-0.177897	0.866025	-0.467282
16.356634	44.656155	-42.964005	0.177897	0.866025	-0.467282
-22.330194	43.252872	-42.944050	-0.230671	0.866025	-0.443611
22.330194	43.252872	-42.944050	0.230671	0.866025	-0.443611
-15.525876	44.856625	-42.902073	-0.170147	0.866025	-0.470160
15.525876	44.856625	-42.902073	0.170147	0.866025	-0.470160
-19.240557	44.054749	-42.896465	-0.204626	0.866025	-0.456211
19.240557	44.054749	-42.896465	0.204626	0.866025	-0.456211
-18.391836	44.255219	-42.889603	-0.197055	0.866025	-0.459531
18.391836	44.255219	-42.889603	0.197055	0.866025	-0.459531
-20.094496	43.854279	-42.886898	-0.212141	0.866025	-0.452765
20.094496	43.854279	-42.886898	0.212141	0.866025	-0.452765
-23.202435	43.052406	-42.874344	-0.237974	0.866025	-0.439737
23.202435	43.052406	-42.874344	0.237974	0.866025	-0.439737
-17.548637	44.455688	-42.866493	-0.189431	0.866025	-0.462727
17.548637	44.455688	-42.866493	0.189431	0.866025	-0.462727
-20.953337	43.653812	-42.860737	-0.219598	0.866025	-0.449196
20.953337	43.653812	-42.860737	0.219598	0.866025	-0.449196
-16.711269	44.656155	-42.827312	-0.181754	0.866025	-0.465796
16.711269	44.656155	-42.827312	0.181754	0.866025	-0.465796
-21.816765	43.453342	-42.817814	-0.226995	0.866025	-0.445503
21.816765	43.453342	-42.817814	0.226995	0.866025	-0.445503
-15.880028	44.856625	-42.772251	-0.174028	0.866025	-0.468737
15.880028	44.856625	-42.772251	0.174028	0.866025	-0.468737
-22.684460	43.252872	-42.757973	-0.234330	0.866025	-0.441689
22.684460	43.252872	-42.757973	0.234330	0.866025	-0.441689
-18.745787	44.255219	-42.736088	-0.200848	0.866025	-0.457887
18.745787	44.255219	-42.736088	0.200848	0.866025	-0.457887
-19.594536	44.054749	-42.735931	-0.208391	0.866025	-0.454503
19.594536	44.054749	-42.735931	0.208391	0.866025	-0.454503
-17.902428	44.455688	-42.719948	-0.193250	0.866025	-0.461145
17.902428	44.455688	-42.719948	0.193250	0.866025	-0.461145
-20.448366	43.854279	-42.719307	-0.215877	0.866025	-0.450996
20.448366	43.854279	-42.719307	0.215877	0.866025	-0.450996
-17.064762	44.656155	-42.687691	-0.185599	0.866025	-0.464277
17.064762	44.656155	-42.687691	0.185599	0.866025	-0.464277
-21.306961	43.653812	-42.686047	-0.223304	0.866025	-0.447365
21.306961	43.653812	-42.686047	0.223304	0.866025	-0.447365
-23.556095	43.052406	-42.681061	-0.241601	0.866025	-0.437754
23.556095	43.052406	-42.681061	0.241601	0.866025	-0.437754
-16.233095	44.856625	-42.639503	-0.177897	0.866025	-0.467282
16.233095	44.856625	-42.639503	0.177897	0.866025	-0.467282
-22.170006	43.453342	-42.635986	-0.230671	0.866025	-0.443611
22.170006	43.453342	-42.635986	0.230671	0.866025	-0.443611
-19.098455	44.255219	-42.579651	-0.204626	0.866025	-0.456211
19.098455	44.255219	-42.579651	0.204626	0.866025	-0.456211
-19.947176	44.054749	-42.572479	-0.212141	0.866025	-0.452765
19.947176	44.054749	-42.572479	0.212141	0.866025	-0.452765
-18.254992	44.455688	-42.570484	-0.197055	0.866025	-0.459531
18.254992	44.455688	-42.570484	0.197055	0.866025	-0.459531
-23.037176	43.252872	-42.568974	-0.237974	0.866025	-0.439737
23.037176	43.252872	-42.568974	0.237974	0.866025	-0.439737
-20.800838	43.854279	-42.548794	-0.219598	0.866025	-0.449196
20.800838	43.854279	-42.548794	0.219598	0.866025	-0.449196
-17.417089	44.656155	-42.545155	-0.189431	0.866025	-0.462727
17.417089	44.656155	-42.545155	0.189431	0.866025	-0.462727
-21.659130	43.653812	-42.508438	-0.226995	0.866025	-0.445503
21.659130	43.653812	-42.508438	0.226995	0.866025	-0.445503
-16.585051	44.856625	-42.503845	-0.181754	0.866025	-0.465796
16.585051	44.856625	-42.503845	0.181754	0.866025	-0.465796
-23.908146	43.052406	-42.484856	-0.245212	0.866025	-0.435742
23.908146	43.052406	-42.484856	0.245212	0.866025	-0.435742
-22.521730	43.453342	-42.451244	-0.234330	0.866025	-0.441689
22.521730	43.453342	-42.451244	0.234330	0.866025	-0.441689
-19.449820	44.255219	-42.420303	-0.208391	0.866025	-0.454503
19.449820	44.255219	-42.420303	0.208391	0.866025	-0.454503
-18.606308	44.455688	-42.418110	-0.200848	0.866025	-0.457887
18.606308	44.455688	-42.418110	0.200848	0.866025	-0.457887
-20.298450	44.054749	-42.406116	-0.215877	0.866025	-0.450996
20.298450	44.054749	-42.406116	0.215877	0.866025	-0.450996
-17.768227	44.656155	-42.399708	-0.193250	0.866025	-0.461145
17.768227	44.656155	-42.399708	0.193250	0.866025	-0.461145
-23.388317	43.252872	-42.377064	-0.241601	0.866025	-0.437754
23.388317	43.252872	-42.377064	0.241601	0.866025	-0.437754
-21.151890	43.854279	-42.375374	-0.223304	0.866025	-0.447365
21.151890	43.854279	-42.375374	0.223304	0.866025	-0.447365
-16.935875	44.856625	-42.365276	-0.185599	0.866025	-0.464277
16.935875	44.856625	-42.365276	0.185599	0.866025	-0.464277
-22.009817	43.653812	-42.327923	-0.230671	0.866025	-0.443611
