-12.480803	48.144314	-44.606281	-0.134725	-0.866025	-0.481507
14.897246	48.545250	-44.591228	0.158435	-0.866025	-0.474235
-14.897246	48.545250	-44.591228	-0.158435	-0.866025	-0.474235
16.974331	48.946190	-44.586514	0.177897	-0.866025	-0.467282
-16.974331	48.946190	-44.586514	-0.177897	-0.866025	-0.467282
9.731795	47.743374	-44.575024	0.106650	-0.866025	-0.488493
-9.731795	47.743374	-44.575024	-0.106650	-0.866025	-0.488493
11.285513	47.943844	-44.565483	0.122743	-0.866025	-0.484700
-11.285513	47.943844	-44.565483	-0.122743	-0.866025	-0.484700
16.116663	48.745720	-44.534573	0.170147	-0.866025	-0.470160
-16.116663	48.745720	-44.534573	-0.170147	-0.866025	-0.470160
12.849149	48.144314	-44.501575	0.138701	-0.866025	-0.480377
-12.849149	48.144314	-44.501575	-0.138701	-0.866025	-0.480377
14.053378	48.344784	-44.500340	0.150572	-0.866025	-0.476789
-14.053378	48.344784	-44.500340	-0.150572	-0.866025	-0.476789
10.099977	47.743374	-44.493046	0.110685	-0.866025	-0.487595
-10.099977	47.743374	-44.493046	-0.110685	-0.866025	-0.487595
19.076056	49.347126	-44.485199	0.197055	-0.866025	-0.459531
-19.076056	49.347126	-44.485199	-0.197055	-0.866025	-0.459531
19.951065	49.547596	-44.480530	0.204626	-0.866025	-0.456211
-19.951065	49.547596	-44.480530	-0.204626	-0.866025	-0.456211
18.206383	49.146656	-44.473183	0.189431	-0.866025	-0.462727
-18.206383	49.146656	-44.473183	-0.189431	-0.866025	-0.462727
11.653562	47.943844	-44.470661	0.126746	-0.866025	-0.483669
-11.653562	47.943844	-44.470661	-0.126746	-0.866025	-0.483669
15.265385	48.545250	-44.466545	0.162350	-0.866025	-0.472909
-15.265385	48.545250	-44.466545	-0.162350	-0.866025	-0.472909
17.342360	48.946190	-44.444656	0.181754	-0.866025	-0.465796
-17.342360	48.946190	-44.444656	-0.181754	-0.866025	-0.465796
10.467466	47.743374	-44.408028	0.114712	-0.866025	-0.486663
-10.467466	47.743374	-44.408028	-0.114712	-0.866025	-0.486663
16.484291	48.745720	-44.399807	0.174028	-0.866025	-0.468737
-16.484291	48.745720	-44.399807	-0.174028	-0.866025	-0.468737
13.216616	48.144314	-44.393829	0.142668	-0.866025	-0.479214
-13.216616	48.144314	-44.393829	-0.142668	-0.866025	-0.479214
14.420794	48.344784	-44.382637	0.154509	-0.866025	-0.475528
-14.420794	48.344784	-44.382637	-0.154509	-0.866025	-0.475528
12.020814	47.943844	-44.372799	0.130740	-0.866025	-0.482604
-12.020814	47.943844	-44.372799	-0.130740	-0.866025	-0.482604
15.632480	48.545250	-44.338825	0.166254	-0.866025	-0.471550
-15.632480	48.545250	-44.338825	-0.166254	-0.866025	-0.471550
19.443174	49.347126	-44.325974	0.200848	-0.866025	-0.457887
-19.443174	49.347126	-44.325974	-0.200848	-0.866025	-0.457887
18.573433	49.146656	-44.321148	0.193250	-0.866025	-0.461145
-18.573433	49.146656	-44.321148	-0.193250	-0.866025	-0.461145
10.834241	47.743374	-44.319973	0.118731	-0.866025	-0.485698
-10.834241	47.743374	-44.319973	-0.118731	-0.866025	-0.485698
20.318115	49.547596	-44.314068	0.208391	-0.866025	-0.454503
-20.318115	49.547596	-44.314068	-0.208391	-0.866025	-0.454503
17.709202	48.946190	-44.299767	0.185599	-0.866025	-0.464277
-17.709202	48.946190	-44.299767	-0.185599	-0.866025	-0.464277
13.583179	48.144314	-44.283047	0.146625	-0.866025	-0.478018
-13.583179	48.144314	-44.283047	-0.146625	-0.866025	-0.478018
12.387244	47.943844	-44.271904	0.134725	-0.866025	-0.481507
-12.387244	47.943844	-44.271904	-0.134725	-0.866025	-0.481507
16.850792	48.745720	-44.262012	0.177897	-0.866025	-0.467282
-16.850792	48.745720	-44.262012	-0.177897	-0.866025	-0.467282
14.787223	48.344784	-44.261902	0.158435	-0.866025	-0.474235
-14.787223	48.344784	-44.261902	-0.158435	-0.866025	-0.474235
11.200275	47.743374	-44.228886	0.122743	-0.866025	-0.484700
-11.200275	47.743374	-44.228886	-0.122743	-0.866025	-0.484700
15.998506	48.545250	-44.208073	0.170147	-0.866025	-0.470160
-15.998506	48.545250	-44.208073	-0.170147	-0.866025	-0.470160
13.948813	48.144314	-44.169239	0.150572	-0.866025	-0.476789
-13.948813	48.144314	-44.169239	-0.150572	-0.866025	-0.476789
12.752829	47.943844	-44.167980	0.138701	-0.866025	-0.480377
-12.752829	47.943844	-44.167980	-0.138701	-0.866025	-0.480377
18.939211	49.146656	-44.166080	0.197055	-0.866025	-0.459531
-18.939211	49.146656	-44.166080	-0.197055	-0.866025	-0.459531
19.808964	49.347126	-44.163715	0.204626	-0.866025	-0.456211
-19.808964	49.347126	-44.163715	-0.204626	-0.866025	-0.456211
18.074835	48.946190	-44.151844	0.189431	-0.866025	-0.462727
-18.074835	48.946190	-44.151844	-0.189431	-0.866025	-0.462727
20.683777	49.547596	-44.144581	0.212141	-0.866025	-0.452765
-20.683777	49.547596	-44.144581	-0.212141	-0.866025	-0.452765
15.152642	48.344784	-44.138138	0.162350	-0.866025	-0.472909
-15.152642	48.344784	-44.138138	-0.162350	-0.866025	-0.472909
11.565544	47.743374	-44.134781	0.126746	-0.866025	-0.483669
-11.565544	47.743374	-44.134781	-0.126746	-0.866025	-0.483669
17.216141	48.745720	-44.121189	0.181754	-0.866025	-0.465796
-17.216141	48.745720	-44.121189	-0.181754	-0.866025	-0.465796
16.363438	48.545250	-44.074295	0.174028	-0.866025	-0.468737
-16.363438	48.545250	-44.074295	-0.174028	-0.866025	-0.468737
13.117540	47.943844	-44.061043	0.142668	-0.866025	-0.479214
-13.117540	47.943844	-44.061043	-0.142668	-0.866025	-0.479214
14.313496	48.144314	-44.052410	0.154509	-0.866025	-0.475528
-14.313496	48.144314	-44.052410	-0.154509	-0.866025	-0.475528
11.930022	47.743374	-44.037655	0.130740	-0.866025	-0.482604
-11.930022	47.743374	-44.037655	-0.130740	-0.866025	-0.482604
15.517025	48.344784	-44.011360	0.166254	-0.866025	-0.471550
-15.517025	48.344784	-44.011360	-0.166254	-0.866025	-0.471550
19.303698	49.146656	-44.007996	0.200848	-0.866025	-0.457887
-19.303698	49.146656	-44.007996	-0.200848	-0.866025	-0.457887
18.439232	48.946190	-44.000908	0.193250	-0.866025	-0.461145
-18.439232	48.946190	-44.000908	-0.193250	-0.866025	-0.461145
20.173399	49.347126	-43.998440	0.208391	-0.866025	-0.454503
-20.173399	49.347126	-43.998440	-0.208391	-0.866025	-0.454503
17.580315	48.745720	-43.977352	0.185599	-0.866025	-0.464277
-17.580315	48.745720	-43.977352	-0.185599	-0.866025	-0.464277
21.048025	49.547596	-43.972073	0.215877	-0.866025	-0.450996
-21.048025	49.547596	-43.972073	-0.215877	-0.866025	-0.450996
13.481356	47.943844	-43.951088	0.146625	-0.866025	-0.478018
-13.481356	47.943844	-43.951088	-0.146625	-0.866025	-0.478018
12.293685	47.743374	-43.937523	0.134725	-0.866025	-0.481507
-12.293685	47.743374	-43.937523	-0.134725	-0.866025	-0.481507
16.727253	48.545250	-43.937511	0.177897	-0.866025	-0.467282
-16.727253	48.545250	-43.937511	-0.177897	-0.866025	-0.467282
14.677198	48.144314	-43.932571	0.158435	-0.866025	-0.474235
-14.677198	48.144314	-43.932571	-0.158435	-0.866025	-0.474235
15.880348	48.344784	-43.881573	0.170147	-0.866025	-0.470160
-15.880348	48.344784	-43.881573	-0.170147	-0.866025	-0.470160
18.802368	48.946190	-43.846962	0.197055	-0.866025	-0.459531
-18.802368	48.946190	-43.846962	-0.197055	-0.866025	-0.459531
19.666862	49.146656	-43.846905	0.204626	-0.866025	-0.456211
-19.666862	49.146656	-43.846905	-0.204626	-0.866025	-0.456211
13.844250	47.943844	-43.838135	0.150572	-0.866025	-0.476789
-13.844250	47.943844	-43.838135	-0.150572	-0.866025	-0.476789
12.656507	47.743374	-43.834385	0.138701	-0.866025	-0.480377
-12.656507	47.743374	-43.834385	-0.138701	-0.866025	-0.480377
17.943285	48.745720	-43.830505	0.189431	-0.866025	-0.462727
-17.943285	48.745720	-43.830505	-0.189431	-0.866025	-0.462727
20.536457	49.347126	-43.830158	0.212141	-0.866025	-0.452765
-20.536457	49.347126	-43.830158	-0.212141	-0.866025	-0.452765
15.039899	48.144314	-43.809731	0.162350	-0.866025	-0.472909
-15.039899	48.144314	-43.809731	-0.162350	-0.866025	-0.472909
17.089924	48.545250	-43.797718	0.181754	-0.866025	-0.465796
-17.089924	48.545250	-43.797718	-0.181754	-0.866025	-0.465796
21.410833	49.547596	-43.796562	0.219598	-0.866025	-0.449196
-21.410833	49.547596	-43.796562	-0.219598	-0.866025	-0.449196
16.242586	48.344784	-43.748787	0.174028	-0.866025	-0.468737
-16.242586	48.344784	-43.748787	-0.174028	-0.866025	-0.468737
13.018465	47.743374	-43.728252	0.142668	-0.866025	-0.479214
-13.018465	47.743374	-43.728252	-0.142668	-0.866025	-0.479214
14.206198	47.943844	-43.722183	0.154509	-0.866025	-0.475528
-14.206198	47.943844	-43.722183	-0.154509	-0.866025	-0.475528
19.164219	48.946190	-43.690018	0.200848	-0.866025	-0.457887
-19.164219	48.946190	-43.690018	-0.200848	-0.866025	-0.457887
15.401571	48.144314	-43.683895	0.166254	-0.866025	-0.471550
-15.401571	48.144314	-43.683895	-0.166254	-0.866025	-0.471550
20.028685	49.146656	-43.682816	0.208391	-0.866025	-0.454503
-20.028685	49.146656	-43.682816	-0.208391	-0.866025	-0.454503
18.305031	48.745720	-43.680668	0.193250	-0.866025	-0.461145
-18.305031	48.745720	-43.680668	-0.193250	-0.866025	-0.461145
20.898109	49.347126	-43.658882	0.215877	-0.866025	-0.450996
-20.898109	49.347126	-43.658882	-0.215877	-0.866025	-0.450996
17.451426	48.545250	-43.654938	0.185599	-0.866025	-0.464277
-17.451426	48.545250	-43.654938	-0.185599	-0.866025	-0.464277
13.379533	47.743374	-43.619133	0.146625	-0.866025	-0.478018
-13.379533	47.743374	-43.619133	-0.146625	-0.866025	-0.478018
21.772179	49.547596	-43.618053	0.223304	-0.866025	-0.447365
-21.772179	49.547596	-43.618053	-0.223304	-0.866025	-0.447365
16.603712	48.344784	-43.613007	0.177897	-0.866025	-0.467282
-16.603712	48.344784	-43.613007	-0.177897	-0.866025	-0.467282
14.567175	47.943844	-43.603241	0.158435	-0.866025	-0.474235
-14.567175	47.943844	-43.603241	-0.158435	-0.866025	-0.474235
15.762191	48.144314	-43.555073	0.170147	-0.866025	-0.470160
-15.762191	48.144314	-43.555073	-0.170147	-0.866025	-0.470160
19.524761	48.946190	-43.530090	0.204626	-0.866025	-0.456211
-19.524761	48.946190	-43.530090	-0.204626	-0.866025	-0.456211
18.665524	48.745720	-43.527843	0.197055	-0.866025	-0.459531
-18.665524	48.745720	-43.527843	-0.197055	-0.866025	-0.459531
20.389137	49.146656	-43.515739	0.212141	-0.866025	-0.452765
-20.389137	49.146656	-43.515739	-0.212141	-0.866025	-0.452765
17.811737	48.545250	-43.509171	0.189431	-0.866025	-0.462727
-17.811737	48.545250	-43.509171	-0.189431	-0.866025	-0.462727
13.739686	47.743374	-43.507030	0.150572	-0.866025	-0.476789
-13.739686	47.743374	-43.507030	-0.150572	-0.866025	-0.476789
21.258335	49.347126	-43.484619	0.219598	-0.866025	-0.449196
-21.258335	49.347126	-43.484619	-0.219598	-0.866025	-0.449196
14.927156	47.943844	-43.481319	0.162350	-0.866025	-0.472909
-14.927156	47.943844	-43.481319	-0.162350	-0.866025	-0.472909
16.963705	48.344784	-43.474251	0.181754	-0.866025	-0.465796
-16.963705	48.344784	-43.474251	-0.181754	-0.866025	-0.465796
22.132036	49.547596	-43.436569	0.226995	-0.866025	-0.445503
-22.132036	49.547596	-43.436569	-0.226995	-0.866025	-0.445503
16.121733	48.144314	-43.423275	0.174028	-0.866025	-0.468737
-16.121733	48.144314	-43.423275	-0.174028	-0.866025	-0.468737
14.098901	47.743374	-43.391953	0.154509	-0.866025	-0.475528
-14.098901	47.743374	-43.391953	-0.154509	-0.866025	-0.475528
19.024742	48.745720	-43.372044	0.200848	-0.866025	-0.457887
-19.024742	48.745720	-43.372044	-0.200848	-0.866025	-0.457887
19.883968	48.946190	-43.367188	0.208391	-0.866025	-0.454503
-19.883968	48.946190	-43.367188	-0.208391	-0.866025	-0.454503
18.170830	48.545250	-43.360428	0.193250	-0.866025	-0.461145
-18.170830	48.545250	-43.360428	-0.193250	-0.866025	-0.461145
15.286118	47.943844	-43.356426	0.166254	-0.866025	-0.471550
-15.286118	47.943844	-43.356426	-0.166254	-0.866025	-0.471550
20.748196	49.146656	-43.345688	0.215877	-0.866025	-0.450996
-20.748196	49.146656	-43.345688	-0.215877	-0.866025	-0.450996
17.322538	48.344784	-43.332523	0.185599	-0.866025	-0.464277
-17.322538	48.344784	-43.332523	-0.185599	-0.866025	-0.464277
21.617107	49.347126	-43.307384	0.223304	-0.866025	-0.447365
-21.617107	49.347126	-43.307384	-0.223304	-0.866025	-0.447365
16.480173	48.144314	-43.288506	0.177897	-0.866025	-0.467282
-16.480173	48.144314	-43.288506	-0.177897	-0.866025	-0.467282
14.457150	47.743374	-43.273911	0.158435	-0.866025	-0.474235
-14.457150	47.743374	-43.273911	-0.158435	-0.866025	-0.474235
22.490381	49.547596	-43.252113	0.230671	-0.866025	-0.443611
-22.490381	49.547596	-43.252113	-0.230671	-0.866025	-0.443611
15.644033	47.943844	-43.228573	0.170147	-0.866025	-0.470160
-15.644033	47.943844	-43.228573	-0.170147	-0.866025	-0.470160
19.382660	48.745720	-43.213276	0.204626	-0.866025	-0.456211
-19.382660	48.745720	-43.213276	-0.204626	-0.866025	-0.456211
18.528679	48.545250	-43.208725	0.197055	-0.866025	-0.459531
-18.528679	48.545250	-43.208725	-0.197055	-0.866025	-0.459531
20.241816	48.946190	-43.201321	0.212141	-0.866025	-0.452765
-20.241816	48.946190	-43.201321	-0.212141	-0.866025	-0.452765
17.680187	48.344784	-43.187832	0.189431	-0.866025	-0.462727
-17.680187	48.344784	-43.187832	-0.189431	-0.866025	-0.462727
21.105837	49.146656	-43.172676	0.219598	-0.866025	-0.449196
-21.105837	49.146656	-43.172676	-0.219598	-0.866025	-0.449196
14.814413	47.743374	-43.152912	0.162350	-0.866025	-0.472909
-14.814413	47.743374	-43.152912	-0.162350	-0.866025	-0.472909
16.837488	48.144314	-43.150784	0.181754	-0.866025	-0.465796
-16.837488	48.144314	-43.150784	-0.181754	-0.866025	-0.465796
21.974401	49.347126	-43.127190	0.226995	-0.866025	-0.445503
-21.974401	49.347126	-43.127190	-0.226995	-0.866025	-0.445503
16.000881	47.943844	-43.097763	0.174028	-0.866025	-0.468737
-16.000881	47.943844	-43.097763	-0.174028	-0.866025	-0.468737
22.847189	49.547596	-43.064701	0.234330	-0.866025	-0.441689
-22.847189	49.547596	-43.064701	-0.234330	-0.866025	-0.441689
18.885263	48.545250	-43.054066	0.200848	-0.866025	-0.457887
-18.885263	48.545250	-43.054066	-0.200848	-0.866025	-0.457887
19.739252	48.745720	-43.051559	0.208391	-0.866025	-0.454503
-19.739252	48.745720	-43.051559	-0.208391	-0.866025	-0.454503
18.036629	48.344784	-43.040188	0.193250	-0.866025	-0.461145
-18.036629	48.344784	-43.040188	-0.193250	-0.866025	-0.461145
20.598280	48.946190	-43.032497	0.215877	-0.866025	-0.450996
-20.598280	48.946190	-43.032497	-0.215877	-0.866025	-0.450996
15.170663	47.743374	-43.028961	0.166254	-0.866025	-0.471550
-15.170663	47.743374	-43.028961	-0.166254	-0.866025	-0.471550
17.193651	48.144314	-43.010109	0.185599	-0.866025	-0.464277
-17.193651	48.144314	-43.010109	-0.185599	-0.866025	-0.464277
21.462034	49.146656	-42.996716	0.223304	-0.866025	-0.447365
-21.462034	49.146656	-42.996716	-0.223304	-0.866025	-0.447365
16.356634	47.943844	-42.964005	0.177897	-0.866025	-0.467282
-16.356634	47.943844	-42.964005	-0.177897	-0.866025	-0.467282
22.330194	49.347126	-42.944050	0.230671	-0.866025	-0.443611
-22.330194	49.347126	-42.944050	-0.230671	-0.866025	-0.443611
15.525876	47.743374	-42.902073	0.170147	-0.866025	-0.470160
-15.525876	47.743374	-42.902073	-0.170147	-0.866025	-0.470160
19.240557	48.545250	-42.896465	0.204626	-0.866025	-0.456211
-19.240557	48.545250	-42.896465	-0.204626	-0.866025	-0.456211
18.391836	48.344784	-42.889603	0.197055	-0.866025	-0.459531
-18.391836	48.344784	-42.889603	-0.197055	-0.866025	-0.459531
20.094496	48.745720	-42.886898	0.212141	-0.866025	-0.452765
-20.094496	48.745720	-42.886898	-0.212141	-0.866025	-0.452765
23.202435	49.547596	-42.874344	0.237974	-0.866025	-0.439737
-23.202435	49.547596	-42.874344	-0.237974	-0.866025	-0.439737
17.548637	48.144314	-42.866493	0.189431	-0.866025	-0.462727
-17.548637	48.144314	-42.866493	-0.189431	-0.866025	-0.462727
20.953337	48.946190	-42.860737	0.219598	-0.866025	-0.449196
-20.953337	48.946190	-42.860737	-0.219598	-0.866025	-0.449196
16.711269	47.943844	-42.827312	0.181754	-0.866025	-0.465796
-16.711269	47.943844	-42.827312	-0.181754	-0.866025	-0.465796
21.816765	49.146656	-42.817814	0.226995	-0.866025	-0.445503
-21.816765	49.146656	-42.817814	-0.226995	-0.866025	-0.445503
15.880028	47.743374	-42.772251	0.174028	-0.866025	-0.468737
-15.880028	47.743374	-42.772251	-0.174028	-0.866025	-0.468737
22.684460	49.347126	-42.757973	0.234330	-0.866025	-0.441689
-22.684460	49.347126	-42.757973	-0.234330	-0.866025	-0.441689
18.745787	48.344784	-42.736088	0.200848	-0.866025	-0.457887
-18.745787	48.344784	-42.736088	-0.200848	-0.866025	-0.457887
19.594536	48.545250	-42.735931	0.208391	-0.866025	-0.454503
-19.594536	48.545250	-42.735931	-0.208391	-0.866025	-0.454503
17.902428	48.144314	-42.719948	0.193250	-0.866025	-0.461145
-17.902428	48.144314	-42.719948	-0.193250	-0.866025	-0.461145
20.448366	48.745720	-42.719307	0.215877	-0.866025	-0.450996
-20.448366	48.745720	-42.719307	-0.215877	-0.866025	-0.450996
17.064762	47.943844	-42.687691	0.185599	-0.866025	-0.464277
-17.064762	47.943844	-42.687691	-0.185599	-0.866025	-0.464277
21.306961	48.946190	-42.686047	0.223304	-0.866025	-0.447365
-21.306961	48.946190	-42.686047	-0.223304	-0.866025	-0.447365
23.556095	49.547596	-42.681061	0.241601	-0.866025	-0.437754
-23.556095	49.547596	-42.681061	-0.241601	-0.866025	-0.437754
16.233095	47.743374	-42.639503	0.177897	-0.866025	-0.467282
-16.233095	47.743374	-42.639503	-0.177897	-0.866025	-0.467282
22.170006	49.146656	-42.635986	0.230671	-0.866025	-0.443611
-22.170006	49.146656	-42.635986	-0.230671	-0.866025	-0.443611
19.098455	48.344784	-42.579651	0.204626	-0.866025	-0.456211
-19.098455	48.344784	-42.579651	-0.204626	-0.866025	-0.456211
19.947176	48.545250	-42.572479	0.212141	-0.866025	-0.452765
-19.947176	48.545250	-42.572479	-0.212141	-0.866025	-0.452765
18.254992	48.144314	-42.570484	0.197055	-0.866025	-0.459531
-18.254992	48.144314	-42.570484	-0.197055	-0.866025	-0.459531
23.037176	49.347126	-42.568974	0.237974	-0.866025	-0.439737
-23.037176	49.347126	-42.568974	-0.237974	-0.866025	-0.439737
20.800838	48.745720	-42.548794	0.219598	-0.866025	-0.449196
-20.800838	48.745720	-42.548794	-0.219598	-0.866025	-0.449196
17.417089	47.943844	-42.545155	0.189431	-0.866025	-0.462727
-17.417089	47.943844	-42.545155	-0.189431	-0.866025	-0.462727
21.659130	48.946190	-42.508438	0.226995	-0.866025	-0.445503
-21.659130	48.946190	-42.508438	-0.226995	-0.866025	-0.445503
16.585051	47.743374	-42.503845	0.181754	-0.866025	-0.465796
-16.585051	47.743374	-42.503845	-0.181754	-0.866025	-0.465796
23.908146	49.547596	-42.484856	0.245212	-0.866025	-0.435742
-23.908146	49.547596	-42.484856	-0.245212	-0.866025	-0.435742
22.521730	49.146656	-42.451244	0.234330	-0.866025	-0.441689
-22.521730	49.146656	-42.451244	-0.234330	-0.866025	-0.441689
19.449820	48.344784	-42.420303	0.208391	-0.866025	-0.454503
-19.449820	48.344784	-42.420303	-0.208391	-0.866025	-0.454503
18.606308	48.144314	-42.418110	0.200848	-0.866025	-0.457887
-18.606308	48.144314	-42.418110	-0.200848	-0.866025	-0.457887
20.298450	48.545250	-42.406116	0.215877	-0.866025	-0.450996
-20.298450	48.545250	-42.406116	-0.215877	-0.866025	-0.450996
17.768227	47.943844	-42.399708	0.193250	-0.866025	-0.461145
-17.768227	47.943844	-42.399708	-0.193250	-0.866025	-0.461145
23.388317	49.347126	-42.377064	0.241601	-0.866025	-0.437754
-23.388317	49.347126	-42.377064	-0.241601	-0.866025	-0.437754
21.151890	48.745720	-42.375374	0.223304	-0.866025	-0.447365
-21.151890	48.745720	-42.375374	-0.223304	-0.866025	-0.447365
16.935875	47.743374	-42.365276	0.185599	-0.866025	-0.464277
-16.935875	47.743374	-42.365276	-0.185599	-0.866025	-0.464277
22.009817	48.946190	-42.327923	0.230671	-0.866025	-0.443611
-22.009817	48.946190	-42.327923	-0.230671	-0.866025	-0.443611
24.258562	49.547596	-42.285751	0.248806	-0.866025	-0.433700
-24.258562	49.547596	-42.285751	-0.248806	-0.866025	-0.433700
22.871916	49.146656	-42.263599	0.237974	-0.866025	-0.439737
-22.871916	49.146656	-42.263599	-0.237974	-0.866025	-0.439737
18.956354	48.144314	-42.262840	0.204626	-0.866025	-0.456211
-18.956354	48.144314	-42.262840	-0.204626	-0.866025	-0.456211
19.799854	48.344784	-42.258060	0.212141	-0.866025	-0.452765
-19.799854	48.344784	-42.258060	-0.212141	-0.866025	-0.452765
18.118147	47.943844	-42.251366	0.197055	-0.866025	-0.459531
-18.118147	47.943844	-42.251366	-0.197055	-0.866025	-0.459531
20.648340	48.545250	-42.236855	0.219598	-0.866025	-0.449196
-20.648340	48.545250	-42.236855	-0.219598	-0.866025	-0.449196
17.285540	47.743374	-42.223816	0.189431	-0.866025	-0.462727
-17.285540	47.743374	-42.223816	-0.189431	-0.866025	-0.462727
21.501495	48.745720	-42.199059	0.226995	-0.866025	-0.445503
-21.501495	48.745720	-42.199059	-0.226995	-0.866025	-0.445503
23.737860	49.347126	-42.182259	0.245212	-0.866025	-0.435742
-23.737860	49.347126	-42.182259	-0.245212	-0.866025	-0.435742
22.359001	48.946190	-42.144516	0.234330	-0.866025	-0.441689
-22.359001	48.946190	-42.144516	-0.234330	-0.866025	-0.441689
19.305103	48.144314	-42.104679	0.208391	-0.866025	-0.454503
-19.305103	48.144314	-42.104679	-0.208391	-0.866025	-0.454503
18.466831	47.943844	-42.100136	0.200848	-0.866025	-0.457887
-18.466831	47.943844	-42.100136	-0.200848	-0.866025	-0.457887
20.148537	48.344784	-42.092922	0.215877	-0.866025	-0.450996
-20.148537	48.344784	-42.092922	-0.215877	-0.866025	-0.450996
24.607321	49.547596	-42.083752	0.252383	-0.866025	-0.431628
-24.607321	49.547596	-42.083752	-0.252383	-0.866025	-0.431628
17.634024	47.743374	-42.079472	0.193250	-0.866025	-0.461145
-17.634024	47.743374	-42.079472	-0.193250	-0.866025	-0.461145
23.220539	49.146656	-42.073067	0.241601	-0.866025	-0.437754
-23.220539	49.146656	-42.073067	-0.241601	-0.866025	-0.437754
20.996817	48.545250	-42.064705	0.223304	-0.866025	-0.447365
-20.996817	48.545250	-42.064705	-0.223304	-0.866025	-0.447365
21.849630	48.745720	-42.019859	0.230671	-0.866025	-0.443611
-21.849630	48.745720	-42.019859	-0.230671	-0.866025	-0.443611
24.085779	49.347126	-41.984570	0.248806	-0.866025	-0.433700
-24.085779	49.347126	-41.984570	-0.248806	-0.866025	-0.433700
22.706657	48.946190	-41.958225	0.237974	-0.866025	-0.439737
-22.706657	48.946190	-41.958225	-0.237974	-0.866025	-0.439737
18.814253	47.943844	-41.946026	0.204626	-0.866025	-0.456211
-18.814253	47.943844	-41.946026	-0.204626	-0.866025	-0.456211
19.652534	48.144314	-41.943638	0.212141	-0.866025	-0.452765
-19.652534	48.144314	-41.943638	-0.212141	-0.866025	-0.452765
17.981304	47.743374	-41.932247	0.197055	-0.866025	-0.459531
-17.981304	47.743374	-41.932247	-0.197055	-0.866025	-0.459531
20.495840	48.344784	-41.924911	0.219598	-0.866025	-0.449196
-20.495840	48.344784	-41.924911	-0.219598	-0.866025	-0.449196
21.343859	48.545250	-41.889683	0.226995	-0.866025	-0.445503
-21.343859	48.545250	-41.889683	-0.226995	-0.866025	-0.445503
23.567574	49.146656	-41.879658	0.245212	-0.866025	-0.435742
-23.567574	49.146656	-41.879658	-0.245212	-0.866025	-0.435742
24.954395	49.547596	-41.878880	0.255943	-0.866025	-0.429527
-24.954395	49.547596	-41.878880	-0.255943	-0.866025	-0.429527
22.196272	48.745720	-41.837788	0.234330	-0.866025	-0.441689
-22.196272	48.745720	-41.837788	-0.234330	-0.866025	-0.441689
19.160389	47.943844	-41.789051	0.208391	-0.866025	-0.454503
-19.160389	47.943844	-41.789051	-0.208391	-0.866025	-0.454503
24.432055	49.347126	-41.784012	0.252383	-0.866025	-0.431628
-24.432055	49.347126	-41.784012	-0.252383	-0.866025	-0.431628
18.327354	47.743374	-41.782158	0.200848	-0.866025	-0.457887
-18.327354	47.743374	-41.782158	-0.200848	-0.866025	-0.457887
19.998621	48.144314	-41.779732	0.215877	-0.866025	-0.450996
-19.998621	48.144314	-41.779732	-0.215877	-0.866025	-0.450996
23.052761	48.946190	-41.769070	0.241601	-0.866025	-0.437754
-23.052761	48.946190	-41.769070	-0.241601	-0.866025	-0.437754
20.841743	48.344784	-41.754036	0.223304	-0.866025	-0.447365
-20.841743	48.344784	-41.754036	-0.223304	-0.866025	-0.447365
21.689442	48.545250	-41.711796	0.230671	-0.866025	-0.443611
-21.689442	48.545250	-41.711796	-0.230671	-0.866025	-0.443611
23.912998	49.146656	-41.683388	0.248806	-0.866025	-0.433700
-23.912998	49.146656	-41.683388	-0.248806	-0.866025	-0.433700
25.299767	49.547596	-41.671146	0.259485	-0.866025	-0.427396
-25.299767	49.547596	-41.671146	-0.259485	-0.866025	-0.427396
22.541397	48.745720	-41.652855	0.237974	-0.866025	-0.439737
-22.541397	48.745720	-41.652855	-0.237974	-0.866025	-0.439737
19.505215	47.943844	-41.629219	0.212141	-0.866025	-0.452765
-19.505215	47.943844	-41.629219	-0.212141	-0.866025	-0.452765
18.672152	47.743374	-41.629211	0.204626	-0.866025	-0.456211
-18.672152	47.743374	-41.629211	-0.204626	-0.866025	-0.456211
20.343342	48.144314	-41.612972	0.219598	-0.866025	-0.449196
-20.343342	48.144314	-41.612972	-0.219598	-0.866025	-0.449196
24.776659	49.347126	-41.580597	0.255943	-0.866025	-0.429527
-24.776659	49.347126	-41.580597	-0.255943	-0.866025	-0.429527
21.186224	48.344784	-41.580303	0.226995	-0.866025	-0.445503
-21.186224	48.344784	-41.580303	-0.226995	-0.866025	-0.445503
23.397287	48.946190	-41.577061	0.245212	-0.866025	-0.435742
-23.397287	48.946190	-41.577061	-0.245212	-0.866025	-0.435742
22.033543	48.545250	-41.531059	0.234330	-0.866025	-0.441689
-22.033543	48.545250	-41.531059	-0.234330	-0.866025	-0.441689
24.256788	49.146656	-41.484268	0.252383	-0.866025	-0.431628
-24.256788	49.146656	-41.484268	-0.252383	-0.866025	-0.431628
19.015673	47.743374	-41.473423	0.208391	-0.866025	-0.454503
-19.015673	47.743374	-41.473423	-0.208391	-0.866025	-0.454503
19.848707	47.943844	-41.466541	0.215877	-0.866025	-0.450996
-19.848707	47.943844	-41.466541	-0.215877	-0.866025	-0.450996
22.884981	48.745720	-41.465076	0.241601	-0.866025	-0.437754
-22.884981	48.745720	-41.465076	-0.241601	-0.866025	-0.437754
25.643408	49.547596	-41.460560	0.263009	-0.866025	-0.425237
-25.643408	49.547596	-41.460560	-0.263009	-0.866025	-0.425237
20.686672	48.144314	-41.443367	0.223304	-0.866025	-0.447365
-20.686672	48.144314	-41.443367	-0.223304	-0.866025	-0.447365
21.529255	48.344784	-41.403732	0.230671	-0.866025	-0.443611
-21.529255	48.344784	-41.403732	-0.230671	-0.866025	-0.443611
23.740217	48.946190	-41.382210	0.248806	-0.866025	-0.433700
-23.740217	48.946190	-41.382210	-0.248806	-0.866025	-0.433700
25.119570	49.347126	-41.374340	0.259485	-0.866025	-0.427396
-25.119570	49.347126	-41.374340	-0.259485	-0.866025	-0.427396
22.376139	48.545250	-41.347481	0.237974	-0.866025	-0.439737
-22.376139	48.545250	-41.347481	-0.237974	-0.866025	-0.439737
19.357893	47.743374	-41.314800	0.212141	-0.866025	-0.452765
-19.357893	47.743374	-41.314800	-0.212141	-0.866025	-0.452765
20.190844	47.943844	-41.301029	0.219598	-0.866025	-0.449196
-20.190844	47.943844	-41.301029	-0.219598	-0.866025	-0.449196
24.598921	49.146656	-41.282314	0.255943	-0.866025	-0.429527
-24.598921	49.146656	-41.282314	-0.255943	-0.866025	-0.429527
23.227001	48.745720	-41.274464	0.245212	-0.866025	-0.435742
-23.227001	48.745720	-41.274464	-0.245212	-0.866025	-0.435742
21.028587	48.144314	-41.270927	0.226995	-0.866025	-0.445503
-21.028587	48.144314	-41.270927	-0.226995	-0.866025	-0.445503
25.985296	49.547596	-41.247143	0.266516	-0.866025	-0.423048
-25.985296	49.547596	-41.247143	-0.266516	-0.866025	-0.423048
21.870813	48.344784	-41.224327	0.234330	-0.866025	-0.441689
-21.870813	48.344784	-41.224327	-0.234330	-0.866025	-0.441689
24.081522	48.946190	-41.184528	0.252383	-0.866025	-0.431628
-24.081522	48.946190	-41.184528	-0.252383	-0.866025	-0.431628
25.460762	49.347126	-41.165257	0.263009	-0.866025	-0.425237
-25.460762	49.347126	-41.165257	-0.263009	-0.866025	-0.425237
22.717203	48.545250	-41.161079	0.241601	-0.866025	-0.437754
-22.717203	48.545250	-41.161079	-0.241601	-0.866025	-0.437754
19.698792	47.743374	-41.153351	0.215877	-0.866025	-0.450996
-19.698792	47.743374	-41.153351	-0.215877	-0.866025	-0.450996
20.531599	47.943844	-41.132694	0.223304	-0.866025	-0.447365
-20.531599	47.943844	-41.132694	-0.223304	-0.866025	-0.447365
21.369066	48.144314	-41.095669	0.230671	-0.866025	-0.443611
-21.369066	48.144314	-41.095669	-0.230671	-0.866025	-0.443611
23.567434	48.745720	-41.081028	0.248806	-0.866025	-0.433700
-23.567434	48.745720	-41.081028	-0.248806	-0.866025	-0.433700
24.939371	49.146656	-41.077538	0.259485	-0.866025	-0.427396
-24.939371	49.146656	-41.077538	-0.259485	-0.866025	-0.427396
22.210878	48.344784	-41.042107	0.237974	-0.866025	-0.439737
-22.210878	48.344784	-41.042107	-0.237974	-0.866025	-0.439737
26.325409	49.547596	-41.030907	0.270004	-0.866025	-0.420830
-26.325409	49.547596	-41.030907	-0.270004	-0.866025	-0.420830
20.038343	47.743374	-40.989090	0.219598	-0.866025	-0.449196
-20.038343	47.743374	-40.989090	-0.219598	-0.866025	-0.449196
24.421183	48.946190	-40.984032	0.255943	-0.866025	-0.429527
-24.421183	48.946190	-40.984032	-0.255943	-0.866025	-0.429527
23.056717	48.545250	-40.971863	0.245212	-0.866025	-0.435742
-23.056717	48.545250	-40.971863	-0.245212	-0.866025	-0.435742
20.870953	47.943844	-40.961552	0.226995	-0.866025	-0.445503
-20.870953	47.943844	-40.961552	-0.226995	-0.866025	-0.445503
25.800217	49.347126	-40.953362	0.266516	-0.866025	-0.423048
-25.800217	49.347126	-40.953362	-0.266516	-0.866025	-0.423048
21.708084	48.144314	-40.917599	0.234330	-0.866025	-0.441689
-21.708084	48.144314	-40.917599	-0.234330	-0.866025	-0.441689
23.906258	48.745720	-40.884785	0.252383	-0.866025	-0.431628
-23.906258	48.745720	-40.884785	-0.252383	-0.866025	-0.431628
25.278118	49.146656	-40.869953	0.263009	-0.866025	-0.425237
-25.278118	49.146656	-40.869953	-0.263009	-0.866025	-0.425237
22.549425	48.344784	-40.857082	0.241601	-0.866025	-0.437754
-22.549425	48.344784	-40.857082	-0.241601	-0.866025	-0.437754
20.376526	47.743374	-40.822025	0.223304	-0.866025	-0.447365
-20.376526	47.743374	-40.822025	-0.223304	-0.866025	-0.447365
26.663723	49.547596	-40.811867	0.273474	-0.866025	-0.418583
-26.663723	49.547596	-40.811867	-0.273474	-0.866025	-0.418583
21.208878	47.943844	-40.787605	0.230671	-0.866025	-0.443611
-21.208878	47.943844	-40.787605	-0.230671	-0.866025	-0.443611
24.759174	48.946190	-40.780735	0.259485	-0.866025	-0.427396
-24.759174	48.946190	-40.780735	-0.259485	-0.866025	-0.427396
23.394653	48.545250	-40.779846	0.248806	-0.866025	-0.433700
-23.394653	48.545250	-40.779846	-0.248806	-0.866025	-0.433700
26.137907	49.347126	-40.738663	0.270004	-0.866025	-0.420830
-26.137907	49.347126	-40.738663	-0.270004	-0.866025	-0.420830
22.045618	48.144314	-40.736736	0.237974	-0.866025	-0.439737
-22.045618	48.144314	-40.736736	-0.237974	-0.866025	-0.439737
24.243444	48.745720	-40.685749	0.255943	-0.866025	-0.429527
-24.243444	48.745720	-40.685749	-0.255943	-0.866025	-0.429527
22.886431	48.344784	-40.669266	0.245212	-0.866025	-0.435742
-22.886431	48.344784	-40.669266	-0.245212	-0.866025	-0.435742
25.615135	49.146656	-40.659576	0.266516	-0.866025	-0.423048
-25.615135	49.146656	-40.659576	-0.266516	-0.866025	-0.423048
20.713316	47.743374	-40.652172	0.226995	-0.866025	-0.445503
-20.713316	47.743374	-40.652172	-0.226995	-0.866025	-0.445503
21.545355	47.943844	-40.610870	0.234330	-0.866025	-0.441689
-21.545355	47.943844	-40.610870	-0.234330	-0.866025	-0.441689
27.000214	49.547596	-40.590034	0.276925	-0.866025	-0.416308
-27.000214	49.547596	-40.590034	-0.276925	-0.866025	-0.416308
23.730991	48.545250	-40.585045	0.252383	-0.866025	-0.431628
-23.730991	48.545250	-40.585045	-0.252383	-0.866025	-0.431628
25.095472	48.946190	-40.574650	0.263009	-0.866025	-0.425237
-25.095472	48.946190	-40.574650	-0.263009	-0.866025	-0.425237
22.381647	48.144314	-40.553085	0.241601	-0.866025	-0.437754
-22.381647	48.144314	-40.553085	-0.241601	-0.866025	-0.437754
26.473810	49.347126	-40.521183	0.273474	-0.866025	-0.418583
-26.473810	49.347126	-40.521183	-0.273474	-0.866025	-0.418583
24.578976	48.745720	-40.483932	0.259485	-0.866025	-0.427396
-24.578976	48.745720	-40.483932	-0.259485	-0.866025	-0.427396
21.048691	47.743374	-40.479542	0.230671	-0.866025	-0.443611
-21.048691	47.743374	-40.479542	-0.230671	-0.866025	-0.443611
23.221870	48.344784	-40.478668	0.248806	-0.866025	-0.433700
-23.221870	48.344784	-40.478668	-0.248806	-0.866025	-0.433700
25.950403	49.146656	-40.446423	0.270004	-0.866025	-0.420830
-25.950403	49.146656	-40.446423	-0.270004	-0.866025	-0.420830
21.880360	47.943844	-40.431362	0.237974	-0.866025	-0.439737
-21.880360	47.943844	-40.431362	-0.237974	-0.866025	-0.439737
24.065706	48.545250	-40.387466	0.255943	-0.866025	-0.429527
-24.065706	48.545250	-40.387466	-0.255943	-0.866025	-0.429527
22.716145	48.144314	-40.366665	0.245212	-0.866025	-0.435742
-22.716145	48.144314	-40.366665	-0.245212	-0.866025	-0.435742
25.430056	48.946190	-40.365795	0.266516	-0.866025	-0.423048
-25.430056	48.946190	-40.365795	-0.266516	-0.866025	-0.423048
27.334860	49.547596	-40.365429	0.280358	-0.866025	-0.414004
-27.334860	49.547596	-40.365429	-0.280358	-0.866025	-0.414004
21.382626	47.743374	-40.304142	0.234330	-0.866025	-0.441689
-21.382626	47.743374	-40.304142	-0.234330	-0.866025	-0.441689
26.807905	49.347126	-40.300934	0.276925	-0.866025	-0.416308
-26.807905	49.347126	-40.300934	-0.276925	-0.866025	-0.416308
23.555725	48.344784	-40.285301	0.252383	-0.866025	-0.431628
-23.555725	48.344784	-40.285301	-0.252383	-0.866025	-0.431628
24.912827	48.745720	-40.279350	0.263009	-0.866025	-0.425237
-24.912827	48.745720	-40.279350	-0.263009	-0.866025	-0.425237
22.213867	47.943844	-40.249092	0.241601	-0.866025	-0.437754
-22.213867	47.943844	-40.249092	-0.241601	-0.866025	-0.437754
26.283897	49.146656	-40.230499	0.273474	-0.866025	-0.418583
-26.283897	49.146656	-40.230499	-0.273474	-0.866025	-0.418583
24.398777	48.545250	-40.187130	0.259485	-0.866025	-0.427396
-24.398777	48.545250	-40.187130	-0.259485	-0.866025	-0.427396
23.049089	48.144314	-40.177486	0.248806	-0.866025	-0.433700
-23.049089	48.144314	-40.177486	-0.248806	-0.866025	-0.433700
25.762901	48.946190	-40.154179	0.270004	-0.866025	-0.420830
-25.762901	48.946190	-40.154179	-0.270004	-0.866025	-0.420830
27.667637	49.547596	-40.138065	0.283771	-0.866025	-0.411672
-27.667637	49.547596	-40.138065	-0.283771	-0.866025	-0.411672
21.715099	47.743374	-40.125988	0.237974	-0.866025	-0.439737
-21.715099	47.743374	-40.125988	-0.237974	-0.866025	-0.439737
23.887968	48.344784	-40.089184	0.255943	-0.866025	-0.429527
-23.887968	48.344784	-40.089184	-0.255943	-0.866025	-0.429527
27.140167	49.347126	-40.077927	0.280358	-0.866025	-0.414004
-27.140167	49.347126	-40.077927	-0.280358	-0.866025	-0.414004
25.244974	48.745720	-40.072010	0.266516	-0.866025	-0.423048
-25.244974	48.745720	-40.072010	-0.266516	-0.866025	-0.423048
22.545858	47.943844	-40.064068	0.245212	-0.866025	-0.435742
-22.545858	47.943844	-40.064068	-0.245212	-0.866025	-0.435742
26.615595	49.146656	-40.011829	0.276925	-0.866025	-0.416308
-26.615595	49.146656	-40.011829	-0.276925	-0.866025	-0.416308
23.380459	48.144314	-39.985561	0.252383	-0.866025	-0.431628
-23.380459	48.144314	-39.985561	-0.252383	-0.866025	-0.431628
24.730181	48.545250	-39.984047	0.263009	-0.866025	-0.425237
-24.730181	48.545250	-39.984047	-0.263009	-0.866025	-0.425237
22.046089	47.743374	-39.945095	0.241601	-0.866025	-0.437754
-22.046089	47.743374	-39.945095	-0.241601	-0.866025	-0.437754
26.093985	48.946190	-39.939816	0.273474	-0.866025	-0.418583
-26.093985	48.946190	-39.939816	-0.273474	-0.866025	-0.418583
27.998522	49.547596	-39.907959	0.287164	-0.866025	-0.409312
-27.998522	49.547596	-39.907959	-0.287164	-0.866025	-0.409312
24.218580	48.344784	-39.890327	0.259485	-0.866025	-0.427396
-24.218580	48.344784	-39.890327	-0.259485	-0.866025	-0.427396
22.876308	47.943844	-39.876305	0.248806	-0.866025	-0.433700
-22.876308	47.943844	-39.876305	-0.248806	-0.866025	-0.433700
25.575397	48.745720	-39.861935	0.270004	-0.866025	-0.420830
-25.575397	48.745720	-39.861935	-0.270004	-0.866025	-0.420830
27.470573	49.347126	-39.852184	0.283771	-0.866025	-0.411672
-27.470573	49.347126	-39.852184	-0.283771	-0.866025	-0.411672
23.710232	48.144314	-39.790901	0.255943	-0.866025	-0.429527
-23.710232	48.144314	-39.790901	-0.255943	-0.866025	-0.429527
26.945473	49.146656	-39.790424	0.280358	-0.866025	-0.414004
-26.945473	49.146656	-39.790424	-0.280358	-0.866025	-0.414004
25.059895	48.545250	-39.778229	0.266516	-0.866025	-0.423048
-25.059895	48.545250	-39.778229	-0.266516	-0.866025	-0.423048
22.375572	47.743374	-39.761467	0.245212	-0.866025	-0.435742
-22.375572	47.743374	-39.761467	-0.245212	-0.866025	-0.435742
26.423286	48.946190	-39.722729	0.276925	-0.866025	-0.416308
-26.423286	48.946190	-39.722729	-0.276925	-0.866025	-0.416308
24.547537	48.344784	-39.688744	0.263009	-0.866025	-0.425237
-24.547537	48.344784	-39.688744	-0.263009	-0.866025	-0.425237
23.205193	47.943844	-39.685818	0.252383	-0.866025	-0.431628
-23.205193	47.943844	-39.685818	-0.252383	-0.866025	-0.431628
28.327496	49.547596	-39.675125	0.290538	-0.866025	-0.406924
-28.327496	49.547596	-39.675125	-0.290538	-0.866025	-0.406924
25.904072	48.745720	-39.649136	0.273474	-0.866025	-0.418583
-25.904072	48.745720	-39.649136	-0.273474	-0.866025	-0.418583
27.799103	49.347126	-39.623714	0.287164	-0.866025	-0.409312
-27.799103	49.347126	-39.623714	-0.287164	-0.866025	-0.409312
24.038382	48.144314	-39.593525	0.259485	-0.866025	-0.427396
-24.038382	48.144314	-39.593525	-0.259485	-0.866025	-0.427396
22.703526	47.743374	-39.575127	0.248806	-0.866025	-0.433700
-22.703526	47.743374	-39.575127	-0.248806	-0.866025	-0.433700
25.387896	48.545250	-39.569691	0.270004	-0.866025	-0.420830
-25.387896	48.545250	-39.569691	-0.270004	-0.866025	-0.420830
27.273510	49.146656	-39.566299	0.283771	-0.866025	-0.411672
-27.273510	49.146656	-39.566299	-0.283771	-0.866025	-0.411672
26.750780	48.946190	-39.502922	0.280358	-0.866025	-0.414004
-26.750780	48.946190	-39.502922	-0.280358	-0.866025	-0.414004
23.532494	47.943844	-39.492619	0.255943	-0.866025	-0.429527
-23.532494	47.943844	-39.492619	-0.255943	-0.866025	-0.429527
24.874813	48.344784	-39.484444	0.266516	-0.866025	-0.423048
-24.874813	48.344784	-39.484444	-0.266516	-0.866025	-0.423048
28.654531	49.547596	-39.439579	0.293893	-0.866025	-0.404509
-28.654531	49.547596	-39.439579	-0.293893	-0.866025	-0.404509
26.230976	48.745720	-39.433624	0.276925	-0.866025	-0.416308
-26.230976	48.745720	-39.433624	-0.276925	-0.866025	-0.416308
24.364891	48.144314	-39.393440	0.263009	-0.866025	-0.425237
-24.364891	48.144314	-39.393440	-0.263009	-0.866025	-0.425237
28.125732	49.347126	-39.392540	0.290538	-0.866025	-0.406924
-28.125732	49.347126	-39.392540	-0.290538	-0.866025	-0.406924
23.029928	47.743374	-39.386078	0.252383	-0.866025	-0.431628
-23.029928	47.743374	-39.386078	-0.252383	-0.866025	-0.431628
25.714159	48.545250	-39.358452	0.273474	-0.866025	-0.418583
-25.714159	48.545250	-39.358452	-0.273474	-0.866025	-0.418583
27.599684	49.146656	-39.339470	0.287164	-0.866025	-0.409312
-27.599684	49.146656	-39.339470	-0.287164	-0.866025	-0.409312
23.858185	47.943844	-39.296722	0.259485	-0.866025	-0.427396
-23.858185	47.943844	-39.296722	-0.259485	-0.866025	-0.427396
27.076447	48.946190	-39.280415	0.283771	-0.866025	-0.411672
-27.076447	48.946190	-39.280415	-0.283771	-0.866025	-0.411672
25.200392	48.344784	-39.277451	0.270004	-0.866025	-0.420830
-25.200392	48.344784	-39.277451	-0.270004	-0.866025	-0.420830
26.556087	48.745720	-39.215420	0.280358	-0.866025	-0.414004
-26.556087	48.745720	-39.215420	-0.280358	-0.866025	-0.414004
28.979609	49.547596	-39.201336	0.297227	-0.866025	-0.402065
-28.979609	49.547596	-39.201336	-0.297227	-0.866025	-0.402065
23.354755	47.743374	-39.194336	0.255943	-0.866025	-0.429527
-23.354755	47.743374	-39.194336	-0.255943	-0.866025	-0.429527
24.689734	48.144314	-39.190662	0.266516	-0.866025	-0.423048
-24.689734	48.144314	-39.190662	-0.266516	-0.866025	-0.423048
28.450439	49.347126	-39.158669	0.293893	-0.866025	-0.404509
-28.450439	49.347126	-39.158669	-0.293893	-0.866025	-0.404509
26.038668	48.545250	-39.144520	0.276925	-0.866025	-0.416308
-26.038668	48.545250	-39.144520	-0.276925	-0.866025	-0.416308
27.923969	49.146656	-39.109951	0.290538	-0.866025	-0.406924
-27.923969	49.146656	-39.109951	-0.290538	-0.866025	-0.406924
24.182245	47.943844	-39.098137	0.263009	-0.866025	-0.425237
-24.182245	47.943844	-39.098137	-0.263009	-0.866025	-0.425237
25.524248	48.344784	-39.067768	0.273474	-0.866025	-0.418583
-25.524248	48.344784	-39.067768	-0.273474	-0.866025	-0.418583
27.400263	48.946190	-39.055225	0.287164	-0.866025	-0.409312
-27.400263	48.946190	-39.055225	-0.287164	-0.866025	-0.409312
23.677986	47.743374	-38.999916	0.259485	-0.866025	-0.427396
-23.677986	47.743374	-38.999916	-0.259485	-0.866025	-0.427396
26.879385	48.745720	-38.994534	0.283771	-0.866025	-0.411672
-26.879385	48.745720	-38.994534	-0.283771	-0.866025	-0.411672
25.012890	48.144314	-38.985207	0.270004	-0.866025	-0.420830
-25.012890	48.144314	-38.985207	-0.270004	-0.866025	-0.420830
29.302706	49.547596	-38.960415	0.300541	-0.866025	-0.399594
-29.302706	49.547596	-38.960415	-0.300541	-0.866025	-0.399594
26.361395	48.545250	-38.927914	0.280358	-0.866025	-0.414004
-26.361395	48.545250	-38.927914	-0.280358	-0.866025	-0.414004
28.773201	49.347126	-38.922123	0.297227	-0.866025	-0.402065
-28.773201	49.347126	-38.922123	-0.297227	-0.866025	-0.402065
24.504654	47.943844	-38.896877	0.266516	-0.866025	-0.423048
-24.504654	47.943844	-38.896877	-0.266516	-0.866025	-0.423048
28.246347	49.146656	-38.877762	0.293893	-0.866025	-0.404509
-28.246347	49.146656	-38.877762	-0.293893	-0.866025	-0.404509
25.846359	48.344784	-38.855419	0.276925	-0.866025	-0.416308
-25.846359	48.344784	-38.855419	-0.276925	-0.866025	-0.416308
27.722206	48.946190	-38.827366	0.290538	-0.866025	-0.406924
-27.722206	48.946190	-38.827366	-0.290538	-0.866025	-0.406924
23.999599	47.743374	-38.802834	0.263009	-0.866025	-0.425237
-23.999599	47.743374	-38.802834	-0.263009	-0.866025	-0.425237
25.334335	48.144314	-38.777084	0.273474	-0.866025	-0.418583
-25.334335	48.144314	-38.777084	-0.273474	-0.866025	-0.418583
27.200844	48.745720	-38.770981	0.287164	-0.866025	-0.409312
-27.200844	48.745720	-38.770981	-0.287164	-0.866025	-0.409312
29.623800	49.547596	-38.716831	0.303834	-0.866025	-0.397096
-29.623800	49.547596	-38.716831	-0.303834	-0.866025	-0.397096
26.682322	48.545250	-38.708649	0.283771	-0.866025	-0.411672
-26.682322	48.545250	-38.708649	-0.283771	-0.866025	-0.411672
24.825386	47.943844	-38.692963	0.270004	-0.866025	-0.420830
-24.825386	47.943844	-38.692963	-0.270004	-0.866025	-0.420830
29.093998	49.347126	-38.682919	0.300541	-0.866025	-0.399594
-29.093998	49.347126	-38.682919	-0.300541	-0.866025	-0.399594
28.566793	49.146656	-38.642914	0.297227	-0.866025	-0.402065
-28.566793	49.146656	-38.642914	-0.297227	-0.866025	-0.402065
26.166702	48.344784	-38.640411	0.280358	-0.866025	-0.414004
-26.166702	48.344784	-38.640411	-0.280358	-0.866025	-0.414004
24.319572	47.743374	-38.603096	0.266516	-0.866025	-0.423048
-24.319572	47.743374	-38.603096	-0.266516	-0.866025	-0.423048
28.042255	48.946190	-38.596851	0.293893	-0.866025	-0.404509
-28.042255	48.946190	-38.596851	-0.293893	-0.866025	-0.404509
25.654049	48.144314	-38.566315	0.276925	-0.866025	-0.416308
-25.654049	48.144314	-38.566315	-0.276925	-0.866025	-0.416308
27.520443	48.745720	-38.544781	0.290538	-0.866025	-0.406924
-27.520443	48.745720	-38.544781	-0.290538	-0.866025	-0.406924
27.001425	48.545250	-38.486736	0.287164	-0.866025	-0.409312
-27.001425	48.545250	-38.486736	-0.287164	-0.866025	-0.409312
25.144423	47.943844	-38.486404	0.273474	-0.866025	-0.418583
-25.144423	47.943844	-38.486404	-0.273474	-0.866025	-0.418583
29.942869	49.547596	-38.470600	0.307106	-0.866025	-0.394570
-29.942869	49.547596	-38.470600	-0.307106	-0.866025	-0.394570
29.412804	49.347126	-38.441071	0.303834	-0.866025	-0.397096
-29.412804	49.347126	-38.441071	-0.303834	-0.866025	-0.397096
26.485258	48.344784	-38.422764	0.283771	-0.866025	-0.411672
-26.485258	48.344784	-38.422764	-0.283771	-0.866025	-0.411672
28.885288	49.146656	-38.405422	0.300541	-0.866025	-0.399594
-28.885288	49.146656	-38.405422	-0.300541	-0.866025	-0.399594
24.637882	47.743374	-38.400719	0.270004	-0.866025	-0.420830
-24.637882	47.743374	-38.400719	-0.270004	-0.866025	-0.420830
28.360386	48.946190	-38.363701	0.297227	-0.866025	-0.402065
-28.360386	48.946190	-38.363701	-0.297227	-0.866025	-0.402065
25.972010	48.144314	-38.352909	0.280358	-0.866025	-0.414004
-25.972010	48.144314	-38.352909	-0.280358	-0.866025	-0.414004
27.838163	48.745720	-38.315945	0.293893	-0.866025	-0.404509
-27.838163	48.745720	-38.315945	-0.293893	-0.866025	-0.404509
25.461740	47.943844	-38.277214	0.276925	-0.866025	-0.416308
-25.461740	47.943844	-38.277214	-0.276925	-0.866025	-0.416308
27.318682	48.545250	-38.262192	0.290538	-0.866025	-0.406924
-27.318682	48.545250	-38.262192	-0.290538	-0.866025	-0.406924
30.259893	49.547596	-38.221741	0.310358	-0.866025	-0.392018
-30.259893	49.547596	-38.221741	-0.310358	-0.866025	-0.392018
26.802004	48.344784	-38.202492	0.287164	-0.866025	-0.409312
-26.802004	48.344784	-38.202492	-0.287164	-0.866025	-0.409312
29.729601	49.347126	-38.196594	0.307106	-0.866025	-0.394570
-29.729601	49.347126	-38.196594	-0.307106	-0.866025	-0.394570
24.954510	47.743374	-38.195721	0.273474	-0.866025	-0.418583
-24.954510	47.743374	-38.195721	-0.273474	-0.866025	-0.418583
29.201809	49.146656	-38.165310	0.303834	-0.866025	-0.397096
-29.201809	49.146656	-38.165310	-0.303834	-0.866025	-0.397096
26.288197	48.144314	-38.136883	0.283771	-0.866025	-0.411672
-26.288197	48.144314	-38.136883	-0.283771	-0.866025	-0.411672
28.676580	48.946190	-38.127926	0.300541	-0.866025	-0.399594
-28.676580	48.946190	-38.127926	-0.300541	-0.866025	-0.399594
28.153978	48.745720	-38.084488	0.297227	-0.866025	-0.402065
-28.153978	48.745720	-38.084488	-0.297227	-0.866025	-0.402065
25.777317	47.943844	-38.065407	0.280358	-0.866025	-0.414004
-25.777317	47.943844	-38.065407	-0.280358	-0.866025	-0.414004
27.634071	48.545250	-38.035034	0.293893	-0.866025	-0.404509
-27.634071	48.545250	-38.035034	-0.293893	-0.866025	-0.404509
25.269430	47.743374	-37.988110	0.276925	-0.866025	-0.416308
-25.269430	47.743374	-37.988110	-0.276925	-0.866025	-0.416308
27.116919	48.344784	-37.979607	0.290538	-0.866025	-0.406924
-27.116919	48.344784	-37.979607	-0.290538	-0.866025	-0.406924
30.574848	49.547596	-37.970268	0.313588	-0.866025	-0.389439
-30.574848	49.547596	-37.970268	-0.313588	-0.866025	-0.389439
30.044367	49.347126	-37.949505	0.310358	-0.866025	-0.392018
-30.044367	49.347126	-37.949505	-0.310358	-0.866025	-0.392018
29.516333	49.146656	-37.922585	0.307106	-0.866025	-0.394570
-29.516333	49.146656	-37.922585	-0.307106	-0.866025	-0.394570
26.602585	48.144314	-37.918247	0.287164	-0.866025	-0.409312
-26.602585	48.144314	-37.918247	-0.287164	-0.866025	-0.409312
28.990812	48.946190	-37.889549	0.303834	-0.866025	-0.397096
-28.990812	48.946190	-37.889549	-0.303834	-0.866025	-0.397096
26.091133	47.943844	-37.850998	0.283771	-0.866025	-0.411672
-26.091133	47.943844	-37.850998	-0.283771	-0.866025	-0.411672
28.467871	48.745720	-37.850433	0.300541	-0.866025	-0.399594
-28.467871	48.745720	-37.850433	-0.300541	-0.866025	-0.399594
27.947571	48.545250	-37.805279	0.297227	-0.866025	-0.402065
-27.947571	48.545250	-37.805279	-0.297227	-0.866025	-0.402065
25.582624	47.743374	-37.777905	0.280358	-0.866025	-0.414004
-25.582624	47.743374	-37.777905	-0.280358	-0.866025	-0.414004
27.429979	48.344784	-37.754128	0.293893	-0.866025	-0.404509
-27.429979	48.344784	-37.754128	-0.293893	-0.866025	-0.404509
30.887712	49.547596	-37.716198	0.316797	-0.866025	-0.386833
-30.887712	49.547596	-37.716198	-0.316797	-0.866025	-0.386833
30.357079	49.347126	-37.699825	0.313588	-0.866025	-0.389439
-30.357079	49.347126	-37.699825	-0.313588	-0.866025	-0.389439
26.915155	48.144314	-37.697021	0.290538	-0.866025	-0.406924
-26.915155	48.144314	-37.697021	-0.290538	-0.866025	-0.406924
29.828840	49.146656	-37.677269	0.310358	-0.866025	-0.392018
-29.828840	49.146656	-37.677269	-0.310358	-0.866025	-0.392018
29.303064	48.946190	-37.648579	0.307106	-0.866025	-0.394570
-29.303064	48.946190	-37.648579	-0.307106	-0.866025	-0.394570
26.403166	47.943844	-37.634003	0.287164	-0.866025	-0.409312
-26.403166	47.943844	-37.634003	-0.287164	-0.866025	-0.409312
28.779818	48.745720	-37.613789	0.303834	-0.866025	-0.397096
-28.779818	48.745720	-37.613789	-0.303834	-0.866025	-0.397096
28.259163	48.545250	-37.572937	0.300541	-0.866025	-0.399594
-28.259163	48.545250	-37.572937	-0.300541	-0.866025	-0.399594
25.894070	47.743374	-37.565113	0.283771	-0.866025	-0.411672
-25.894070	47.743374	-37.565113	-0.283771	-0.866025	-0.411672
27.741163	48.344784	-37.526066	0.297227	-0.866025	-0.402065
