-5.961637	108.507988	-7.923522	0.300613	0.866025	0.399540
2.732983	107.621964	-7.923060	-0.163043	0.866025	0.472670
4.726276	108.109283	-7.922568	-0.256160	0.866025	0.429397
2.962681	107.666267	-7.922038	-0.175143	0.866025	0.468322
1.920637	107.489067	-7.921464	-0.117816	0.866025	0.485921
1.564599	107.444763	-7.921205	-0.096888	0.866025	0.490523
6.340492	108.640892	-7.920835	-0.312462	0.866025	0.390342
-0.016974	107.356163	-7.920764	0.001071	0.866025	0.499999
0.050922	107.356163	-7.920619	-0.003214	0.866025	0.499990
-0.084868	107.356163	-7.920328	0.005357	0.866025	0.499971
-1.110399	107.400459	-7.920053	0.069421	0.866025	0.495157
0.118813	107.356163	-7.919891	-0.007500	0.866025	0.499944
3.931045	107.887772	-7.919606	-0.222305	0.866025	0.447862
-0.152756	107.356163	-7.919309	0.009643	0.866025	0.499907
4.101521	107.932076	-7.919188	-0.229950	0.866025	0.443985
-5.442814	108.330788	-7.918738	0.283218	0.866025	0.412053
0.186697	107.356163	-7.918582	-0.011785	0.866025	0.499861
-0.220633	107.356163	-7.917709	0.013927	0.866025	0.499806
2.505207	107.577667	-7.917556	-0.150835	0.866025	0.476706
0.254566	107.356163	-7.916691	-0.016069	0.866025	0.499742
3.761769	107.843475	-7.916526	-0.214594	0.866025	0.451607
-4.585560	108.064980	-7.916284	0.250618	0.866025	0.432655
-0.288494	107.356163	-7.915527	0.018211	0.866025	0.499668
-2.245634	107.533363	-7.915323	0.136468	0.866025	0.481016
4.273128	107.976379	-7.915233	-0.237527	0.866025	0.439978
1.144333	107.400459	-7.915222	-0.071543	0.866025	0.494855
-3.393209	107.754868	-7.914659	0.197019	0.866025	0.459547
6.224927	108.596596	-7.914580	-0.309105	0.866025	0.393006
-1.598535	107.444763	-7.914426	0.098990	0.866025	0.490103
3.194117	107.710571	-7.914395	-0.187127	0.866025	0.463663
0.322417	107.356163	-7.914218	-0.020353	0.866025	0.499586
-1.954570	107.489067	-7.913160	0.119898	0.866025	0.485412
-0.356334	107.356163	-7.912763	0.022494	0.866025	0.499494
-5.847894	108.463692	-7.912624	0.297177	0.866025	0.402102
-2.766915	107.621964	-7.911274	0.165067	0.866025	0.471967
0.390244	107.356163	-7.911163	-0.024634	0.866025	0.499393
5.588452	108.375084	-7.910774	-0.288492	0.866025	0.408377
-1.178247	107.400459	-7.910244	0.073663	0.866025	0.494544
3.593765	107.799171	-7.909991	-0.206821	0.866025	0.455220
-0.424147	107.356163	-7.909418	0.026774	0.866025	0.499283
-2.996607	107.666267	-7.909267	0.177148	0.866025	0.467567
4.445794	108.020676	-7.907702	-0.245035	0.866025	0.435842
0.458042	107.356163	-7.907527	-0.028914	0.866025	0.499163
1.632441	107.444763	-7.907502	-0.101089	0.866025	0.489674
6.109938	108.552292	-7.906932	-0.305725	0.866025	0.395642
-2.539118	107.577667	-7.906746	0.152877	0.866025	0.476055
-5.044343	108.197884	-7.906604	0.268926	0.866025	0.421520
2.279537	107.533363	-7.905626	-0.138528	0.866025	0.480427
4.901833	108.153580	-7.905594	-0.263484	0.866025	0.424943
-0.491929	107.356163	-7.905492	0.031053	0.866025	0.499035
5.187684	108.242180	-7.905245	-0.274323	0.866025	0.418027
1.212139	107.400459	-7.905122	-0.075782	0.866025	0.494224
1.988468	107.489067	-7.904710	-0.121977	0.866025	0.484893
0.525807	107.356163	-7.903311	-0.033192	0.866025	0.498897
-3.964951	107.887772	-7.902685	0.224222	0.866025	0.446905
-6.724421	108.773796	-7.902388	0.324031	0.866025	0.380794
-4.760188	108.109283	-7.902238	0.257998	0.866025	0.428295
-4.135424	107.932076	-7.901537	0.231851	0.866025	0.442996
-5.331817	108.286484	-7.901496	0.279675	0.866025	0.414466
-0.559675	107.356163	-7.900985	0.035330	0.866025	0.498750
-6.607213	108.729500	-7.900876	0.320755	0.866025	0.383557
-3.228008	107.710571	-7.900633	0.189112	0.866025	0.462857
-1.666317	107.444763	-7.900433	0.103187	0.866025	0.489237
-5.734778	108.419388	-7.900363	0.293719	0.866025	0.404634
-3.795664	107.843475	-7.900331	0.216528	0.866025	0.450683
3.427099	107.754868	-7.900043	-0.198987	0.866025	0.458698
-1.246008	107.400459	-7.899854	0.077900	0.866025	0.493894
2.800797	107.621964	-7.899343	-0.167089	0.866025	0.471255
0.593533	107.356163	-7.898513	-0.037467	0.866025	0.498594
-6.490527	108.685196	-7.897939	0.317455	0.866025	0.386293
5.995542	108.507988	-7.897898	-0.302322	0.866025	0.398248
-4.307013	107.976379	-7.896846	0.239411	0.866025	0.438956
4.619447	108.064980	-7.896558	-0.252470	0.866025	0.431577
3.030478	107.666267	-7.896352	-0.179151	0.866025	0.466803
-2.022328	107.489067	-7.896115	0.124054	0.866025	0.484366
-0.627380	107.356163	-7.895897	0.039603	0.866025	0.498429
2.572983	107.577667	-7.895791	-0.154916	0.866025	0.475396
-2.313400	107.533363	-7.895783	0.140586	0.866025	0.479829
5.476704	108.330788	-7.895338	-0.284981	0.866025	0.410835
-3.627633	107.799171	-7.894516	0.208770	0.866025	0.454329
1.279855	107.400459	-7.894442	-0.080016	0.866025	0.493556
-6.374382	108.640892	-7.893587	0.314133	0.866025	0.389000
1.700162	107.444763	-7.893219	-0.105283	0.866025	0.488790
0.661215	107.356163	-7.893136	-0.041739	0.866025	0.498255
-0.695039	107.356163	-7.890229	0.043874	0.866025	0.498071
-1.313678	107.400459	-7.888884	0.082130	0.866025	0.493208
-4.479645	108.020676	-7.888575	0.246901	0.866025	0.434787
-6.258791	108.596596	-7.887828	0.310787	0.866025	0.391678
5.881753	108.463692	-7.887488	-0.298898	0.866025	0.400824
2.056152	107.489067	-7.887375	-0.126129	0.866025	0.483830
-2.834627	107.621964	-7.887266	0.169107	0.866025	0.470535
0.728849	107.356163	-7.887178	-0.046009	0.866025	0.497879
-5.622306	108.375084	-7.886750	0.290240	0.866025	0.407137
3.261840	107.710571	-7.886725	-0.191094	0.866025	0.462042
-1.733976	107.444763	-7.885859	0.107377	0.866025	0.488334
2.347219	107.533363	-7.885796	-0.142641	0.866025	0.479222
3.998785	107.887772	-7.885619	-0.226136	0.866025	0.445940
-3.460927	107.754868	-7.885282	0.200951	0.866025	0.457841
5.078185	108.197884	-7.884912	-0.270730	0.866025	0.420363
-2.606800	107.577667	-7.884691	0.156952	0.866025	0.474727
-4.935670	108.153580	-7.884513	0.265303	0.866025	0.423809
3.829490	107.843475	-7.883991	-0.218458	0.866025	0.449751
-0.762646	107.356163	-7.883982	0.048142	0.866025	0.497677
4.169252	107.932076	-7.883740	-0.233747	0.866025	0.441998
-3.064294	107.666267	-7.883291	0.181150	0.866025	0.466031
1.347477	107.400459	-7.883181	-0.084244	0.866025	0.492852
-5.221518	108.242180	-7.882938	0.276112	0.866025	0.416848
4.794013	108.109283	-7.881764	-0.259832	0.866025	0.427186
-6.143771	108.552292	-7.880672	0.307418	0.866025	0.394328
0.796429	107.356163	-7.880641	-0.050275	0.866025	0.497466
3.661435	107.799171	-7.878895	-0.210716	0.866025	0.453430
5.365633	108.286484	-7.878572	-0.281449	0.866025	0.413263
-2.089938	107.489067	-7.878490	0.128202	0.866025	0.483285
1.767758	107.444763	-7.878356	-0.109469	0.866025	0.487869
4.340818	107.976379	-7.878314	-0.241290	0.866025	0.437926
-1.381252	107.400459	-7.877333	0.086355	0.866025	0.492486
-0.830198	107.356163	-7.877155	0.052406	0.866025	0.497246
-4.653249	108.064980	-7.876687	0.254318	0.866025	0.430491
5.768586	108.419388	-7.875712	-0.295451	0.866025	0.403372
-2.380995	107.533363	-7.875663	0.144694	0.866025	0.478606
2.868405	107.621964	-7.875044	-0.171122	0.866025	0.469806
0.863951	107.356163	-7.873524	-0.054537	0.866025	0.497017
6.758228	108.773796	-7.873495	-0.325660	0.866025	0.379402
2.640569	107.577667	-7.873446	-0.158985	0.866025	0.474050
-3.295612	107.710571	-7.872673	0.193073	0.866025	0.461219
6.641014	108.729500	-7.872485	-0.322396	0.866025	0.382179
-6.029337	108.507988	-7.872128	0.304026	0.866025	0.396948
-5.510492	108.330788	-7.871793	0.286739	0.866025	0.409610
1.415001	107.400459	-7.871341	-0.088465	0.866025	0.492112
-1.801508	107.444763	-7.870707	0.111559	0.866025	0.487396
3.494690	107.754868	-7.870376	-0.202911	0.866025	0.456976
3.098053	107.666267	-7.870085	-0.183145	0.866025	0.465250
6.524318	108.685196	-7.870049	-0.319108	0.866025	0.384929
-0.897689	107.356163	-7.869749	0.056667	0.866025	0.496779
2.123685	107.489067	-7.869460	-0.130272	0.866025	0.482731
4.513414	108.020676	-7.869303	-0.248762	0.866025	0.433725
-4.032546	107.887772	-7.868408	0.228045	0.866025	0.444967
-3.863245	107.843475	-7.867505	0.220383	0.866025	0.448811
6.408154	108.640892	-7.866194	-0.315797	0.866025	0.387650
0.931410	107.356163	-7.865829	-0.058795	0.866025	0.496531
-4.203002	107.932076	-7.865798	0.235639	0.866025	0.440992
2.414728	107.533363	-7.865386	-0.146744	0.866025	0.477982
-1.448724	107.400459	-7.865204	0.090573	0.866025	0.491728
4.969418	108.153580	-7.863286	-0.267117	0.866025	0.422668
-3.695170	107.799171	-7.863131	0.212657	0.866025	0.452523
-5.111932	108.197884	-7.863074	0.272529	0.866025	0.419199
1.835225	107.444763	-7.862913	-0.113647	0.866025	0.486913
-2.902131	107.621964	-7.862678	0.173134	0.866025	0.469068
5.656056	108.375084	-7.862580	-0.291982	0.866025	0.405890
-5.915504	108.463692	-7.862206	0.300613	0.866025	0.399540
-2.674290	107.577667	-7.862056	0.161016	0.866025	0.473365
-0.965113	107.356163	-7.861765	0.060923	0.866025	0.496275
-4.827749	108.109283	-7.861145	0.261660	0.866025	0.426068
6.292540	108.596596	-7.860931	-0.312462	0.866025	0.390342
5.255256	108.242180	-7.860487	-0.277896	0.866025	0.415660
-2.157393	107.489067	-7.860286	0.132340	0.866025	0.482168
-4.374545	107.976379	-7.859637	0.243165	0.866025	0.436888
1.482420	107.400459	-7.858922	-0.092680	0.866025	0.491335
3.329323	107.710571	-7.858476	-0.195048	0.866025	0.460387
0.998799	107.356163	-7.857556	-0.063049	0.866025	0.496009
-3.131755	107.666267	-7.856735	0.185138	0.866025	0.464461
4.686965	108.064980	-7.856671	-0.256160	0.866025	0.429397
-5.399351	108.286484	-7.855503	0.283218	0.866025	0.412053
-3.528390	107.754868	-7.855326	0.204868	0.866025	0.456102
-1.868908	107.444763	-7.854975	0.115733	0.866025	0.486422
-2.448416	107.533363	-7.854965	0.148791	0.866025	0.477348
6.177490	108.552292	-7.854268	-0.309105	0.866025	0.393006
-1.032467	107.356163	-7.853204	0.065175	0.866025	0.495734
-1.516089	107.400459	-7.852497	0.094785	0.866025	0.490934
4.066232	107.887772	-7.851053	-0.229950	0.866025	0.443985
2.191062	107.489067	-7.850967	-0.134405	0.866025	0.481597
-5.802288	108.419388	-7.850916	0.297177	0.866025	0.402102
3.896929	107.843475	-7.850875	-0.222305	0.866025	0.447862
2.707962	107.577667	-7.850522	-0.163043	0.866025	0.472670
2.935803	107.621964	-7.850168	-0.175143	0.866025	0.468322
-4.547100	108.020676	-7.849887	0.250618	0.866025	0.432655
1.066116	107.356163	-7.848706	-0.067299	0.866025	0.495450
5.544179	108.330788	-7.848103	-0.288492	0.866025	0.408377
4.236676	107.932076	-7.847713	-0.237527	0.866025	0.439978
3.728837	107.799171	-7.847221	-0.214594	0.866025	0.451607
1.902557	107.444763	-7.846893	-0.117816	0.866025	0.485921
6.063021	108.507988	-7.846215	-0.305725	0.866025	0.395642
1.549731	107.400459	-7.845927	-0.096888	0.866025	0.490523
-6.791912	108.773796	-7.844458	0.327283	0.866025	0.378002
2.482059	107.533363	-7.844398	-0.150835	0.866025	0.476706
-3.362973	107.710571	-7.844135	0.197019	0.866025	0.459547
-1.099745	107.356163	-7.844065	0.069421	0.866025	0.495157
-0.016810	107.311859	-7.844033	0.001071	0.866025	0.499999
-6.674694	108.729500	-7.843950	0.324031	0.866025	0.380794
0.050428	107.311859	-7.843888	-0.003214	0.866025	0.499990
-0.084046	107.311859	-7.843600	0.005357	0.866025	0.499971
3.165399	107.666267	-7.843240	-0.187127	0.866025	0.463663
0.117662	107.311859	-7.843168	-0.007500	0.866025	0.499944
-0.151277	107.311859	-7.842592	0.009643	0.866025	0.499907
-6.557988	108.685196	-7.842013	0.320755	0.866025	0.383557
-5.003073	108.153580	-7.841916	0.268926	0.866025	0.421520
0.184888	107.311859	-7.841871	-0.011785	0.866025	0.499861
-2.224691	107.489067	-7.841505	0.136468	0.866025	0.481016
5.145586	108.197884	-7.841093	-0.274323	0.866025	0.418027
-0.218496	107.311859	-7.841007	0.013927	0.866025	0.499806
4.408190	107.976379	-7.840816	-0.245035	0.866025	0.435842
4.861397	108.109283	-7.840381	-0.263484	0.866025	0.424943
3.562025	107.754868	-7.840131	-0.206821	0.866025	0.455220
0.252100	107.311859	-7.839998	-0.016069	0.866025	0.499742
1.133354	107.356163	-7.839280	-0.071543	0.866025	0.494855
-1.583343	107.400459	-7.839213	0.098990	0.866025	0.490103
-0.285699	107.311859	-7.838846	0.018211	0.866025	0.499668
-2.741583	107.577667	-7.838844	0.165067	0.866025	0.471967
-1.936170	107.444763	-7.838667	0.119898	0.866025	0.485412
-6.441809	108.640892	-7.838657	0.317455	0.866025	0.386293
-5.689703	108.375084	-7.838267	0.293719	0.866025	0.404634
-5.288897	108.242180	-7.837891	0.279675	0.866025	0.414466
0.319293	107.311859	-7.837550	-0.020353	0.866025	0.499586
-2.969421	107.621964	-7.837513	0.177148	0.866025	0.467567
5.949146	108.463692	-7.836781	-0.302322	0.866025	0.398248
-4.720595	108.064980	-7.836511	0.257998	0.866025	0.428295
-0.352882	107.311859	-7.836109	0.022494	0.866025	0.499494
0.386463	107.311859	-7.834525	-0.024634	0.866025	0.499393
-1.166942	107.356163	-7.834350	0.073663	0.866025	0.494544
-3.930541	107.843475	-7.834101	0.224222	0.866025	0.446905
-6.326174	108.596596	-7.833889	0.314133	0.866025	0.389000
-2.515657	107.533363	-7.833689	0.152877	0.866025	0.476055
-4.099844	107.887772	-7.833553	0.231851	0.866025	0.442996
-0.420038	107.311859	-7.832796	0.026774	0.866025	0.499283
1.616927	107.400459	-7.832355	-0.101089	0.866025	0.489674
5.432969	108.286484	-7.832290	-0.284981	0.866025	0.410835
2.258278	107.489067	-7.831898	-0.138528	0.866025	0.480427
-3.762435	107.799171	-7.831168	0.216528	0.866025	0.450683
0.453605	107.311859	-7.830924	-0.028914	0.866025	0.499163
4.580702	108.020676	-7.830326	-0.252470	0.866025	0.431577
1.969748	107.444763	-7.830297	-0.121977	0.866025	0.484893
3.396562	107.710571	-7.829649	-0.198987	0.866025	0.458698
-3.198986	107.666267	-7.829601	0.189112	0.866025	0.462857
-4.270272	107.932076	-7.829483	0.239411	0.866025	0.438956
1.200509	107.356163	-7.829277	-0.075782	0.866025	0.494224
-0.487163	107.311859	-7.828908	0.031053	0.866025	0.499035
-6.211096	108.552292	-7.827720	0.310787	0.866025	0.391678
2.775155	107.577667	-7.827022	-0.167089	0.866025	0.471255
0.520713	107.311859	-7.826748	-0.033192	0.866025	0.498897
5.835883	108.419388	-7.825976	-0.298898	0.866025	0.400824
-1.650481	107.400459	-7.825353	0.103187	0.866025	0.489237
-3.595595	107.754868	-7.824793	0.208770	0.866025	0.454329
3.002985	107.621964	-7.824714	-0.179151	0.866025	0.466803
-0.554253	107.311859	-7.824445	0.035330	0.866025	0.498750
-5.577765	108.330788	-7.824269	0.290240	0.866025	0.407137
-1.234054	107.356163	-7.824059	0.077900	0.866025	0.493894
2.549209	107.533363	-7.822835	-0.154916	0.866025	0.475396
-2.291825	107.489067	-7.822147	0.140586	0.866025	0.479829
0.587783	107.311859	-7.821997	-0.037467	0.866025	0.498594
-4.441755	107.976379	-7.821851	0.246901	0.866025	0.434787
-2.003290	107.444763	-7.821783	0.124054	0.866025	0.484366
5.036637	108.153580	-7.820401	-0.270730	0.866025	0.420363
-6.096593	108.507988	-7.820158	0.307418	0.866025	0.394328
-4.894956	108.109283	-7.819474	0.265303	0.866025	0.423809
-0.621302	107.311859	-7.819406	0.039603	0.866025	0.498429
-5.179145	108.197884	-7.818967	0.276112	0.866025	0.416848
1.267576	107.356163	-7.818698	-0.080016	0.866025	0.493556
1.684005	107.400459	-7.818207	-0.105283	0.866025	0.488790
3.964082	107.843475	-7.817183	-0.226136	0.866025	0.445940
0.654810	107.311859	-7.816671	-0.041739	0.866025	0.498255
4.754138	108.064980	-7.816206	-0.259832	0.866025	0.427186
4.133380	107.887772	-7.815909	-0.233747	0.866025	0.441998
3.232513	107.666267	-7.815819	-0.191094	0.866025	0.462042
6.825470	108.773796	-7.815276	-0.328900	0.866025	0.376596
6.708251	108.729500	-7.815270	-0.325660	0.866025	0.379402
5.322441	108.242180	-7.815151	-0.281449	0.866025	0.413263
-2.808676	107.577667	-7.815056	0.169107	0.866025	0.470535
-3.430088	107.710571	-7.815020	0.200951	0.866025	0.457841
3.795964	107.799171	-7.814970	-0.218458	0.866025	0.449751
6.591538	108.685196	-7.813835	-0.322396	0.866025	0.382179
5.723245	108.375084	-7.813809	-0.295451	0.866025	0.403372
-0.688305	107.311859	-7.813793	0.043874	0.866025	0.498071
-1.301074	107.356163	-7.813194	0.082130	0.866025	0.493208
2.036796	107.444763	-7.813125	-0.126129	0.866025	0.483830
2.325329	107.489067	-7.812253	-0.142641	0.866025	0.479222
-2.582713	107.533363	-7.811837	0.156952	0.866025	0.474727
-3.036494	107.621964	-7.811772	0.181150	0.866025	0.466031
-5.982680	108.463692	-7.811212	0.304026	0.866025	0.396948
4.303789	107.932076	-7.811109	-0.241290	0.866025	0.437926
6.475346	108.640892	-7.810976	-0.319108	0.866025	0.384929
-1.717498	107.400459	-7.810918	0.107377	0.866025	0.488334
0.721789	107.311859	-7.810771	-0.046009	0.866025	0.497879
-4.614220	108.020676	-7.810622	0.254318	0.866025	0.430491
3.629098	107.754868	-7.809310	-0.210716	0.866025	0.453430
-5.466488	108.286484	-7.808932	0.286739	0.866025	0.409610
-0.755258	107.311859	-7.807606	0.048142	0.866025	0.497677
1.334549	107.356163	-7.807546	-0.084244	0.866025	0.492852
6.359691	108.596596	-7.806704	-0.315797	0.866025	0.387650
-2.070263	107.444763	-7.804323	0.128202	0.866025	0.483285
0.788714	107.311859	-7.804297	-0.050275	0.866025	0.497466
1.750959	107.400459	-7.803485	-0.109469	0.866025	0.487869
2.842144	107.577667	-7.802946	-0.171122	0.866025	0.469806
4.475238	107.976379	-7.802742	-0.248762	0.866025	0.433725
-2.358790	107.489067	-7.802215	0.144694	0.866025	0.478606
-3.265982	107.666267	-7.801893	0.193073	0.866025	0.461219
-1.367999	107.356163	-7.801754	0.086355	0.866025	0.492486
6.244588	108.552292	-7.801028	-0.312462	0.866025	0.390342
-5.869371	108.419388	-7.800892	0.300613	0.866025	0.399540
-0.822156	107.311859	-7.800846	0.052406	0.866025	0.497246
2.616171	107.533363	-7.800696	-0.158985	0.866025	0.474050
5.611248	108.330788	-7.800291	-0.291982	0.866025	0.405890
3.463551	107.710571	-7.800247	-0.202911	0.866025	0.456976
-3.997549	107.843475	-7.800122	0.228045	0.866025	0.444967
-5.070108	108.153580	-7.798743	0.272529	0.866025	0.419199
3.069947	107.621964	-7.798686	-0.183145	0.866025	0.465250
-3.829424	107.799171	-7.798629	0.220383	0.866025	0.448811
4.928425	108.109283	-7.798422	-0.267117	0.866025	0.422668
-4.166841	107.887772	-7.798122	0.235639	0.866025	0.440992
0.855582	107.311859	-7.797250	-0.054537	0.866025	0.497017
5.212609	108.197884	-7.796698	-0.277896	0.866025	0.415660
-1.784388	107.400459	-7.795909	0.111559	0.866025	0.487396
1.401425	107.356163	-7.795820	-0.088465	0.866025	0.492112
-4.787594	108.064980	-7.795759	0.261660	0.866025	0.426068
2.103693	107.444763	-7.795379	-0.130272	0.866025	0.482731
6.130054	108.507988	-7.793956	-0.309105	0.866025	0.393006
-3.662535	107.754868	-7.793684	0.212657	0.866025	0.452523
-0.888992	107.311859	-7.793511	0.056667	0.866025	0.496779
-4.337228	107.932076	-7.792591	0.243165	0.866025	0.436888
-5.355887	108.242180	-7.792268	0.283218	0.866025	0.412053
2.392208	107.489067	-7.792033	-0.146744	0.866025	0.477982
4.647654	108.020676	-7.790774	-0.256160	0.866025	0.429397
-2.875561	107.577667	-7.790693	0.173134	0.866025	0.469068
-1.434824	107.356163	-7.789742	0.090573	0.866025	0.491728
0.922387	107.311859	-7.789630	-0.058795	0.866025	0.496531
-2.649580	107.533363	-7.789412	0.161016	0.866025	0.473365
-5.756682	108.375084	-7.789208	0.297177	0.866025	0.402102
1.817784	107.400459	-7.788189	-0.113647	0.866025	0.486913
3.299390	107.666267	-7.787823	-0.195048	0.866025	0.460387
-6.741685	108.729500	-7.786448	0.327283	0.866025	0.378002
-2.137084	107.444763	-7.786291	0.132340	0.866025	0.482168
-6.858903	108.773796	-7.785951	0.330511	0.866025	0.375183
-0.955764	107.311859	-7.785605	0.060923	0.866025	0.496275
-6.624967	108.685196	-7.785512	0.324031	0.866025	0.380794
6.016103	108.463692	-7.785499	-0.305725	0.866025	0.395642
-3.103343	107.621964	-7.785457	0.185138	0.866025	0.464461
5.499906	108.286484	-7.785432	-0.288492	0.866025	0.408377
-3.496950	107.710571	-7.785331	0.204868	0.866025	0.456102
1.468197	107.356163	-7.783521	-0.092680	0.866025	0.491335
-4.508639	107.976379	-7.783490	0.250618	0.866025	0.432655
-6.508764	108.640892	-7.783152	0.320755	0.866025	0.383557
4.030943	107.843475	-7.782917	-0.229950	0.866025	0.443985
3.862813	107.799171	-7.782145	-0.222305	0.866025	0.447862
-2.425582	107.489067	-7.781709	0.148791	0.866025	0.477348
0.989124	107.311859	-7.781437	-0.063049	0.866025	0.496009
-1.851147	107.400459	-7.780327	0.115733	0.866025	0.486422
4.200224	107.887772	-7.780192	-0.237527	0.866025	0.439978
-6.393092	108.596596	-7.779375	0.317455	0.866025	0.386293
2.908925	107.577667	-7.778297	-0.175143	0.866025	0.468322
2.682940	107.533363	-7.777985	-0.163043	0.866025	0.472670
3.695904	107.754868	-7.777915	-0.214594	0.866025	0.451607
-4.961803	108.109283	-7.777228	0.268926	0.866025	0.421520
-1.501543	107.356163	-7.777156	0.094785	0.866025	0.490934
-1.022465	107.311859	-7.777126	0.065175	0.866025	0.495734
2.170436	107.444763	-7.777060	-0.134405	0.866025	0.481597
5.103487	108.153580	-7.776941	-0.274323	0.866025	0.418027
-5.644628	108.330788	-7.776170	0.293719	0.866025	0.404634
5.902751	108.419388	-7.775664	-0.302322	0.866025	0.398248
4.820962	108.064980	-7.775168	-0.263484	0.866025	0.424943
-5.245977	108.197884	-7.774286	0.279675	0.866025	0.414466
-6.277966	108.552292	-7.774192	0.314133	0.866025	0.389000
4.370586	107.932076	-7.773931	-0.245035	0.866025	0.435842
-3.332738	107.666267	-7.773611	0.197019	0.866025	0.459547
1.055788	107.311859	-7.772673	-0.067299	0.866025	0.495450
1.884476	107.400459	-7.772322	-0.117816	0.866025	0.485921
3.136682	107.621964	-7.772085	-0.187127	0.866025	0.463663
2.458912	107.489067	-7.771242	-0.150835	0.866025	0.476706
-4.681001	108.020676	-7.770783	0.257998	0.866025	0.428295
1.534862	107.356163	-7.770649	-0.096888	0.866025	0.490523
3.530286	107.710571	-7.770272	-0.206821	0.866025	0.455220
5.389235	108.242180	-7.769241	-0.284981	0.866025	0.410835
-1.089091	107.311859	-7.768076	0.069421	0.866025	0.495157
-2.203748	107.444763	-7.767686	0.136468	0.866025	0.481016
-6.163402	108.507988	-7.767612	0.310787	0.866025	0.391678
-0.016645	107.267555	-7.767301	0.001071	0.866025	0.499999
0.049935	107.267555	-7.767158	-0.003214	0.866025	0.499990
-0.083224	107.267555	-7.766873	0.005357	0.866025	0.499971
0.116511	107.267555	-7.766445	-0.007500	0.866025	0.499944
-2.716252	107.533363	-7.766414	0.165067	0.866025	0.471967
-0.149797	107.267555	-7.765874	0.009643	0.866025	0.499907
-2.942235	107.577667	-7.765759	0.177148	0.866025	0.467567
-4.064263	107.843475	-7.765569	0.231851	0.866025	0.442996
-3.896131	107.799171	-7.765518	0.224222	0.866025	0.446905
0.183079	107.267555	-7.765161	-0.011785	0.866025	0.499861
5.790013	108.375084	-7.764464	-0.298898	0.866025	0.400824
-0.216359	107.267555	-7.764305	0.013927	0.866025	0.499806
-1.917770	107.400459	-7.764174	0.119898	0.866025	0.485412
4.541957	107.976379	-7.764095	-0.252470	0.866025	0.431577
-1.568152	107.356163	-7.764000	0.098990	0.866025	0.490103
1.122375	107.311859	-7.763337	-0.071543	0.866025	0.494855
0.249634	107.267555	-7.763306	-0.016069	0.866025	0.499742
-0.282905	107.267555	-7.762165	0.018211	0.866025	0.499668
-4.233531	107.887772	-7.762119	0.239411	0.866025	0.438956
-3.729206	107.754868	-7.762004	0.216528	0.866025	0.450683
-5.533224	108.286484	-7.761788	0.290240	0.866025	0.407137
0.316170	107.267555	-7.760881	-0.020353	0.866025	0.499586
-2.492196	107.489067	-7.760632	0.152877	0.866025	0.476055
-6.049416	108.463692	-7.759642	0.307418	0.866025	0.394328
-0.349430	107.267555	-7.759455	0.022494	0.866025	0.499494
3.366024	107.666267	-7.759255	-0.198987	0.866025	0.458698
-3.169964	107.621964	-7.758570	0.189112	0.866025	0.462857
-1.155638	107.311859	-7.758455	0.073663	0.866025	0.494544
2.237020	107.444763	-7.758170	-0.138528	0.866025	0.480427
0.382683	107.267555	-7.757886	-0.024634	0.866025	0.499393
6.774996	108.729500	-7.757482	-0.328900	0.866025	0.376596
1.601414	107.356163	-7.757207	-0.101089	0.866025	0.489674
6.658275	108.685196	-7.757046	-0.325660	0.866025	0.379402
6.892210	108.773796	-7.756482	-0.332116	0.866025	0.373763
-0.415929	107.267555	-7.756175	0.026774	0.866025	0.499283
4.995090	108.109283	-7.755890	-0.270730	0.866025	0.420363
1.951029	107.400459	-7.755883	-0.121977	0.866025	0.484893
6.542062	108.640892	-7.755184	-0.322396	0.866025	0.382179
-4.403864	107.932076	-7.755127	0.246901	0.866025	0.434787
-3.563556	107.710571	-7.755070	0.208770	0.866025	0.454329
-5.136771	108.153580	-7.754996	0.276112	0.866025	0.416848
2.749513	107.533363	-7.754701	-0.167089	0.866025	0.471255
-4.854242	108.064980	-7.754434	0.265303	0.866025	0.423809
0.449168	107.267555	-7.754321	-0.028914	0.866025	0.499163
1.188879	107.311859	-7.753431	-0.075782	0.866025	0.494224
2.975492	107.577667	-7.753077	-0.179151	0.866025	0.466803
-0.482398	107.267555	-7.752324	0.031053	0.866025	0.499035
5.677904	108.330788	-7.751906	-0.295451	0.866025	0.403372
6.426374	108.596596	-7.751904	-0.319108	0.866025	0.384929
5.279249	108.197884	-7.751730	-0.281449	0.866025	0.413263
4.714263	108.020676	-7.750649	-0.259832	0.866025	0.427186
-5.936023	108.419388	-7.750294	0.304026	0.866025	0.396948
-1.634646	107.356163	-7.750273	0.103187	0.866025	0.489237
0.515619	107.267555	-7.750185	-0.033192	0.866025	0.498897
2.525435	107.489067	-7.749879	-0.154916	0.866025	0.475396
3.929378	107.799171	-7.748748	-0.226136	0.866025	0.445940
-2.270250	107.444763	-7.748511	0.140586	0.866025	0.479829
-1.222099	107.311859	-7.748265	0.077900	0.866025	0.493894
4.097508	107.843475	-7.748079	-0.233747	0.866025	0.441998
-0.548831	107.267555	-7.747904	0.035330	0.866025	0.498750
-1.984253	107.400459	-7.747450	0.124054	0.866025	0.484366
6.311228	108.552292	-7.747214	-0.315797	0.866025	0.387650
-5.422484	108.242180	-7.746072	0.286739	0.866025	0.409610
3.762439	107.754868	-7.745949	-0.218458	0.866025	0.449751
0.582033	107.267555	-7.745481	-0.037467	0.866025	0.498594
3.203187	107.621964	-7.744912	-0.191094	0.866025	0.462042
-3.399249	107.666267	-7.744758	0.200951	0.866025	0.457841
-4.575191	107.976379	-7.744557	0.254318	0.866025	0.430491
4.266760	107.887772	-7.743903	-0.241290	0.866025	0.437926
1.667848	107.356163	-7.743196	-0.105283	0.866025	0.488790
1.255296	107.311859	-7.742956	-0.080016	0.866025	0.493556
-0.615224	107.267555	-7.742916	0.039603	0.866025	0.498429
-2.782724	107.533363	-7.742846	0.169107	0.866025	0.470535
6.196637	108.507988	-7.741124	-0.312462	0.866025	0.390342
-3.008694	107.577667	-7.740253	0.181150	0.866025	0.466031
0.648404	107.267555	-7.740208	-0.041739	0.866025	0.498255
3.596761	107.710571	-7.739725	-0.210716	0.866025	0.453430
-5.823238	108.375084	-7.739577	0.300613	0.866025	0.399540
-2.558627	107.489067	-7.738984	0.156952	0.866025	0.474727
2.017439	107.400459	-7.738874	-0.126129	0.866025	0.483830
2.303438	107.444763	-7.738709	-0.142641	0.866025	0.479222
5.566439	108.286484	-7.738002	-0.291982	0.866025	0.405890
-1.288470	107.311859	-7.737504	0.082130	0.866025	0.493208
-0.681572	107.267555	-7.737358	0.043874	0.866025	0.498071
4.437062	107.932076	-7.736181	-0.248762	0.866025	0.433725
-1.701019	107.356163	-7.735976	0.107377	0.866025	0.488334
-5.028286	108.109283	-7.734411	0.272529	0.866025	0.419199
0.714728	107.267555	-7.734365	-0.046009	0.866025	0.497879
6.082617	108.463692	-7.733644	-0.309105	0.866025	0.393006
4.887432	108.064980	-7.733558	-0.267117	0.866025	0.422668
5.169961	108.153580	-7.732909	-0.277896	0.866025	0.415660
1.321621	107.311859	-7.731911	-0.084244	0.866025	0.492852
-3.962552	107.799171	-7.731835	0.228045	0.866025	0.444967
-0.747870	107.267555	-7.731231	0.048142	0.866025	0.497677
-3.236352	107.621964	-7.731112	0.193073	0.866025	0.461219
2.815883	107.533363	-7.730848	-0.171122	0.866025	0.469806
-4.130678	107.843475	-7.730446	0.235639	0.866025	0.440992
-4.747439	108.020676	-7.730373	0.261660	0.866025	0.426068
-2.050589	107.400459	-7.730156	0.128202	0.866025	0.483285
3.432411	107.666267	-7.730118	-0.202911	0.866025	0.456976
-3.795603	107.754868	-7.729753	0.220383	0.866025	0.448811
-5.312423	108.197884	-7.729033	0.283218	0.866025	0.412053
-2.336585	107.444763	-7.728766	0.144694	0.866025	0.478606
1.734159	107.356163	-7.728615	-0.109469	0.866025	0.487869
-6.691459	108.685196	-7.728438	0.327283	0.866025	0.378002
-6.808181	108.729500	-7.728374	0.330511	0.866025	0.375183
0.780999	107.267555	-7.727954	-0.050275	0.866025	0.497466
2.591772	107.489067	-7.727947	-0.158985	0.866025	0.474050
-5.711076	108.330788	-7.727500	0.297177	0.866025	0.402102
3.041840	107.577667	-7.727287	-0.183145	0.866025	0.465250
-6.575240	108.640892	-7.727074	0.324031	0.866025	0.380794
-6.925390	108.773796	-7.726871	0.333715	0.866025	0.372336
-1.354747	107.311859	-7.726176	0.086355	0.866025	0.492486
-4.299911	107.887772	-7.725544	0.243165	0.866025	0.436888
4.608342	107.976379	-7.724877	-0.256160	0.866025	0.429397
5.969185	108.419388	-7.724782	-0.305725	0.866025	0.395642
-0.814113	107.267555	-7.724536	0.052406	0.866025	0.497246
-6.459539	108.596596	-7.724289	0.320755	0.866025	0.383557
-3.629900	107.710571	-7.724239	0.212657	0.866025	0.452523
5.455633	108.242180	-7.722761	-0.288492	0.866025	0.408377
2.083701	107.400459	-7.721297	-0.130272	0.866025	0.482731
-1.767268	107.356163	-7.721111	0.111559	0.866025	0.487396
0.847212	107.267555	-7.720976	-0.054537	0.866025	0.497017
1.387848	107.311859	-7.720298	-0.088465	0.866025	0.492112
-6.344374	108.552292	-7.720093	0.317455	0.866025	0.386293
-2.848991	107.533363	-7.718709	0.173134	0.866025	0.469068
2.369688	107.444763	-7.718680	-0.146744	0.866025	0.477982
-0.880296	107.267555	-7.717274	0.056667	0.866025	0.496779
3.269457	107.621964	-7.717171	-0.195048	0.866025	0.460387
-4.470178	107.932076	-7.717093	0.250618	0.866025	0.432655
-2.624870	107.489067	-7.716768	0.161016	0.866025	0.473365
-3.465511	107.666267	-7.715336	0.204868	0.866025	0.456102
3.995654	107.799171	-7.714781	-0.229950	0.866025	0.443985
5.856356	108.375084	-7.714548	-0.302322	0.866025	0.398248
-6.229758	108.507988	-7.714495	0.314133	0.866025	0.389000
-1.420924	107.311859	-7.714279	0.090573	0.866025	0.491728
-3.074931	107.577667	-7.714179	0.185138	0.866025	0.464461
-5.599553	108.286484	-7.714074	0.293719	0.866025	0.404634
1.800344	107.356163	-7.713466	-0.113647	0.866025	0.486913
0.913364	107.267555	-7.713430	-0.058795	0.866025	0.496531
3.828697	107.754868	-7.713414	-0.222305	0.866025	0.447862
5.061388	108.109283	-7.712789	-0.274323	0.866025	0.418027
4.163773	107.843475	-7.712671	-0.237527	0.866025	0.439978
-4.920533	108.064980	-7.712540	0.268926	0.866025	0.421520
-2.116775	107.400459	-7.712296	0.132340	0.866025	0.482168
-5.203057	108.153580	-7.710680	0.279675	0.866025	0.414466
4.780527	108.020676	-7.709955	-0.263484	0.866025	0.424943
-0.946414	107.267555	-7.709445	0.060923	0.866025	0.496275
3.662972	107.710571	-7.708611	-0.214594	0.866025	0.451607
-2.402748	107.444763	-7.708453	0.148791	0.866025	0.477348
1.453974	107.311859	-7.708118	-0.092680	0.866025	0.491335
-6.115707	108.463692	-7.707503	0.310787	0.866025	0.391678
4.332982	107.887772	-7.707045	-0.245035	0.866025	0.435842
2.882047	107.533363	-7.706427	-0.175143	0.866025	0.468322
5.345501	108.197884	-7.706193	-0.284981	0.866025	0.410835
-1.833386	107.356163	-7.705679	0.115733	0.866025	0.486422
2.657919	107.489067	-7.705447	-0.163043	0.866025	0.472670
0.979448	107.267555	-7.705318	-0.063049	0.866025	0.496009
-4.641408	107.976379	-7.705055	0.257998	0.866025	0.428295
2.149810	107.400459	-7.703152	-0.134405	0.866025	0.481597
-3.302503	107.621964	-7.703087	0.197019	0.866025	0.459547
5.744143	108.330788	-7.702952	-0.298898	0.866025	0.400824
-1.486997	107.311859	-7.701816	0.094785	0.866025	0.490934
-1.012463	107.267555	-7.701049	0.065175	0.866025	0.495734
3.107965	107.577667	-7.700929	-0.187127	0.866025	0.463663
3.498546	107.666267	-7.700412	-0.206821	0.866025	0.455220
6.724522	108.685196	-7.699688	-0.328900	0.866025	0.376596
-5.488682	108.242180	-7.699307	0.290240	0.866025	0.407137
-6.002238	108.419388	-7.699127	0.307418	0.866025	0.394328
6.841242	108.729500	-7.699123	-0.332116	0.866025	0.373763
6.608297	108.640892	-7.698822	-0.325660	0.866025	0.379402
2.435764	107.444763	-7.698084	-0.150835	0.866025	0.476706
4.503212	107.932076	-7.697864	-0.252470	0.866025	0.431577
1.866395	107.356163	-7.697751	-0.117816	0.866025	0.485921
-4.028682	107.799171	-7.697586	0.231851	0.866025	0.442996
6.958444	108.773796	-7.697119	-0.335308	0.866025	0.370903
-3.861721	107.754868	-7.696934	0.224222	0.866025	0.446905
1.045460	107.267555	-7.696639	-0.067299	0.866025	0.495450
6.492586	108.596596	-7.696533	-0.322396	0.866025	0.382179
1.519993	107.311859	-7.695372	-0.096888	0.866025	0.490523
-4.196790	107.843475	-7.694755	0.239411	0.866025	0.438956
-2.915050	107.533363	-7.694004	0.177148	0.866025	0.467567
-2.690920	107.489067	-7.693985	0.165067	0.866025	0.471967
-2.182805	107.400459	-7.693868	0.136468	0.866025	0.481016
-3.695977	107.710571	-7.692840	0.216528	0.866025	0.450683
6.377403	108.552292	-7.692831	-0.319108	0.866025	0.384929
-1.078438	107.267555	-7.692088	0.069421	0.866025	0.495157
4.953543	108.064980	-7.691380	-0.270730	0.866025	0.420363
-5.094398	108.109283	-7.691025	0.276112	0.866025	0.416848
-0.016481	107.223259	-7.690569	0.001071	0.866025	0.499999
0.049442	107.223259	-7.690428	-0.003214	0.866025	0.499990
-0.082402	107.223259	-7.690145	0.005357	0.866025	0.499971
5.632563	108.286484	-7.690003	-0.295451	0.866025	0.403372
0.115360	107.223259	-7.689722	-0.007500	0.866025	0.499944
-1.899370	107.356163	-7.689681	0.119898	0.866025	0.485412
-4.813527	108.020676	-7.689395	0.265303	0.866025	0.423809
-5.889366	108.375084	-7.689377	0.304026	0.866025	0.396948
-0.148317	107.223259	-7.689157	0.009643	0.866025	0.499907
3.335487	107.621964	-7.688862	-0.198987	0.866025	0.458698
-1.552961	107.311859	-7.688787	0.098990	0.866025	0.490103
0.181271	107.223259	-7.688450	-0.011785	0.866025	0.499861
-4.365974	107.887772	-7.688403	0.246901	0.866025	0.434787
5.236056	108.153580	-7.688310	-0.281449	0.866025	0.413263
6.262764	108.507988	-7.687724	-0.315797	0.866025	0.387650
-0.214221	107.223259	-7.687603	0.013927	0.866025	0.499806
-2.468735	107.444763	-7.687574	0.152877	0.866025	0.476055
-3.140942	107.577667	-7.687538	0.189112	0.866025	0.462857
1.111395	107.267555	-7.687395	-0.071543	0.866025	0.494855
0.247168	107.223259	-7.686614	-0.016069	0.866025	0.499742
-0.280110	107.223259	-7.685484	0.018211	0.866025	0.499668
-3.531517	107.666267	-7.685347	0.208770	0.866025	0.454329
4.674388	107.976379	-7.685091	-0.259832	0.866025	0.427186
2.215760	107.400459	-7.684442	-0.138528	0.866025	0.480427
0.313047	107.223259	-7.684213	-0.020353	0.866025	0.499586
-5.378480	108.197884	-7.683212	0.286739	0.866025	0.409610
-0.345978	107.223259	-7.682801	0.022494	0.866025	0.499494
-1.144333	107.267555	-7.682561	0.073663	0.866025	0.494544
2.723871	107.489067	-7.682381	-0.167089	0.866025	0.471255
1.585900	107.311859	-7.682060	-0.101089	0.866025	0.489674
1.932310	107.356163	-7.681469	-0.121977	0.866025	0.484893
2.947999	107.533363	-7.681439	-0.179151	0.866025	0.466803
0.378902	107.223259	-7.681247	-0.024634	0.866025	0.499393
6.148685	108.463692	-7.681221	-0.312462	0.866025	0.390342
3.894674	107.754868	-7.680312	-0.226136	0.866025	0.445940
4.061636	107.799171	-7.680248	-0.233747	0.866025	0.441998
-0.411820	107.223259	-7.679553	0.026774	0.866025	0.499283
-4.536163	107.932076	-7.678492	0.254318	0.866025	0.430491
-5.777104	108.330788	-7.678262	0.300613	0.866025	0.399540
0.444730	107.223259	-7.677717	-0.028914	0.866025	0.499163
1.177249	107.267555	-7.677586	-0.075782	0.866025	0.494224
3.728914	107.710571	-7.676929	-0.218458	0.866025	0.449751
2.501661	107.444763	-7.676923	-0.154916	0.866025	0.475396
4.229731	107.843475	-7.676697	-0.241290	0.866025	0.437926
-0.477632	107.223259	-7.675741	0.031053	0.866025	0.499035
5.521630	108.242180	-7.675713	-0.291982	0.866025	0.405890
-1.618810	107.311859	-7.675193	0.103187	0.866025	0.489237
-2.248675	107.400459	-7.674874	0.140586	0.866025	0.479829
-3.368410	107.621964	-7.674496	0.200951	0.866025	0.457841
3.173862	107.577667	-7.674006	-0.191094	0.866025	0.462042
0.510526	107.223259	-7.673623	-0.033192	0.866025	0.498897
6.035181	108.419388	-7.673331	-0.309105	0.866025	0.393006
-1.965215	107.356163	-7.673117	0.124054	0.866025	0.484366
-1.210144	107.267555	-7.672470	0.077900	0.866025	0.493894
-0.543410	107.223259	-7.671364	0.035330	0.866025	0.498750
-6.757460	108.685196	-7.670796	0.330511	0.866025	0.375183
-2.756772	107.489067	-7.670636	0.169107	0.866025	0.470535
-6.641233	108.640892	-7.670428	0.327283	0.866025	0.378002
3.564424	107.666267	-7.670140	-0.210716	0.866025	0.453430
-4.986462	108.064980	-7.670079	0.272529	0.866025	0.419199
-6.874177	108.729500	-7.669732	0.333715	0.866025	0.372336
4.398886	107.887772	-7.669620	-0.248762	0.866025	0.433725
5.127315	108.109283	-7.669120	-0.277896	0.866025	0.415660
0.576283	107.223259	-7.668965	-0.037467	0.866025	0.498594
-2.980894	107.533363	-7.668734	0.181150	0.866025	0.466031
4.846439	108.020676	-7.668694	-0.267117	0.866025	0.422668
-6.525513	108.596596	-7.668636	0.324031	0.866025	0.380794
1.651691	107.311859	-7.668184	-0.105283	0.866025	0.488790
-6.991369	108.773796	-7.667225	0.336894	0.866025	0.369462
1.243017	107.267555	-7.667212	-0.080016	0.866025	0.493556
-0.609147	107.223259	-7.666425	0.039603	0.866025	0.498429
-2.534540	107.444763	-7.666131	0.156952	0.866025	0.474727
-5.268960	108.153580	-7.665798	0.283218	0.866025	0.412053
-5.665470	108.286484	-7.665792	0.297177	0.866025	0.402102
-6.410316	108.552292	-7.665427	0.320755	0.866025	0.383557
2.281548	107.400459	-7.665166	-0.142641	0.866025	0.479222
-4.707283	107.976379	-7.664987	0.261660	0.866025	0.426068
1.998083	107.356163	-7.664624	-0.126129	0.866025	0.483830
5.922267	108.375084	-7.664065	-0.305725	0.866025	0.395642
0.641999	107.223259	-7.663743	-0.041739	0.866025	0.498255
-3.927556	107.754868	-7.663549	0.228045	0.866025	0.444967
-4.094516	107.799171	-7.662770	0.235639	0.866025	0.440992
-1.275866	107.267555	-7.661815	0.082130	0.866025	0.493208
-1.684541	107.311859	-7.661035	0.107377	0.866025	0.488334
-0.674839	107.223259	-7.660922	0.043874	0.866025	0.498071
-3.761782	107.710571	-7.660877	0.220383	0.866025	0.448811
-6.295656	108.507988	-7.660811	0.317455	0.866025	0.386293
-3.206722	107.577667	-7.660332	0.193073	0.866025	0.461219
5.411360	108.197884	-7.660089	-0.288492	0.866025	0.408377
3.401272	107.621964	-7.659988	-0.202911	0.866025	0.456976
4.569031	107.932076	-7.658980	-0.256160	0.866025	0.429397
2.789622	107.489067	-7.658750	-0.171122	0.866025	0.469806
-4.262594	107.843475	-7.658498	0.243165	0.866025	0.436888
0.707667	107.223259	-7.657959	-0.046009	0.866025	0.497879
1.308692	107.267555	-7.656276	-0.084244	0.866025	0.492852
-2.030915	107.356163	-7.655990	0.128202	0.866025	0.483285
3.013734	107.533363	-7.655888	-0.183145	0.866025	0.465250
-2.314380	107.400459	-7.655317	0.144694	0.866025	0.478606
2.567374	107.444763	-7.655197	-0.158985	0.866025	0.474050
-0.740482	107.223259	-7.654855	0.048142	0.866025	0.497677
-6.181550	108.463692	-7.654798	0.314133	0.866025	0.389000
-3.597265	107.666267	-7.654793	0.212657	0.866025	0.452523
1.717360	107.311859	-7.653745	-0.109469	0.866025	0.487869
5.809960	108.330788	-7.653431	-0.302322	0.866025	0.398248
-5.554477	108.242180	-7.651977	0.293719	0.866025	0.404634
0.773283	107.223259	-7.651611	-0.050275	0.866025	0.497466
-4.431717	107.887772	-7.650696	0.250618	0.866025	0.432655
-1.341495	107.267555	-7.650597	0.086355	0.866025	0.492486
5.019289	108.064980	-7.648637	-0.274323	0.866025	0.418027
-0.806071	107.223259	-7.648227	0.052406	0.866025	0.497246
-4.879262	108.020676	-7.647852	0.268926	0.866025	0.421520
-6.068013	108.419388	-7.647395	0.310787	0.866025	0.391678
2.063709	107.356163	-7.647215	-0.130272	0.866025	0.482731
-5.160137	108.109283	-7.647075	0.279675	0.866025	0.414466
-2.822422	107.489067	-7.646723	0.173134	0.866025	0.469068
3.960365	107.754868	-7.646646	-0.229950	0.866025	0.443985
3.239525	107.577667	-7.646518	-0.195048	0.866025	0.460387
-1.750147	107.311859	-7.646314	0.111559	0.866025	0.487396
-3.434071	107.621964	-7.645340	0.204868	0.866025	0.456102
2.347168	107.400459	-7.645328	-0.146744	0.866025	0.477982
4.127321	107.799171	-7.645151	-0.237527	0.866025	0.439978
1.374272	107.267555	-7.644777	-0.088465	0.866025	0.492112
4.740092	107.976379	-7.644742	-0.263484	0.866025	0.424943
0.838843	107.223259	-7.644702	-0.054537	0.866025	0.497017
3.794582	107.710571	-7.644683	-0.222305	0.866025	0.447862
-2.600160	107.444763	-7.644123	0.161016	0.866025	0.473365
5.301766	108.153580	-7.643145	-0.284981	0.866025	0.410835
-3.046519	107.533363	-7.642901	0.185138	0.866025	0.464461
6.674047	108.640892	-7.641894	-0.328900	0.866025	0.376596
6.790274	108.685196	-7.641764	-0.332116	0.866025	0.373763
5.698273	108.286484	-7.641440	-0.298898	0.866025	0.400824
-0.871600	107.223259	-7.641037	0.056667	0.866025	0.496779
6.558321	108.596596	-7.640597	-0.325660	0.866025	0.379402
6.906986	108.729500	-7.640199	-0.335308	0.866025	0.370903
4.295378	107.843475	-7.640159	-0.245035	0.866025	0.435842
-4.601815	107.932076	-7.639327	0.257998	0.866025	0.428295
3.630039	107.666267	-7.639305	-0.214594	0.866025	0.451607
-1.407025	107.267555	-7.638817	0.090573	0.866025	0.491728
1.782903	107.311859	-7.638742	-0.113647	0.866025	0.486913
-5.955061	108.375084	-7.638612	0.307418	0.866025	0.394328
-2.096466	107.356163	-7.638300	0.132340	0.866025	0.482168
6.443110	108.552292	-7.637883	-0.322396	0.866025	0.382179
0.904341	107.223259	-7.637231	-0.058795	0.866025	0.496531
7.024166	108.773796	-7.637190	-0.338475	0.866025	0.368015
-5.444141	108.197884	-7.636827	0.290240	0.866025	0.407137
-2.379914	107.400459	-7.635198	0.148791	0.866025	0.477348
2.855169	107.489067	-7.634557	-0.175143	0.866025	0.468322
6.328432	108.507988	-7.633758	-0.319108	0.866025	0.384929
-0.937065	107.223259	-7.633285	0.060923	0.866025	0.496275
2.632898	107.444763	-7.632909	-0.163043	0.866025	0.472670
1.439751	107.267555	-7.632716	-0.092680	0.866025	0.491335
-3.272267	107.577667	-7.632563	0.197019	0.866025	0.459547
4.464467	107.887772	-7.631632	-0.252470	0.866025	0.431577
-1.815626	107.311859	-7.631031	0.115733	0.866025	0.486422
3.466806	107.621964	-7.630552	-0.206821	0.866025	0.455220
3.079248	107.533363	-7.629774	-0.187127	0.866025	0.463663
-3.993102	107.754868	-7.629601	0.231851	0.866025	0.442996
2.129184	107.356163	-7.629245	-0.134405	0.866025	0.481597
0.969772	107.223259	-7.629199	-0.063049	0.866025	0.496009
-5.842709	108.330788	-7.628460	0.304026	0.866025	0.396948
-3.827311	107.710571	-7.628350	0.224222	0.866025	0.446905
6.214301	108.463692	-7.628233	-0.315797	0.866025	0.387650
5.587222	108.242180	-7.628100	-0.295451	0.866025	0.403372
-4.160049	107.799171	-7.627391	0.239411	0.866025	0.438956
-5.052025	108.064980	-7.627054	0.276112	0.866025	0.416848
4.911995	108.020676	-7.626870	-0.270730	0.866025	0.420363
-1.472451	107.267555	-7.626475	0.094785	0.866025	0.490934
-1.002461	107.223259	-7.624972	0.065175	0.866025	0.495734
2.412616	107.400459	-7.624928	-0.150835	0.866025	0.476706
5.192864	108.109283	-7.624888	-0.281449	0.866025	0.413263
-4.772813	107.976379	-7.624355	0.265303	0.866025	0.423809
-3.662748	107.666267	-7.623677	0.216528	0.866025	0.450683
1.848315	107.311859	-7.623179	-0.117816	0.866025	0.485921
-2.887864	107.489067	-7.622250	0.177148	0.866025	0.467567
-4.328084	107.843475	-7.621679	0.246901	0.866025	0.434787
-2.665588	107.444763	-7.621554	0.165067	0.866025	0.471967
6.100733	108.419388	-7.621317	-0.312462	0.866025	0.390342
1.035132	107.223259	-7.620605	-0.067299	0.866025	0.495450
-5.334476	108.153580	-7.620351	0.286739	0.866025	0.409610
1.505124	107.267555	-7.620095	-0.096888	0.866025	0.490523
-2.161862	107.356163	-7.620049	0.136468	0.866025	0.481016
4.634514	107.932076	-7.619534	-0.259832	0.866025	0.427186
3.304950	107.577667	-7.618468	-0.198987	0.866025	0.458698
-5.730971	108.286484	-7.616947	0.300613	0.866025	0.399540
-3.111920	107.533363	-7.616506	0.189112	0.866025	0.462857
-1.067784	107.223259	-7.616099	0.069421	0.866025	0.495157
-3.499479	107.621964	-7.615623	0.208770	0.866025	0.454329
-1.880970	107.311859	-7.615188	0.119898	0.866025	0.485412
-2.445274	107.400459	-7.614517	0.152877	0.866025	0.476055
-0.016316	107.178955	-7.613838	0.001071	0.866025	0.499999
0.048948	107.178955	-7.613698	-0.003214	0.866025	0.499990
-1.537769	107.267555	-7.613574	0.098990	0.866025	0.490103
5.476822	108.197884	-7.613423	-0.291982	0.866025	0.405890
-0.081580	107.178955	-7.613418	0.005357	0.866025	0.499971
-6.706738	108.640892	-7.613220	0.330511	0.866025	0.375183
5.987745	108.375084	-7.613019	-0.309105	0.866025	0.393006
0.114210	107.178955	-7.612998	-0.007500	0.866025	0.499944
-6.822964	108.685196	-7.612591	0.333715	0.866025	0.372336
-0.146837	107.178955	-7.612439	0.009643	0.866025	0.499907
-4.497134	107.887772	-7.612428	0.254318	0.866025	0.430491
-6.591007	108.596596	-7.612419	0.327283	0.866025	0.378002
4.025765	107.754868	-7.612417	-0.233747	0.866025	0.441998
3.859971	107.710571	-7.611876	-0.226136	0.866025	0.445940
0.179462	107.178955	-7.611740	-0.011785	0.866025	0.499861
1.100416	107.223259	-7.611453	-0.071543	0.866025	0.494855
-0.212084	107.178955	-7.610900	0.013927	0.866025	0.499806
2.194501	107.356163	-7.610713	-0.138528	0.866025	0.480427
-6.939668	108.729500	-7.610526	0.336894	0.866025	0.369462
-6.475786	108.552292	-7.610198	0.324031	0.866025	0.380794
2.698229	107.444763	-7.610060	-0.167089	0.866025	0.471255
0.244702	107.178955	-7.609922	-0.016069	0.866025	0.499742
2.920506	107.489067	-7.609802	-0.179151	0.866025	0.466803
4.192701	107.799171	-7.609491	-0.241290	0.866025	0.437926
-0.277315	107.178955	-7.608803	0.018211	0.866025	0.499668
3.695388	107.666267	-7.607908	-0.218458	0.866025	0.449751
0.309923	107.178955	-7.607544	-0.020353	0.866025	0.499586
1.913591	107.311859	-7.607056	-0.121977	0.866025	0.484893
-7.056834	108.773796	-7.607015	0.340049	0.866025	0.366561
1.570386	107.267555	-7.606913	-0.101089	0.866025	0.489674
-1.133028	107.223259	-7.606667	0.073663	0.866025	0.494544
-6.361091	108.507988	-7.606565	0.320755	0.866025	0.383557
-0.342526	107.178955	-7.606146	0.022494	0.866025	0.499494
-4.944639	108.020676	-7.605747	0.272529	0.866025	0.419199
5.084668	108.064980	-7.605332	-0.277896	0.866025	0.415660
0.375122	107.178955	-7.604609	-0.024634	0.866025	0.499393
-3.337572	107.577667	-7.604234	0.200951	0.866025	0.457841
-5.619864	108.242180	-7.604084	0.297177	0.866025	0.402102
2.477887	107.400459	-7.603967	-0.154916	0.866025	0.475396
4.805447	107.976379	-7.603829	-0.267117	0.866025	0.422668
5.875350	108.330788	-7.603348	-0.305725	0.866025	0.395642
3.144536	107.533363	-7.603098	-0.191094	0.866025	0.462042
4.360710	107.843475	-7.603059	-0.248762	0.866025	0.433725
-0.407711	107.178955	-7.602931	0.026774	0.866025	0.499283
-5.225496	108.109283	-7.602562	0.283218	0.866025	0.412053
1.165619	107.223259	-7.601740	-0.075782	0.866025	0.494224
-6.246938	108.463692	-7.601530	0.317455	0.866025	0.386293
-2.227100	107.356163	-7.601238	0.140586	0.866025	0.479829
0.440293	107.178955	-7.601114	-0.028914	0.866025	0.499163
3.532086	107.621964	-7.600555	-0.210716	0.866025	0.453430
-1.602975	107.267555	-7.600112	0.103187	0.866025	0.489237
-4.667128	107.932076	-7.599601	0.261660	0.866025	0.426068
-0.472867	107.178955	-7.599157	0.031053	0.866025	0.499035
-1.946177	107.311859	-7.598784	0.124054	0.866025	0.484366
-2.730820	107.444763	-7.598426	0.169107	0.866025	0.470535
5.367087	108.153580	-7.597418	-0.288492	0.866025	0.408377
-2.953094	107.489067	-7.597215	0.181150	0.866025	0.466031
0.505432	107.178955	-7.597060	-0.033192	0.866025	0.498897
-1.198189	107.223259	-7.596675	0.077900	0.866025	0.493894
-3.892559	107.710571	-7.595263	0.228045	0.866025	0.444967
-6.133342	108.419388	-7.595100	0.314133	0.866025	0.389000
-4.058354	107.754868	-7.595093	0.235639	0.866025	0.440992
-0.537988	107.178955	-7.594824	0.035330	0.866025	0.498750
-2.510454	107.400459	-7.593277	0.156952	0.866025	0.474727
1.635533	107.267555	-7.593173	-0.105283	0.866025	0.488790
4.529719	107.887772	-7.593083	-0.256160	0.866025	0.429397
0.570534	107.178955	-7.592449	-0.037467	0.866025	0.498594
5.763565	108.286484	-7.592315	-0.302322	0.866025	0.398248
-3.727961	107.666267	-7.592000	0.220383	0.866025	0.448811
2.259658	107.356163	-7.591623	-0.142641	0.866025	0.479222
1.230737	107.223259	-7.591470	-0.080016	0.866025	0.493556
-4.225277	107.799171	-7.591452	0.243165	0.866025	0.436888
1.978727	107.311859	-7.590374	-0.126129	0.866025	0.483830
-0.603069	107.178955	-7.589934	0.039603	0.866025	0.498429
-5.509402	108.197884	-7.589880	0.293719	0.866025	0.404634
3.370132	107.577667	-7.589859	-0.202911	0.866025	0.456976
