9.661528	62.246986	-7.298025	-0.398969	-0.866025	0.301369
0.992306	64.985497	-7.297709	-0.067368	-0.866025	0.495441
7.921393	63.019386	-7.297277	-0.367743	-0.866025	0.338769
7.247527	63.300259	-7.295859	-0.352376	-0.866025	0.354726
-10.116773	62.036331	-7.295613	0.405548	-0.866025	0.292457
-5.384890	64.002441	-7.295461	0.296931	-0.866025	0.402283
-5.587292	63.932224	-7.295435	0.304014	-0.866025	0.396957
12.154339	61.053272	-7.295329	-0.428704	-0.866025	0.257319
-2.903856	64.704628	-7.294611	0.184927	-0.866025	0.464545
-1.024632	64.985497	-7.293241	0.069562	-0.866025	0.495137
6.171802	63.721569	-7.293066	-0.322994	-0.866025	0.381674
-1.693609	64.915276	-7.292405	0.113111	-0.866025	0.487038
-8.734322	62.668293	-7.292402	0.383812	-0.866025	0.320450
-8.892650	62.598076	-7.291829	0.386637	-0.866025	0.317036
-8.576689	62.738514	-7.290747	0.380957	-0.866025	0.323839
-5.184264	64.072662	-7.290635	0.289755	-0.866025	0.407483
-5.791361	63.862003	-7.290496	0.311002	-0.866025	0.391507
-2.177245	64.845062	-7.289918	0.143087	-0.866025	0.479089
2.570280	64.774841	-7.289882	-0.166259	-0.866025	0.471548
-3.519036	64.564186	-7.289639	0.217370	-0.866025	0.450278
11.008021	61.615021	-7.289363	-0.416885	-0.866025	0.276056
11.443219	61.404366	-7.289145	-0.421712	-0.866025	0.268624
-9.051647	62.527859	-7.289017	0.389431	-0.866025	0.313597
1.056938	64.985497	-7.288629	-0.071755	-0.866025	0.494824
-4.529711	64.283318	-7.288118	0.263936	-0.866025	0.424662
4.756528	64.213097	-7.287830	-0.273279	-0.866025	0.418711
4.051057	64.423752	-7.287556	-0.242932	-0.866025	0.437017
-8.419778	62.808731	-7.286877	0.378073	-0.866025	0.327202
-12.017893	61.123493	-7.286060	0.427560	-0.866025	0.259216
3.799656	64.493973	-7.284835	-0.231229	-0.866025	0.443321
1.725905	64.915276	-7.284829	-0.115268	-0.866025	0.486532
9.823515	62.176765	-7.284561	-0.401624	-0.866025	0.297822
3.241824	64.634407	-7.284152	-0.203301	-0.866025	0.456803
-7.430721	63.230042	-7.284013	0.357061	-0.866025	0.350011
7.767697	63.089603	-7.283997	-0.364727	-0.866025	0.342015
-9.211286	62.457638	-7.283954	0.392195	-0.866025	0.310134
-1.089224	64.985497	-7.283875	0.073947	-0.866025	0.494502
4.305247	64.353531	-7.281985	-0.254463	-0.866025	0.430405
2.936150	64.704628	-7.281672	-0.186984	-0.866025	0.463721
-4.985524	64.142876	-7.281020	0.282488	-0.866025	0.412554
-8.263618	62.878948	-7.280804	0.375158	-0.866025	0.330540
-5.996987	63.791786	-7.280585	0.317892	-0.866025	0.385934
6.736599	63.510914	-7.280328	-0.339583	-0.866025	0.366992
2.209525	64.845062	-7.280200	-0.145209	-0.866025	0.478450
1.121488	64.985497	-7.278976	-0.076138	-0.866025	0.494169
-6.557822	63.581131	-7.278874	0.334675	-0.866025	0.371474
-2.602556	64.774841	-7.278422	0.168347	-0.866025	0.470807
-6.916560	63.440697	-7.278300	0.344432	-0.866025	0.362446
-1.758167	64.915276	-7.277110	0.117423	-0.866025	0.486016
-9.371537	62.387421	-7.276628	0.394928	-0.866025	0.306646
10.576507	61.825676	-7.276509	-0.411927	-0.866025	0.283401
-10.280301	61.966110	-7.275934	0.408124	-0.866025	0.288851
11.881770	61.193710	-7.275728	-0.426407	-0.866025	0.261108
-11.308520	61.474583	-7.273983	0.420518	-0.866025	0.270490
3.551302	64.564186	-7.273975	-0.219363	-0.866025	0.449311
6.380288	63.651352	-7.273969	-0.329708	-0.866025	0.375889
-1.153730	64.985497	-7.273936	0.078327	-0.866025	0.493827
7.097642	63.370476	-7.272758	-0.349219	-0.866025	0.357835
-8.108232	62.949169	-7.272543	0.372214	-0.866025	0.333851
-13.289065	60.491528	-7.272022	0.438622	-0.866025	0.240022
13.150280	60.561745	-7.271978	-0.437554	-0.866025	0.241963
5.417163	64.002441	-7.271529	-0.298711	-0.866025	0.400964
13.428106	60.421310	-7.270977	-0.439681	-0.866025	0.238076
-13.011759	60.631966	-7.270849	0.436478	-0.866025	0.243900
5.619563	63.932224	-7.270606	-0.305770	-0.866025	0.395606
-10.874508	61.685238	-7.270471	0.415658	-0.866025	0.277900
-2.241762	64.845062	-7.270338	0.147327	-0.866025	0.477802
-3.274069	64.634407	-7.269716	0.205323	-0.866025	0.455897
-4.083309	64.423752	-7.269534	0.244866	-0.866025	0.435936
1.790395	64.915276	-7.269248	-0.119575	-0.866025	0.485491
-13.567397	60.351089	-7.268842	0.440732	-0.866025	0.236126
9.986015	62.106548	-7.268795	-0.404248	-0.866025	0.294251
1.185950	64.985497	-7.268752	-0.080514	-0.866025	0.493475
12.873507	60.702183	-7.268636	-0.435393	-0.866025	0.245831
-2.968386	64.704628	-7.268590	0.189037	-0.866025	0.462888
7.614865	63.159821	-7.268571	-0.361682	-0.866025	0.345234
4.561960	64.283318	-7.267976	-0.265815	-0.866025	0.423488
-3.831898	64.493973	-7.267928	0.233191	-0.866025	0.442292
5.216518	64.072662	-7.267591	-0.291558	-0.866025	0.406195
-9.532374	62.317204	-7.267028	0.397630	-0.866025	0.303134
2.634781	64.774841	-7.266819	-0.170432	-0.866025	0.470056
-4.788774	64.213097	-7.266683	0.275131	-0.866025	0.417496
-6.204057	63.721569	-7.265647	0.324682	-0.866025	0.380239
13.706931	60.280872	-7.265614	-0.441774	-0.866025	0.234170
-12.735534	60.772400	-7.265342	0.434299	-0.866025	0.247758
5.823609	63.862003	-7.264763	-0.312734	-0.866025	0.390125
-11.745976	61.263927	-7.264333	0.425246	-0.866025	0.262994
-7.279784	63.300259	-7.263673	0.353945	-0.866025	0.353162
-1.218146	64.985497	-7.263426	0.082700	-0.866025	0.493113
-4.337471	64.353531	-7.262836	0.256368	-0.866025	0.429273
-7.953650	63.019386	-7.262105	0.369241	-0.866025	0.337137
-13.846701	60.210655	-7.261291	0.442807	-0.866025	0.232211
-1.822587	64.915276	-7.261243	0.121725	-0.866025	0.484957
12.597843	60.842621	-7.260969	-0.433197	-0.866025	0.249680
2.273955	64.845062	-7.260333	-0.149443	-0.866025	0.477144
5.017737	64.142876	-7.258858	-0.284313	-0.866025	0.411298
-3.583498	64.564186	-7.258168	0.221351	-0.866025	0.448334
1.250318	64.985497	-7.257957	-0.084884	-0.866025	0.492742
11.174183	61.544804	-7.257772	-0.419315	-0.866025	0.272350
13.986698	60.140438	-7.255870	-0.443832	-0.866025	0.230246
-12.460443	60.912838	-7.255519	0.432087	-0.866025	0.251597
3.000564	64.704628	-7.255366	-0.191086	-0.866025	0.462046
-9.693770	62.246986	-7.255143	0.400301	-0.866025	0.299599
3.306249	64.634407	-7.255137	-0.207341	-0.866025	0.454983
-2.666955	64.774841	-7.255073	0.172513	-0.866025	0.469297
6.029189	63.791786	-7.253942	-0.319599	-0.866025	0.384521
-10.444268	61.895893	-7.253924	0.410667	-0.866025	0.285223
8.766548	62.668293	-7.253628	-0.385228	-0.866025	0.318746
1.854744	64.915276	-7.253096	-0.123873	-0.866025	0.484413
8.608910	62.738514	-7.252672	-0.382389	-0.866025	0.322147
8.924873	62.598076	-7.252354	-0.388038	-0.866025	0.315320
-1.282466	64.985497	-7.252346	0.087067	-0.866025	0.492361
11.610519	61.334148	-7.251879	-0.424076	-0.866025	0.264876
4.115480	64.423752	-7.251370	-0.246795	-0.866025	0.434847
7.462924	63.230042	-7.251016	-0.358608	-0.866025	0.348425
3.864064	64.493973	-7.250877	-0.235149	-0.866025	0.441254
10.149000	62.036331	-7.250714	-0.406840	-0.866025	0.290657
10.741381	61.755455	-7.250540	-0.414422	-0.866025	0.279739
-6.768793	63.510914	-7.250407	0.341206	-0.866025	0.365484
-2.306103	64.845062	-7.250186	0.151556	-0.866025	0.476478
6.590010	63.581131	-7.249745	-0.336318	-0.866025	0.369987
-7.799896	63.089603	-7.249506	0.366239	-0.866025	0.340396
8.451983	62.808731	-7.249497	-0.379519	-0.866025	0.325524
-14.126918	60.070217	-7.249351	0.444848	-0.866025	0.228277
12.323342	60.983055	-7.248996	-0.430968	-0.866025	0.253509
9.083856	62.527859	-7.248838	-0.390817	-0.866025	0.311869
-4.594120	64.283318	-7.247690	0.267689	-0.866025	0.422306
6.948742	63.440697	-7.247581	-0.346034	-0.866025	0.360916
-5.449330	64.002441	-7.247454	0.300485	-0.866025	0.399636
1.314589	64.985497	-7.246592	-0.089247	-0.866025	0.491970
-5.651724	63.932224	-7.245634	0.307520	-0.866025	0.394248
-6.412456	63.651352	-7.245627	0.331370	-0.866025	0.374425
4.820926	64.213097	-7.245392	-0.276979	-0.866025	0.416273
-1.886864	64.915276	-7.244807	0.126018	-0.866025	0.483859
-5.248670	64.072662	-7.244406	0.293355	-0.866025	0.404899
8.295797	62.878948	-7.244117	-0.376619	-0.866025	0.328874
4.369611	64.353531	-7.243546	-0.258268	-0.866025	0.428133
0.016047	65.055717	-7.243226	-0.001108	-0.866025	0.499999
2.699075	64.774841	-7.243184	-0.174591	-0.866025	0.468528
-0.048142	65.055717	-7.243083	0.003323	-0.866025	0.499989
9.243470	62.457638	-7.243067	-0.393565	-0.866025	0.308393
0.080236	65.055717	-7.242799	-0.005539	-0.866025	0.499969
-0.112328	65.055717	-7.242372	0.007754	-0.866025	0.499940
3.615624	64.564186	-7.242218	-0.223336	-0.866025	0.447349
-3.032683	64.704628	-7.241999	0.193131	-0.866025	0.461194
0.144418	65.055717	-7.241803	-0.009969	-0.866025	0.499901
14.267352	60.000000	-7.241730	-0.445855	-0.866025	0.226304
-12.186545	61.053272	-7.241401	0.429840	-0.866025	0.255416
-7.129798	63.370476	-7.241238	0.350801	-0.866025	0.356284
-0.176505	65.055717	-7.241092	0.012184	-0.866025	0.499852
-9.855697	62.176765	-7.240962	0.402940	-0.866025	0.296039
-1.346686	64.985497	-7.240695	0.091426	-0.866025	0.491570
-11.040213	61.615021	-7.240515	0.418104	-0.866025	0.274206
-3.338364	64.634407	-7.240416	0.209355	-0.866025	0.454060
0.208588	65.055717	-7.240239	-0.014399	-0.866025	0.499793
2.338206	64.845062	-7.239896	-0.153665	-0.866025	0.475801
-0.240668	65.055717	-7.239244	0.016613	-0.866025	0.499724
-5.855742	63.862003	-7.238887	0.314459	-0.866025	0.388736
-11.475405	61.404366	-7.238368	0.422898	-0.866025	0.266753
0.272743	65.055717	-7.238106	-0.018827	-0.866025	0.499645
6.236190	63.721569	-7.238085	-0.326364	-0.866025	0.378797
-0.304812	65.055717	-7.236827	0.021041	-0.866025	0.499557
-5.049852	64.142876	-7.236553	0.286132	-0.866025	0.410034
8.140377	62.949169	-7.236544	-0.373690	-0.866025	0.332199
1.918947	64.915276	-7.236375	-0.128161	-0.866025	0.483296
0.336875	65.055717	-7.235405	-0.023254	-0.866025	0.499459
9.403687	62.387421	-7.235031	-0.396283	-0.866025	0.304893
-7.646997	63.159821	-7.234758	0.363208	-0.866025	0.343628
1.378756	64.985497	-7.234657	-0.093604	-0.866025	0.491160
-0.368932	65.055717	-7.233841	0.025467	-0.866025	0.499351
-3.896155	64.493973	-7.233684	0.237102	-0.866025	0.440208
-4.147571	64.423752	-7.233063	0.248720	-0.866025	0.433749
12.050059	61.123493	-7.232738	-0.428704	-0.866025	0.257319
0.400982	65.055717	-7.232136	-0.027680	-0.866025	0.499233
7.311898	63.300259	-7.231346	-0.355506	-0.866025	0.351590
-2.731143	64.774841	-7.231153	0.176665	-0.866025	0.467749
10.312440	61.966110	-7.230310	-0.409399	-0.866025	0.287040
-0.433023	65.055717	-7.230288	0.029892	-0.866025	0.499106
-10.608645	61.825676	-7.229573	0.413179	-0.866025	0.281573
-2.370263	64.845062	-7.229465	0.155772	-0.866025	0.475116
3.064743	64.704628	-7.228490	-0.195173	-0.866025	0.460334
-1.410799	64.985497	-7.228477	0.095779	-0.866025	0.490741
0.465057	65.055717	-7.228298	-0.032103	-0.866025	0.498968
-1.950993	64.915276	-7.227801	0.130301	-0.866025	0.482723
4.626190	64.283318	-7.227262	-0.269558	-0.866025	0.421116
-6.061272	63.791786	-7.227155	0.321299	-0.866025	0.383101
7.985750	63.019386	-7.226792	-0.370731	-0.866025	0.335497
-0.497081	65.055717	-7.226167	0.034313	-0.866025	0.498821
-3.647679	64.564186	-7.226126	0.225316	-0.866025	0.446355
3.370413	64.634407	-7.225553	-0.211365	-0.866025	0.453128
9.564481	62.317204	-7.224719	-0.398969	-0.866025	0.301369
-10.018126	62.106548	-7.224475	0.405548	-0.866025	0.292457
-4.401664	64.353531	-7.224113	0.260162	-0.866025	0.426984
-4.852983	64.213097	-7.223959	0.278820	-0.866025	0.415041
0.529095	65.055717	-7.223893	-0.036523	-0.866025	0.498664
11.340640	61.474583	-7.223804	-0.421712	-0.866025	0.268624
5.481390	64.002441	-7.223237	-0.302253	-0.866025	0.398301
-11.913892	61.193710	-7.223008	0.427560	-0.866025	0.259216
10.906617	61.685238	-7.222215	-0.416885	-0.866025	0.276056
1.442815	64.985497	-7.222155	-0.097953	-0.866025	0.490311
-0.561099	65.055717	-7.221478	0.038733	-0.866025	0.498498
5.280718	64.072662	-7.221078	-0.295146	-0.866025	0.403595
5.683774	63.932224	-7.220520	-0.309264	-0.866025	0.392881
-6.622069	63.581131	-7.220473	0.337954	-0.866025	0.368493
6.800853	63.510914	-7.220343	-0.342822	-0.866025	0.363968
1.983000	64.915276	-7.219085	-0.132439	-0.866025	0.482141
2.763158	64.774841	-7.218980	-0.178736	-0.866025	0.466962
0.593092	65.055717	-7.218921	-0.040941	-0.866025	0.498321
2.402274	64.845062	-7.218891	-0.157876	-0.866025	0.474421
-7.494979	63.230042	-7.217877	0.360148	-0.866025	0.346833
6.444499	63.651352	-7.217142	-0.333026	-0.866025	0.372953
-6.980788	63.440697	-7.216720	0.347630	-0.866025	0.359379
3.928169	64.493973	-7.216349	-0.239050	-0.866025	0.439153
-0.625073	65.055717	-7.216222	0.043149	-0.866025	0.498135
-1.474802	64.985497	-7.215691	0.100124	-0.866025	0.489873
7.831942	63.089603	-7.214874	-0.367743	-0.866025	0.338769
-3.096742	64.704628	-7.214839	0.197211	-0.866025	0.459465
-8.798603	62.668293	-7.214713	0.386637	-0.866025	0.317036
4.179580	64.423752	-7.214614	-0.250639	-0.866025	0.432643
-8.640962	62.738514	-7.214454	0.383812	-0.866025	0.320450
5.081868	64.142876	-7.214106	-0.287947	-0.866025	0.408763
-13.182373	60.561745	-7.213638	0.438622	-0.866025	0.240022
0.657042	65.055717	-7.213381	-0.045356	-0.866025	0.497939
13.043848	60.631966	-7.213123	-0.437554	-0.866025	0.241963
13.321157	60.491528	-7.213067	-0.439681	-0.866025	0.238076
5.887760	63.862003	-7.212869	-0.316179	-0.866025	0.387338
-8.956921	62.598076	-7.212737	0.389431	-0.866025	0.313597
11.778049	61.263927	-7.212215	-0.426407	-0.866025	0.261108
9.725823	62.246986	-7.212118	-0.401624	-0.866025	0.297822
-8.484023	62.808731	-7.211975	0.380957	-0.866025	0.323839
-12.905588	60.702183	-7.211522	0.436478	-0.866025	0.243900
-13.460193	60.421310	-7.211406	0.440732	-0.866025	0.236126
-3.402397	64.634407	-7.210547	0.213371	-0.866025	0.452187
-0.688998	65.055717	-7.210399	0.047561	-0.866025	0.497733
-6.268201	63.721569	-7.210382	0.328039	-0.866025	0.377347
-2.014969	64.915276	-7.210227	0.134574	-0.866025	0.481550
3.679662	64.564186	-7.209892	-0.227291	-0.866025	0.445352
7.161814	63.370476	-7.209574	-0.352376	-0.866025	0.354726
1.506760	64.985497	-7.209085	-0.102294	-0.866025	0.489424
12.767601	60.772400	-7.208839	-0.435393	-0.866025	0.245831
13.599473	60.351089	-7.208653	-0.441774	-0.866025	0.234170
-9.115887	62.527859	-7.208516	0.392195	-0.866025	0.310134
-11.206232	61.544804	-7.208188	0.420518	-0.866025	0.270490
-2.434237	64.845062	-7.208176	0.159977	-0.866025	0.473717
10.476308	61.895893	-7.207574	-0.411927	-0.866025	0.283401
-8.327814	62.878948	-7.207287	0.378073	-0.866025	0.327202
0.720941	65.055717	-7.207275	-0.049766	-0.866025	0.497517
-4.658168	64.283318	-7.206693	0.271421	-0.866025	0.419918
-2.795118	64.774841	-7.206666	0.180803	-0.866025	0.466165
-10.181028	62.036331	-7.205673	0.408124	-0.866025	0.288851
-12.629893	60.842621	-7.205076	0.434299	-0.866025	0.247758
-13.738991	60.280872	-7.204807	0.442807	-0.866025	0.232211
4.433631	64.353531	-7.204538	-0.262052	-0.866025	0.425827
-0.752869	65.055717	-7.204010	0.051970	-0.866025	0.497292
-10.773402	61.755455	-7.202874	0.415658	-0.866025	0.277900
4.884945	64.213097	-7.202385	-0.280657	-0.866025	0.413802
-1.538689	64.985497	-7.202338	0.104461	-0.866025	0.488966
-9.275474	62.457638	-7.202038	0.394928	-0.866025	0.306646
2.046897	64.915276	-7.201229	-0.136706	-0.866025	0.480948
3.128681	64.704628	-7.201047	-0.199245	-0.866025	0.458586
7.678979	63.159821	-7.200804	-0.364727	-0.866025	0.342015
0.784783	65.055717	-7.200603	-0.054173	-0.866025	0.497057
-8.172362	62.949169	-7.200403	0.375158	-0.866025	0.330540
-11.642538	61.334148	-7.200361	0.425246	-0.866025	0.262994
12.492471	60.912838	-7.200236	-0.433197	-0.866025	0.249680
6.093236	63.791786	-7.200226	-0.322994	-0.866025	0.381674
13.878739	60.210655	-7.199864	-0.443832	-0.866025	0.230246
-5.513342	64.002441	-7.198878	0.304014	-0.866025	0.396957
-7.343868	63.300259	-7.198875	0.357061	-0.866025	0.350011
-3.960106	64.493973	-7.198873	0.240993	-0.866025	0.438089
-5.312663	64.072662	-7.197608	0.296931	-0.866025	0.402283
2.466153	64.845062	-7.197319	-0.162074	-0.866025	0.473003
9.887685	62.176765	-7.197220	-0.404248	-0.866025	0.294251
-0.816681	65.055717	-7.197055	0.056375	-0.866025	0.496812
-4.211506	64.423752	-7.196023	0.252554	-0.866025	0.431528
1.570587	64.985497	-7.195449	-0.106627	-0.866025	0.488498
3.434313	64.634407	-7.195401	-0.215372	-0.866025	0.451237
-5.715712	63.932224	-7.195264	0.311002	-0.866025	0.391507
-12.355342	60.983055	-7.194320	0.432087	-0.866025	0.251597
2.827024	64.774841	-7.194210	-0.182867	-0.866025	0.465360
-14.018712	60.140438	-7.193824	0.444848	-0.866025	0.228277
-3.711573	64.564186	-7.193517	0.229262	-0.866025	0.444341
0.848563	65.055717	-7.193366	-0.058576	-0.866025	0.496557
-9.435654	62.387421	-7.193293	0.397630	-0.866025	0.303134
-2.078786	64.915276	-7.192088	0.138836	-0.866025	0.480338
11.072187	61.615021	-7.191525	-0.419315	-0.866025	0.272350
-5.113783	64.142876	-7.191517	0.289755	-0.866025	0.407483
-8.017694	63.019386	-7.191336	0.372214	-0.866025	0.333851
6.653998	63.581131	-7.191060	-0.339583	-0.866025	0.366992
-6.832779	63.510914	-7.190137	0.344432	-0.866025	0.362446
-0.880429	65.055717	-7.189535	0.060776	-0.866025	0.496293
-6.476415	63.651352	-7.188516	0.334675	-0.866025	0.371474
-1.602455	64.985497	-7.188419	0.108791	-0.866025	0.488021
11.507365	61.404366	-7.187449	-0.424076	-0.866025	0.264876
12.218513	61.053272	-7.187331	-0.430968	-0.866025	0.253509
-3.160558	64.704628	-7.187113	0.201275	-0.866025	0.457699
-5.919662	63.862003	-7.186710	0.317892	-0.866025	0.385934
14.158901	60.070217	-7.186683	-0.445855	-0.866025	0.226304
-2.498020	64.845062	-7.186321	0.164168	-0.866025	0.472280
4.690055	64.283318	-7.185982	-0.273279	-0.866025	0.418711
7.012697	63.440697	-7.185718	-0.349219	-0.866025	0.357835
0.912277	65.055717	-7.185564	-0.062974	-0.866025	0.496018
-4.465510	64.353531	-7.184822	0.263936	-0.866025	0.424662
7.526888	63.230042	-7.184596	-0.361682	-0.866025	0.345234
-10.344377	61.966110	-7.184545	0.410667	-0.866025	0.285223
2.110634	64.915276	-7.182806	-0.140963	-0.866025	0.479718
6.300088	63.721569	-7.182537	-0.329708	-0.866025	0.375889
10.640575	61.825676	-7.182495	-0.414422	-0.866025	0.279739
-9.596400	62.317204	-7.182267	0.400301	-0.866025	0.299599
-2.858873	64.774841	-7.181613	0.184927	-0.866025	0.464545
-0.944107	65.055717	-7.181451	0.065172	-0.866025	0.495734
3.991966	64.493973	-7.181255	-0.242932	-0.866025	0.437017
1.634291	64.985497	-7.181248	-0.110952	-0.866025	0.487534
-4.916811	64.213097	-7.180669	0.282488	-0.866025	0.412554
-3.466162	64.634407	-7.180112	0.217370	-0.866025	0.450278
-7.863834	63.089603	-7.180099	0.369241	-0.866025	0.337137
10.050038	62.106548	-7.180014	-0.406840	-0.866025	0.290657
-12.081990	61.123493	-7.179273	0.429840	-0.866025	0.255416
-14.299300	60.000000	-7.178440	0.446853	-0.866025	0.224326
-7.193689	63.370476	-7.177769	0.353945	-0.866025	0.353162
4.243351	64.423752	-7.177291	-0.254463	-0.866025	0.430405
0.975919	65.055717	-7.177197	-0.067368	-0.866025	0.495441
3.743411	64.564186	-7.177001	-0.231229	-0.866025	0.443321
8.672844	62.738514	-7.176095	-0.385228	-0.866025	0.318746
8.830485	62.668293	-7.175655	-0.388038	-0.866025	0.315320
2.529838	64.845062	-7.175181	-0.166259	-0.866025	0.471548
5.545187	64.002441	-7.174377	-0.305770	-0.866025	0.395606
8.515896	62.808731	-7.174312	-0.382389	-0.866025	0.322147
5.344503	64.072662	-7.173997	-0.298711	-0.866025	0.400964
-1.666095	64.985497	-7.173936	0.113111	-0.866025	0.487038
-10.938512	61.685238	-7.173817	0.418104	-0.866025	0.274206
-11.372538	61.474583	-7.173482	0.422898	-0.866025	0.266753
-2.142440	64.915276	-7.173384	0.143087	-0.866025	0.479089
-6.125080	63.791786	-7.173156	0.324682	-0.866025	0.380239
3.192373	64.704628	-7.173038	-0.203301	-0.866025	0.456803
8.988792	62.598076	-7.172978	-0.390817	-0.866025	0.311869
-1.007712	65.055717	-7.172802	0.069562	-0.866025	0.495137
8.359669	62.878948	-7.170316	-0.379519	-0.866025	0.325524
11.945781	61.193710	-7.170146	-0.428704	-0.866025	0.257319
5.747539	63.932224	-7.169868	-0.312734	-0.866025	0.390125
-9.757685	62.246986	-7.168952	0.402940	-0.866025	0.296039
2.890667	64.774841	-7.168875	-0.186984	-0.866025	0.463721
5.145599	64.142876	-7.168787	-0.291558	-0.866025	0.406195
1.039484	65.055717	-7.168266	-0.071755	-0.866025	0.494824
9.147738	62.527859	-7.168053	-0.393565	-0.866025	0.308393
-7.710811	63.159821	-7.166708	0.366239	-0.866025	0.340396
1.697867	64.985497	-7.166483	-0.115268	-0.866025	0.486532
7.375694	63.300259	-7.166264	-0.358608	-0.866025	0.348425
-4.721850	64.283318	-7.165130	0.275131	-0.866025	0.417496
4.497303	64.353531	-7.164965	-0.265815	-0.866025	0.423488
3.497943	64.634407	-7.164683	-0.219363	-0.866025	0.449311
8.204187	62.949169	-7.164120	-0.376619	-0.866025	0.328874
-2.561606	64.845062	-7.163901	0.168347	-0.866025	0.470807
2.174204	64.915276	-7.163820	-0.145209	-0.866025	0.478450
-1.071237	65.055717	-7.163590	0.073947	-0.866025	0.494502
-4.023747	64.493973	-7.163496	0.244866	-0.866025	0.435936
-6.685797	63.581131	-7.161505	0.341206	-0.866025	0.365484
-10.508142	61.895893	-7.161083	0.413179	-0.866025	0.281573
9.307295	62.457638	-7.160868	-0.396283	-0.866025	0.304893
10.212856	62.036331	-7.160490	-0.409399	-0.866025	0.287040
5.951448	63.862003	-7.160409	-0.319599	-0.866025	0.384521
-3.775176	64.564186	-7.160343	0.233191	-0.866025	0.442292
-11.809891	61.263927	-7.159956	0.427560	-0.866025	0.259216
6.864572	63.510914	-7.159791	-0.346034	-0.866025	0.360916
6.508204	63.651352	-7.159748	-0.336318	-0.866025	0.369987
-1.729605	64.985497	-7.158890	0.117423	-0.866025	0.486016
-3.224125	64.704628	-7.158822	0.205323	-0.866025	0.455897
4.948580	64.213097	-7.158812	-0.284313	-0.866025	0.411298
1.102968	65.055717	-7.158773	-0.076138	-0.866025	0.494169
11.238062	61.544804	-7.158463	-0.421712	-0.866025	0.268624
-4.275112	64.423752	-7.158419	0.256368	-0.866025	0.429273
-2.922404	64.774841	-7.155996	0.189037	-0.866025	0.462888
8.049479	63.019386	-7.155739	-0.373690	-0.866025	0.332199
-13.075682	60.631966	-7.155254	0.438622	-0.866025	0.240022
13.214208	60.561745	-7.155156	-0.439681	-0.866025	0.238076
10.805213	61.755455	-7.155066	-0.416885	-0.866025	0.276056
-7.044468	63.440697	-7.154573	0.350801	-0.866025	0.356284
-6.331852	63.721569	-7.154551	0.331370	-0.866025	0.374425
12.937416	60.702183	-7.154267	-0.437554	-0.866025	0.241963
-2.205926	64.915276	-7.154116	0.147327	-0.866025	0.477802
-13.352987	60.491528	-7.153970	0.440732	-0.866025	0.236126
-1.134678	65.055717	-7.153816	0.078327	-0.866025	0.493827
-9.919478	62.176765	-7.153337	0.405548	-0.866025	0.292457
2.593325	64.845062	-7.152481	-0.170432	-0.866025	0.470056
-12.799418	60.772400	-7.152195	0.436478	-0.866025	0.243900
13.492014	60.421310	-7.151693	-0.441774	-0.866025	0.234170
9.467435	62.387421	-7.151412	-0.398969	-0.866025	0.301369
-7.558650	63.230042	-7.151173	0.363208	-0.866025	0.343628
1.761309	64.985497	-7.151155	-0.119575	-0.866025	0.485491
-5.376239	64.072662	-7.150245	0.300485	-0.866025	0.399636
-5.576921	64.002441	-7.149736	0.307520	-0.866025	0.394248
-3.529656	64.634407	-7.149114	0.221351	-0.866025	0.448334
12.661695	60.842621	-7.149043	-0.435393	-0.866025	0.245831
1.166365	65.055717	-7.148718	-0.080514	-0.866025	0.493475
11.674329	61.334148	-7.148703	-0.426407	-0.866025	0.261108
-13.631281	60.351089	-7.148323	0.442807	-0.866025	0.232211
6.156805	63.791786	-7.145946	-0.326364	-0.866025	0.378797
-5.177313	64.142876	-7.145917	0.293355	-0.866025	0.404899
7.225423	63.370476	-7.145823	-0.355506	-0.866025	0.351590
4.055449	64.493973	-7.145596	-0.246795	-0.866025	0.434847
7.895572	63.089603	-7.145185	-0.370731	-0.866025	0.335497
-4.529006	64.353531	-7.144967	0.267689	-0.866025	0.422306
-12.524253	60.912838	-7.144811	0.434299	-0.866025	0.247758
3.255814	64.704628	-7.144466	-0.207341	-0.866025	0.454983
-5.779252	63.932224	-7.144330	0.314459	-0.866025	0.388736
2.237604	64.915276	-7.144271	-0.149443	-0.866025	0.477144
4.753553	64.283318	-7.144137	-0.276979	-0.866025	0.416273
13.770781	60.280872	-7.143858	-0.443832	-0.866025	0.230246
3.806866	64.564186	-7.143545	-0.235149	-0.866025	0.441254
-1.198030	65.055717	-7.143479	0.082700	-0.866025	0.493113
-1.792978	64.985497	-7.143281	0.121725	-0.866025	0.484957
2.954084	64.774841	-7.142976	-0.191086	-0.866025	0.462046
-11.103944	61.615021	-7.142394	0.420518	-0.866025	0.270490
-2.624992	64.845062	-7.140919	0.172513	-0.866025	0.469297
9.628131	62.317204	-7.139675	-0.401624	-0.866025	0.297822
12.387098	60.983055	-7.139503	-0.433197	-0.866025	0.249680
4.306789	64.423752	-7.139406	-0.258268	-0.866025	0.428133
10.376110	61.966110	-7.138638	-0.411927	-0.866025	0.283401
-13.910505	60.210655	-7.138297	0.444848	-0.866025	0.228277
1.229671	65.055717	-7.138101	-0.084884	-0.866025	0.492742
-8.704556	62.738514	-7.137596	0.386637	-0.866025	0.317036
-4.980252	64.213097	-7.136815	0.286132	-0.866025	0.410034
-8.547602	62.808731	-7.136507	0.383812	-0.866025	0.320450
-8.862194	62.668293	-7.136456	0.389431	-0.866025	0.313597
-11.539101	61.404366	-7.136390	0.425246	-0.866025	0.262994
-10.081755	62.106548	-7.135412	0.408124	-0.866025	0.288851
-10.672297	61.825676	-7.135276	0.415658	-0.866025	0.277900
1.824613	64.985497	-7.135266	-0.123873	-0.866025	0.484413
-2.269238	64.915276	-7.134286	0.151556	-0.866025	0.476478
-5.983118	63.862003	-7.133968	0.321299	-0.866025	0.383101
-7.407376	63.300259	-7.133512	0.360148	-0.866025	0.346833
3.561299	64.634407	-7.133404	-0.223336	-0.866025	0.447349
-8.391358	62.878948	-7.133204	0.380957	-0.866025	0.323839
-12.250239	61.053272	-7.133121	0.432087	-0.866025	0.251597
-9.020488	62.598076	-7.133078	0.392195	-0.866025	0.310134
-1.261288	65.055717	-7.132582	0.087067	-0.866025	0.492361
7.742491	63.159821	-7.132470	-0.367743	-0.866025	0.338769
6.717463	63.581131	-7.131810	-0.342822	-0.866025	0.363968
14.050450	60.140438	-7.131636	-0.445855	-0.866025	0.226304
-6.539864	63.651352	-7.130840	0.337954	-0.866025	0.368493
-3.287440	64.704628	-7.129969	0.209355	-0.866025	0.454060
-2.985705	64.774841	-7.129817	0.193131	-0.866025	0.461194
-6.896229	63.510914	-7.129304	0.347630	-0.866025	0.359379
2.656608	64.845062	-7.129218	-0.174591	-0.866025	0.468528
-8.235851	62.949169	-7.127697	0.378073	-0.866025	0.327202
-4.087071	64.493973	-7.127556	0.248720	-0.866025	0.433749
-9.179410	62.527859	-7.127449	0.394928	-0.866025	0.306646
-1.856211	64.985497	-7.127111	0.126018	-0.866025	0.483859
1.292880	65.055717	-7.126923	-0.089247	-0.866025	0.491970
-3.838482	64.564186	-7.126606	0.237102	-0.866025	0.440208
6.363492	63.721569	-7.126424	-0.333026	-0.866025	0.372953
5.407869	64.072662	-7.126353	-0.302253	-0.866025	0.398301
12.113683	61.123493	-7.125667	-0.430968	-0.866025	0.253509
9.789354	62.246986	-7.125646	-0.404248	-0.866025	0.294251
10.970192	61.685238	-7.125278	-0.419315	-0.866025	0.272350
5.608547	64.002441	-7.124955	-0.309264	-0.866025	0.392881
4.560621	64.353531	-7.124829	-0.269558	-0.866025	0.421116
2.300828	64.915276	-7.124161	-0.153665	-0.866025	0.475801
-14.190606	60.070217	-7.123875	0.446853	-0.866025	0.224326
7.076101	63.440697	-7.123290	-0.352376	-0.866025	0.354726
11.404212	61.474583	-7.123020	-0.424076	-0.866025	0.264876
-4.785162	64.283318	-7.123003	0.278820	-0.866025	0.415041
5.208926	64.142876	-7.122906	-0.295146	-0.866025	0.403595
0.015778	65.125931	-7.121604	-0.001108	-0.866025	0.499999
-0.047334	65.125931	-7.121464	0.003323	-0.866025	0.499989
0.078888	65.125931	-7.121185	-0.005539	-0.866025	0.499969
-1.324447	65.055717	-7.121124	0.091426	-0.866025	0.491570
-0.110442	65.125931	-7.120765	0.007754	-0.866025	0.499940
-4.338381	64.423752	-7.120252	0.260162	-0.866025	0.426984
0.141993	65.125931	-7.120206	-0.009969	-0.866025	0.499901
-8.081108	63.019386	-7.120001	0.375158	-0.866025	0.330540
-9.338933	62.457638	-7.119557	0.397630	-0.866025	0.303134
-0.173541	65.125931	-7.119507	0.012184	-0.866025	0.499852
1.887773	64.985497	-7.118816	-0.128161	-0.866025	0.483296
0.205086	65.125931	-7.118668	-0.014399	-0.866025	0.499793
5.810852	63.932224	-7.118652	-0.316179	-0.866025	0.387338
-6.188408	63.791786	-7.118595	0.328039	-0.866025	0.377347
-0.236627	65.125931	-7.117690	0.016613	-0.866025	0.499724
7.590262	63.230042	-7.117611	-0.364727	-0.866025	0.342015
-3.592872	64.634407	-7.117553	0.225316	-0.866025	0.446355
-2.688171	64.845062	-7.117376	0.176665	-0.866025	0.467749
-11.977434	61.193710	-7.117145	0.429840	-0.866025	0.255416
0.268163	65.125931	-7.116571	-0.018827	-0.866025	0.499645
3.017268	64.774841	-7.116517	-0.195173	-0.866025	0.460334
3.319000	64.704628	-7.115333	-0.211365	-0.866025	0.453128
-0.299694	65.125931	-7.115313	0.021041	-0.866025	0.499557
1.355987	65.055717	-7.115186	-0.093604	-0.866025	0.491160
-10.244485	62.036331	-7.115166	0.410667	-0.866025	0.285223
14.330968	60.000000	-7.115010	-0.447843	-0.866025	0.222344
5.011827	64.213097	-7.114677	-0.287947	-0.866025	0.408763
10.539770	61.895893	-7.114450	-0.414422	-0.866025	0.279739
0.331219	65.125931	-7.113915	-0.023254	-0.866025	0.499459
-2.332373	64.915276	-7.113896	0.155772	-0.866025	0.475116
-7.257016	63.370476	-7.113738	0.357061	-0.866025	0.350011
-0.362737	65.125931	-7.112378	0.025467	-0.866025	0.499351
0.394249	65.125931	-7.110701	-0.027680	-0.866025	0.499233
-1.919298	64.985497	-7.110382	0.130301	-0.866025	0.482723
-7.927155	63.089603	-7.110129	0.372214	-0.866025	0.333851
3.870022	64.564186	-7.109528	-0.239050	-0.866025	0.439153
-9.499030	62.387421	-7.109392	0.400301	-0.866025	0.299599
4.118613	64.493973	-7.109376	-0.250639	-0.866025	0.432643
9.951077	62.176765	-7.109313	-0.406840	-0.866025	0.290657
-1.387501	65.055717	-7.109107	0.095779	-0.866025	0.490741
-0.425753	65.125931	-7.108884	0.029892	-0.866025	0.499106
-11.269670	61.544804	-7.108596	0.422898	-0.866025	0.266753
11.841501	61.263927	-7.107556	-0.428704	-0.866025	0.257319
6.014670	63.862003	-7.107387	-0.322994	-0.866025	0.381674
-10.836811	61.755455	-7.107118	0.418104	-0.866025	0.274206
0.457248	65.125931	-7.106927	-0.032103	-0.866025	0.498968
2.719682	64.845062	-7.105395	-0.178736	-0.866025	0.466962
-0.488734	65.125931	-7.104832	0.034313	-0.866025	0.498821
-4.592147	64.353531	-7.104551	0.271421	-0.866025	0.419918
2.363872	64.915276	-7.103491	-0.157876	-0.866025	0.474421
-3.048772	64.774841	-7.103077	0.197211	-0.866025	0.459465
1.418988	65.055717	-7.102890	-0.097953	-0.866025	0.490311
0.520211	65.125931	-7.102596	-0.036523	-0.866025	0.498664
-5.439393	64.072662	-7.102320	0.304014	-0.866025	0.396957
-6.748999	63.581131	-7.101975	0.344432	-0.866025	0.362446
1.950785	64.985497	-7.101808	-0.132439	-0.866025	0.482141
6.571397	63.651352	-7.101791	-0.339583	-0.866025	0.366992
4.816677	64.283318	-7.101730	-0.280657	-0.866025	0.413802
3.624375	64.634407	-7.101563	-0.227291	-0.866025	0.445352
4.369888	64.423752	-7.100959	-0.262052	-0.866025	0.425827
7.438912	63.300259	-7.100620	-0.361682	-0.866025	0.345234
-3.350496	64.704628	-7.100556	0.213371	-0.866025	0.452187
-0.551677	65.125931	-7.100222	0.038733	-0.866025	0.498498
-5.640063	64.002441	-7.100033	0.311002	-0.866025	0.391507
-5.240437	64.142876	-7.099755	0.296931	-0.866025	0.402283
8.736097	62.738514	-7.098956	-0.388038	-0.866025	0.315320
6.927752	63.510914	-7.098677	-0.349219	-0.866025	0.357835
8.579140	62.808731	-7.098563	-0.385228	-0.866025	0.318746
-6.395007	63.721569	-7.098157	0.334675	-0.866025	0.371474
-7.774019	63.159821	-7.098093	0.369241	-0.866025	0.337137
0.583133	65.125931	-7.097707	-0.040941	-0.866025	0.498321
13.107258	60.631966	-7.097246	-0.439681	-0.866025	0.238076
8.893728	62.668293	-7.097118	-0.390817	-0.866025	0.311869
-9.659672	62.317204	-7.096943	0.402940	-0.866025	0.296039
-11.705891	61.334148	-7.096903	0.427560	-0.866025	0.259216
-12.968989	60.702183	-7.096871	0.438622	-0.866025	0.240022
-13.245782	60.561745	-7.096534	0.440732	-0.866025	0.236126
-1.450447	65.055717	-7.096533	0.100124	-0.866025	0.489873
8.422883	62.878948	-7.095951	-0.382389	-0.866025	0.322147
12.830984	60.772400	-7.095411	-0.437554	-0.866025	0.241963
-0.614577	65.125931	-7.095054	0.043149	-0.866025	0.498135
13.384556	60.491528	-7.094732	-0.441774	-0.866025	0.234170
-2.751139	64.845062	-7.093275	0.180803	-0.866025	0.466165
11.135483	61.615021	-7.093122	-0.421712	-0.866025	0.268624
-1.982234	64.985497	-7.093094	0.134574	-0.866025	0.481550
9.052006	62.598076	-7.093039	-0.393565	-0.866025	0.308393
-2.395324	64.915276	-7.092947	0.159977	-0.866025	0.473717
-12.693248	60.842621	-7.092868	0.436478	-0.866025	0.243900
-5.842337	63.932224	-7.092834	0.317892	-0.866025	0.385934
-10.407640	61.966110	-7.092592	0.413179	-0.866025	0.281573
-5.043303	64.213097	-7.092400	0.289755	-0.866025	0.407483
-3.901486	64.564186	-7.092310	0.240993	-0.866025	0.438089
0.646010	65.125931	-7.092261	-0.045356	-0.866025	0.497939
-7.107594	63.440697	-7.091865	0.353945	-0.866025	0.353162
-13.523571	60.421310	-7.091839	0.442807	-0.866025	0.232211
8.267353	62.949169	-7.091134	-0.379519	-0.866025	0.325524
6.219890	63.791786	-7.091104	-0.329708	-0.866025	0.375889
-4.150074	64.493973	-7.091057	0.252554	-0.866025	0.431528
10.113273	62.106548	-7.090669	-0.409399	-0.866025	0.287040
1.481878	65.055717	-7.090036	-0.102294	-0.866025	0.489424
3.080216	64.774841	-7.089499	-0.199245	-0.866025	0.458586
-0.677429	65.125931	-7.089329	0.047561	-0.866025	0.497733
12.555788	60.912838	-7.089246	-0.435393	-0.866025	0.245831
10.703808	61.825676	-7.087917	-0.416885	-0.866025	0.276056
13.662821	60.351089	-7.087852	-0.443832	-0.866025	0.230246
9.210901	62.527859	-7.086705	-0.396283	-0.866025	0.304893
0.708835	65.125931	-7.086257	-0.049766	-0.866025	0.497517
3.381925	64.704628	-7.085640	-0.215372	-0.866025	0.451237
-3.655806	64.634407	-7.085434	0.229262	-0.866025	0.444341
11.570608	61.404366	-7.085190	-0.426407	-0.866025	0.261108
-12.418612	60.983055	-7.084545	0.434299	-0.866025	0.247758
2.013644	64.985497	-7.084241	-0.136706	-0.866025	0.480948
4.623582	64.353531	-7.084133	-0.273279	-0.866025	0.418711
8.112577	63.019386	-7.084124	-0.376619	-0.866025	0.328874
-7.621726	63.230042	-7.083909	0.366239	-0.866025	0.340396
-1.513279	65.055717	-7.083400	0.104461	-0.866025	0.488966
-0.740228	65.125931	-7.083047	0.051970	-0.866025	0.497292
-13.802299	60.280872	-7.082770	0.444848	-0.866025	0.228277
2.426729	64.915276	-7.082264	-0.162074	-0.866025	0.473003
-9.820832	62.246986	-7.082199	0.405548	-0.866025	0.292457
-4.401310	64.423752	-7.081526	0.263936	-0.866025	0.424662
7.288465	63.370476	-7.081512	-0.358608	-0.866025	0.348425
2.782542	64.845062	-7.081015	-0.182867	-0.866025	0.465360
-6.046103	63.862003	-7.080666	0.324682	-0.866025	0.380239
-4.848097	64.283318	-7.080318	0.282488	-0.866025	0.412554
0.771605	65.125931	-7.079698	-0.054173	-0.866025	0.497057
12.281726	61.053272	-7.078770	-0.433197	-0.866025	0.249680
5.470810	64.072662	-7.078149	-0.305770	-0.866025	0.395606
9.370388	62.457638	-7.078106	-0.398969	-0.866025	0.301369
1.544651	65.055717	-7.076625	-0.106627	-0.866025	0.488498
-11.001656	61.685238	-7.076599	0.420518	-0.866025	0.270490
13.941998	60.210655	-7.076589	-0.445855	-0.866025	0.226304
5.271844	64.142876	-7.076465	-0.298711	-0.866025	0.400964
-0.802968	65.125931	-7.076209	0.056375	-0.866025	0.496812
-3.111599	64.774841	-7.075781	0.201275	-0.866025	0.457699
-2.045015	64.985497	-7.075249	0.138836	-0.866025	0.480338
5.671468	64.002441	-7.074972	-0.312734	-0.866025	0.390125
3.932874	64.564186	-7.074953	-0.242932	-0.866025	0.437017
7.958582	63.089603	-7.074934	-0.373690	-0.866025	0.332199
-6.602800	63.651352	-7.072604	0.341206	-0.866025	0.365484
4.181454	64.493973	-7.072598	-0.254463	-0.866025	0.430405
0.834315	65.125931	-7.072582	-0.058576	-0.866025	0.496557
-11.435662	61.474583	-7.072418	0.425246	-0.866025	0.262994
6.780401	63.581131	-7.072001	-0.346034	-0.866025	0.360916
-12.145138	61.123493	-7.071921	0.432087	-0.866025	0.251597
-2.458087	64.915276	-7.071442	0.164168	-0.866025	0.472280
-3.413289	64.704628	-7.070585	0.217370	-0.866025	0.450278
5.074679	64.213097	-7.069983	-0.291558	-0.866025	0.406195
6.426396	63.721569	-7.069751	-0.336318	-0.866025	0.369987
-1.575992	65.055717	-7.069712	0.108791	-0.866025	0.488021
10.275911	62.036331	-7.069703	-0.411927	-0.866025	0.283401
-14.081912	60.140438	-7.069309	0.446853	-0.866025	0.224326
3.687166	64.634407	-7.069166	-0.231229	-0.866025	0.443321
-0.865645	65.125931	-7.068816	0.060776	-0.866025	0.496293
-2.813891	64.845062	-7.068615	0.184927	-0.866025	0.464545
-6.959138	63.510914	-7.067910	0.350801	-0.866025	0.356284
-10.571191	61.895893	-7.067679	0.415658	-0.866025	0.277900
-7.470302	63.300259	-7.067588	0.363208	-0.866025	0.343628
9.530438	62.387421	-7.067232	-0.401624	-0.866025	0.297822
5.873708	63.932224	-7.066877	-0.319599	-0.866025	0.384521
2.076345	64.985497	-7.066118	-0.140963	-0.866025	0.479718
-9.982482	62.176765	-7.065151	0.408124	-0.866025	0.288851
0.896959	65.125931	-7.064910	-0.062974	-0.866025	0.496018
12.008853	61.193710	-7.064003	-0.430968	-0.866025	0.253509
7.805394	63.159821	-7.063577	-0.370731	-0.866025	0.335497
-4.654926	64.353531	-7.063577	0.275131	-0.866025	0.417496
-6.251249	63.791786	-7.063474	0.331370	-0.866025	0.374425
1.607303	65.055717	-7.062659	-0.110952	-0.866025	0.487534
4.432645	64.423752	-7.061954	-0.265815	-0.866025	0.423488
3.142921	64.774841	-7.061924	-0.203301	-0.866025	0.456803
14.222034	60.070217	-7.060926	-0.447843	-0.866025	0.222344
-0.928255	65.125931	-7.060867	0.065172	-0.866025	0.495734
2.489397	64.915276	-7.060481	-0.166259	-0.866025	0.471548
-8.610510	62.808731	-7.060479	0.386637	-0.866025	0.317036
7.138949	63.440697	-7.060302	-0.355506	-0.866025	0.351590
-8.767467	62.738514	-7.060176	0.389431	-0.866025	0.313597
10.868196	61.755455	-7.059030	-0.419315	-0.866025	0.272350
4.879423	64.283318	-7.058767	-0.284313	-0.866025	0.411298
11.301058	61.544804	-7.058591	-0.424076	-0.866025	0.264876
-8.454243	62.878948	-7.058560	0.383812	-0.866025	0.320450
-8.925089	62.668293	-7.057640	0.392195	-0.866025	0.310134
-3.964185	64.564186	-7.057457	0.244866	-0.866025	0.435936
-2.107635	64.985497	-7.056849	0.143087	-0.866025	0.479089
0.959532	65.125931	-7.056684	-0.067368	-0.866025	0.495441
2.845185	64.845062	-7.056078	-0.186984	-0.866025	0.463721
-1.638582	65.055717	-7.055468	0.113111	-0.866025	0.487038
3.444585	64.704628	-7.055392	-0.219363	-0.866025	0.449311
-11.872878	61.263927	-7.055016	0.429840	-0.866025	0.255416
-8.298693	62.949169	-7.054432	0.380957	-0.866025	0.323839
9.691024	62.317204	-7.054071	-0.404248	-0.866025	0.294251
-4.212752	64.493973	-7.054001	0.256368	-0.866025	0.429273
-5.502120	64.072662	-7.053838	0.307520	-0.866025	0.394248
6.077419	63.862003	-7.053806	-0.326364	-0.866025	0.378797
-5.303148	64.142876	-7.053036	0.300485	-0.866025	0.399636
-9.083346	62.598076	-7.052859	0.394928	-0.866025	0.306646
-3.718453	64.634407	-7.052759	0.233191	-0.866025	0.442292
-0.990791	65.125931	-7.052363	0.069562	-0.866025	0.495137
-14.362353	60.000000	-7.051439	0.448824	-0.866025	0.220357
7.653040	63.230042	-7.050067	-0.367743	-0.866025	0.338769
-5.702762	64.002441	-7.049773	0.314459	-0.866025	0.388736
-2.520657	64.915276	-7.049381	0.168347	-0.866025	0.470807
-7.319772	63.370476	-7.049147	0.360148	-0.866025	0.346833
1.669829	65.055717	-7.048138	-0.115268	-0.866025	0.486532
-8.143888	63.019386	-7.048108	0.378073	-0.866025	0.327202
-3.174182	64.774841	-7.047928	0.205323	-0.866025	0.455897
1.022030	65.125931	-7.047904	-0.071755	-0.866025	0.494824
2.138883	64.985497	-7.047440	-0.145209	-0.866025	0.478450
-5.105957	64.213097	-7.047428	0.293355	-0.866025	0.404899
10.438964	61.966110	-7.046406	-0.414422	-0.866025	0.279739
-9.242212	62.527859	-7.045822	0.397630	-0.866025	0.303134
-10.144592	62.106548	-7.045788	0.410667	-0.866025	0.285223
11.737222	61.334148	-7.044965	-0.428704	-0.866025	0.257319
-11.166803	61.615021	-7.043711	0.422898	-0.866025	0.266753
-2.876422	64.845062	-7.043402	0.189037	-0.866025	0.462888
-1.053250	65.125931	-7.043306	0.073947	-0.866025	0.494502
6.634074	63.651352	-7.043277	-0.342822	-0.866025	0.363968
4.686180	64.353531	-7.042881	-0.276979	-0.866025	0.416273
-4.463893	64.423752	-7.042244	0.267689	-0.866025	0.422306
-6.811671	63.581131	-7.041887	0.347630	-0.866025	0.359379
-6.457659	63.721569	-7.041206	0.337954	-0.866025	0.368493
-5.904964	63.932224	-7.040781	0.321299	-0.866025	0.383101
-1.701042	65.055717	-7.040669	0.117423	-0.866025	0.486016
-10.735109	61.825676	-7.040419	0.418104	-0.866025	0.274206
-3.475814	64.704628	-7.040060	0.221351	-0.866025	0.448334
3.995417	64.564186	-7.039823	-0.246795	-0.866025	0.434847
-7.989853	63.089603	-7.039600	0.375158	-0.866025	0.330540
13.000308	60.702183	-7.039335	-0.439681	-0.866025	0.238076
-13.138577	60.631966	-7.039098	0.440732	-0.866025	0.236126
9.852117	62.246986	-7.038613	-0.406840	-0.866025	0.290657
1.084448	65.125931	-7.038570	-0.076138	-0.866025	0.494169
-12.862298	60.772400	-7.038487	0.438622	-0.866025	0.240022
2.551868	64.915276	-7.038142	-0.170432	-0.866025	0.470056
-2.170089	64.985497	-7.037894	0.147327	-0.866025	0.477802
13.277097	60.561745	-7.037772	-0.441774	-0.866025	0.234170
-4.910652	64.283318	-7.037076	0.286132	-0.866025	0.410034
6.990387	63.510914	-7.037004	-0.352376	-0.866025	0.354726
12.724552	60.842621	-7.036555	-0.437554	-0.866025	0.241963
-9.401659	62.457638	-7.036517	0.400301	-0.866025	0.299599
3.749668	64.634407	-7.036213	-0.235149	-0.866025	0.441254
6.282486	63.791786	-7.035706	-0.333026	-0.866025	0.372953
-13.415861	60.491528	-7.035356	0.442807	-0.866025	0.232211
4.243967	64.493973	-7.035265	-0.258268	-0.866025	0.428133
7.501545	63.300259	-7.034418	-0.364727	-0.866025	0.342015
-11.601890	61.404366	-7.033851	0.427560	-0.866025	0.259216
3.205380	64.774841	-7.033794	-0.207341	-0.866025	0.454983
-1.115625	65.125931	-7.033696	0.078327	-0.866025	0.493827
-12.587077	60.912838	-7.033541	0.436478	-0.866025	0.243900
1.732223	65.055717	-7.033063	-0.119575	-0.866025	0.485491
13.554862	60.421310	-7.031847	-0.443832	-0.866025	0.230246
2.907603	64.845062	-7.030587	-0.191086	-0.866025	0.462046
5.334348	64.142876	-7.029469	-0.302253	-0.866025	0.398301
12.449882	60.983055	-7.029449	-0.435393	-0.866025	0.245831
5.533321	64.072662	-7.029389	-0.309264	-0.866025	0.392881
-7.836617	63.159821	-7.028922	0.372214	-0.866025	0.333851
1.146781	65.125931	-7.028683	-0.080514	-0.866025	0.493475
-7.170163	63.440697	-7.028600	0.357061	-0.866025	0.350011
2.201253	64.985497	-7.028209	-0.149443	-0.866025	0.477144
11.032905	61.685238	-7.027781	-0.421712	-0.866025	0.268624
-13.694094	60.351089	-7.027243	0.444848	-0.866025	0.228277
-6.108614	63.862003	-7.026808	0.328039	-0.866025	0.377347
-2.583029	64.915276	-7.026766	0.172513	-0.866025	0.469297
-1.763370	65.055717	-7.025319	0.121725	-0.866025	0.484957
-9.561660	62.387421	-7.024933	0.402940	-0.866025	0.296039
5.137134	64.213097	-7.024734	-0.295146	-0.866025	0.403595
3.506974	64.704628	-7.024589	-0.223336	-0.866025	0.447349
5.733943	64.002441	-7.024435	-0.316179	-0.866025	0.387338
-12.312972	61.053272	-7.024280	0.434299	-0.866025	0.247758
-10.307137	62.036331	-7.024101	0.413179	-0.866025	0.281573
-1.177914	65.125931	-7.023533	0.082700	-0.866025	0.493113
4.495053	64.423752	-7.022395	-0.269558	-0.866025	0.421116
8.641710	62.808731	-7.022256	-0.388038	-0.866025	0.315320
-4.026572	64.564186	-7.022050	0.248720	-0.866025	0.433749
-4.717340	64.353531	-7.022048	0.278820	-0.866025	0.415041
11.466887	61.474583	-7.021677	-0.426407	-0.866025	0.261108
13.833548	60.280872	-7.021543	-0.445855	-0.866025	0.226304
8.798665	62.738514	-7.021258	-0.390817	-0.866025	0.311869
8.485435	62.878948	-7.021030	-0.385228	-0.866025	0.318746
10.013689	62.176765	-7.020849	-0.409399	-0.866025	0.287040
10.602404	61.895893	-7.020769	-0.416885	-0.866025	0.276056
-3.780808	64.634407	-7.019529	0.237102	-0.866025	0.440208
-3.236516	64.774841	-7.019522	0.209355	-0.866025	0.454060
-2.232373	64.985497	-7.018386	0.151556	-0.866025	0.476478
1.209023	65.125931	-7.018245	-0.084884	-0.866025	0.492742
12.176354	61.123493	-7.018037	-0.433197	-0.866025	0.249680
8.956273	62.668293	-7.018024	-0.393565	-0.866025	0.308393
-2.938727	64.845062	-7.017634	0.193131	-0.866025	0.461194
8.329869	62.949169	-7.017591	-0.382389	-0.866025	0.322147
1.794481	65.055717	-7.017436	-0.123873	-0.866025	0.484413
7.350935	63.370476	-7.016644	-0.361682	-0.866025	0.345234
-4.275098	64.493973	-7.016391	0.260162	-0.866025	0.426984
-7.684204	63.230042	-7.016087	0.369241	-0.866025	0.337137
2.614140	64.915276	-7.015252	-0.174591	-0.866025	0.468528
4.941785	64.283318	-7.015248	-0.287947	-0.866025	0.408763
-13.973219	60.210655	-7.014743	0.446853	-0.866025	0.224326
5.936104	63.932224	-7.014547	-0.322994	-0.866025	0.381674
-6.665218	63.651352	-7.013813	0.344432	-0.866025	0.362446
-1.240109	65.125931	-7.012818	0.087067	-0.866025	0.492361
9.114509	62.598076	-7.012542	-0.396283	-0.866025	0.304893
6.488795	63.721569	-7.012523	-0.339583	-0.866025	0.366992
8.175037	63.019386	-7.011953	-0.379519	-0.866025	0.325524
6.842806	63.581131	-7.011635	-0.349219	-0.866025	0.357835
-9.722185	62.317204	-7.011061	0.405548	-0.866025	0.292457
-10.899368	61.755455	-7.010804	0.420518	-0.866025	0.270490
-12.040035	61.193710	-7.010722	0.432087	-0.866025	0.251597
-1.825558	65.055717	-7.009416	0.126018	-0.866025	0.483859
-3.538066	64.704628	-7.008981	0.225316	-0.866025	0.446355
-11.332224	61.544804	-7.008446	0.425246	-0.866025	0.262994
2.263450	64.985497	-7.008426	-0.153665	-0.866025	0.475801
-6.313600	63.791786	-7.007799	0.334675	-0.866025	0.371474
1.271171	65.125931	-7.007255	-0.089247	-0.866025	0.491970
14.113098	60.140438	-7.006842	-0.447843	-0.866025	0.222344
-7.021500	63.510914	-7.005961	0.353945	-0.866025	0.353162
-5.365443	64.142876	-7.005763	0.304014	-0.866025	0.396957
3.267587	64.774841	-7.005112	-0.211365	-0.866025	0.453128
-5.564414	64.072662	-7.004802	0.311002	-0.866025	0.391507
9.273341	62.527859	-7.004800	-0.398969	-0.866025	0.301369
2.969794	64.845062	-7.004544	-0.195173	-0.866025	0.460334
4.057647	64.564186	-7.004139	-0.250639	-0.866025	0.432643
8.020967	63.089603	-7.004128	-0.376619	-0.866025	0.328874
-2.645199	64.915276	-7.003600	0.176665	-0.866025	0.467749
3.811875	64.634407	-7.002707	-0.239050	-0.866025	0.439153
-4.526125	64.423752	-7.002409	0.271421	-0.866025	0.419918
11.904022	61.263927	-7.002338	-0.430968	-0.866025	0.253509
-5.168210	64.213097	-7.001903	0.296931	-0.866025	0.402283
-1.302208	65.125931	-7.001554	0.091426	-0.866025	0.491570
1.856599	65.055717	-7.001258	-0.128161	-0.866025	0.483296
-7.532640	63.300259	-7.001110	0.366239	-0.866025	0.340396
4.748409	64.353531	-7.001076	-0.280657	-0.866025	0.413802
10.175713	62.106548	-7.000768	-0.411927	-0.866025	0.283401
-10.470084	61.966110	-7.000082	0.415658	-0.866025	0.277900
0.015509	65.196152	-6.999983	-0.001108	-0.866025	0.499999
-0.046525	65.196152	-6.999846	0.003323	-0.866025	0.499989
6.139690	63.862003	-6.999671	-0.329708	-0.866025	0.375889
0.077541	65.196152	-6.999570	-0.005539	-0.866025	0.499969
-0.108556	65.196152	-6.999158	0.007754	-0.866025	0.499940
-5.765012	64.002441	-6.998958	0.317892	-0.866025	0.385934
0.139568	65.196152	-6.998609	-0.009969	-0.866025	0.499901
-2.294482	64.985497	-6.998327	0.155772	-0.866025	0.475116
-0.170577	65.196152	-6.997921	0.012184	-0.866025	0.499852
-14.253181	60.070217	-6.997838	0.448824	-0.866025	0.220357
4.306146	64.493973	-6.997379	-0.262052	-0.866025	0.425827
0.201584	65.196152	-6.997097	-0.014399	-0.866025	0.499793
7.201237	63.440697	-6.996760	-0.358608	-0.866025	0.348425
-0.232586	65.196152	-6.996135	0.016613	-0.866025	0.499724
1.333219	65.125931	-6.995715	-0.093604	-0.866025	0.491160
0.263583	65.196152	-6.995036	-0.018827	-0.866025	0.499645
-9.883208	62.246986	-6.994889	0.408124	-0.866025	0.288851
9.432746	62.457638	-6.994789	-0.401624	-0.866025	0.297822
11.197905	61.615021	-6.994162	-0.424076	-0.866025	0.264876
7.867685	63.159821	-6.994129	-0.373690	-0.866025	0.332199
-0.294576	65.196152	-6.993799	0.021041	-0.866025	0.499557
-4.972821	64.283318	-6.993282	0.289755	-0.866025	0.407483
3.569088	64.704628	-6.993235	-0.227291	-0.866025	0.445352
-1.887603	65.055717	-6.992963	0.130301	-0.866025	0.482723
-11.768323	61.334148	-6.992888	0.429840	-0.866025	0.255416
10.766200	61.825676	-6.992783	-0.419315	-0.866025	0.272350
0.325562	65.196152	-6.992425	-0.023254	-0.866025	0.499459
2.676206	64.915276	-6.991810	-0.178736	-0.866025	0.466962
-3.000802	64.845062	-6.991316	0.197211	-0.866025	0.459465
-0.356543	65.196152	-6.990914	0.025467	-0.866025	0.499351
-3.298595	64.774841	-6.990565	0.213371	-0.866025	0.452187
