3.142857	22.544937	21.277355	0.000000	0.727256	0.686366
-4.000000	22.544937	21.277355	0.000000	0.727256	0.686366
2.857143	22.544937	21.277355	0.000000	0.727256	0.686366
-4.285714	22.544937	21.277355	0.000000	0.727256	0.686366
-4.571429	22.544937	21.277355	0.000000	0.727256	0.686366
-4.857143	22.544937	21.277355	0.000000	0.727256	0.686366
-5.142857	22.544937	21.277355	0.000000	0.727256	0.686366
-5.428571	22.544937	21.277355	0.000000	0.727256	0.686366
-5.714286	22.544937	21.277355	0.000000	0.727256	0.686366
0.571429	22.544937	21.277355	0.000000	0.727256	0.686366
2.571429	22.544937	21.277355	0.000000	0.727256	0.686366
2.285714	22.544937	21.277355	0.000000	0.727256	0.686366
-6.000000	22.544937	21.277355	0.000000	0.727256	0.686366
2.000000	22.544937	21.277355	0.000000	0.727256	0.686366
-8.000000	22.544937	21.277355	-1.000000	0.000000	0.000000
-6.285714	22.544937	21.277355	0.000000	0.727256	0.686366
-6.571429	22.544937	21.277355	0.000000	0.727256	0.686366
-6.857143	22.544937	21.277355	0.000000	0.727256	0.686366
-7.428571	22.544937	21.277355	0.000000	0.727256	0.686366
-7.714286	22.544937	21.277355	0.000000	0.727256	0.686366
-7.142857	22.544937	21.277355	0.000000	0.727256	0.686366
8.000000	22.544937	21.277355	0.000000	0.727256	0.686366
1.714286	22.544937	21.277355	0.000000	0.727256	0.686366
1.428571	22.544937	21.277355	0.000000	0.727256	0.686366
7.428571	22.544937	21.277355	0.000000	0.727256	0.686366
7.142857	22.544937	21.277355	0.000000	0.727256	0.686366
0.285714	22.544937	21.277355	0.000000	0.727256	0.686366
-8.000000	-22.490429	21.334578	-1.000000	0.000000	0.000000
8.000000	-22.490429	21.334578	0.000000	-0.725504	0.688218
8.000000	22.490429	21.334578	0.000000	0.725504	0.688218
-8.000000	22.490429	21.334578	-1.000000	0.000000	0.000000
8.000000	-18.765900	21.344419	1.000000	0.000000	0.000000
8.000000	-21.057919	21.344419	1.000000	0.000000	0.000000
8.000000	16.187380	21.344419	1.000000	0.000000	0.000000
-8.000000	-20.198410	21.344419	-1.000000	0.000000	0.000000
8.000000	-15.327872	21.344419	1.000000	0.000000	0.000000
8.000000	-16.473881	21.344419	1.000000	0.000000	0.000000
8.000000	-18.479397	21.344419	1.000000	0.000000	0.000000
8.000000	14.754868	21.344419	1.000000	0.000000	0.000000
8.000000	-15.614374	21.344419	1.000000	0.000000	0.000000
8.000000	-16.187380	21.344419	1.000000	0.000000	0.000000
8.000000	20.198410	21.344419	1.000000	0.000000	0.000000
8.000000	-18.192896	21.344419	1.000000	0.000000	0.000000
-8.000000	-22.481052	21.344419	-1.000000	0.000000	0.000000
8.000000	19.625406	21.344419	1.000000	0.000000	0.000000
8.000000	-17.906393	21.344419	1.000000	0.000000	0.000000
8.000000	-21.344419	21.344419	1.000000	0.000000	0.000000
8.000000	15.041369	21.344419	1.000000	0.000000	0.000000
8.000000	15.327872	21.344419	1.000000	0.000000	0.000000
8.000000	15.614374	21.344419	1.000000	0.000000	0.000000
8.000000	-15.900877	21.344419	1.000000	0.000000	0.000000
8.000000	-21.917425	21.344419	1.000000	0.000000	0.000000
8.000000	15.900877	21.344419	1.000000	0.000000	0.000000
8.000000	-17.619890	21.344419	1.000000	0.000000	0.000000
8.000000	19.911909	21.344419	1.000000	0.000000	0.000000
8.000000	-17.333387	21.344419	1.000000	0.000000	0.000000
-8.000000	-14.252185	21.344419	-1.000000	0.000000	0.000000
8.000000	20.771416	21.344419	1.000000	0.000000	0.000000
-8.000000	-22.203926	21.344419	-1.000000	0.000000	0.000000
-8.000000	22.203926	21.344419	-1.000000	0.000000	0.000000
-8.000000	21.917425	21.344419	-1.000000	0.000000	0.000000
-8.000000	21.630922	21.344419	-1.000000	0.000000	0.000000
-8.000000	21.344419	21.344419	-1.000000	0.000000	0.000000
-8.000000	21.057919	21.344419	-1.000000	0.000000	0.000000
-8.000000	20.771416	21.344419	-1.000000	0.000000	0.000000
-8.000000	20.484913	21.344419	-1.000000	0.000000	0.000000
-8.000000	20.198410	21.344419	-1.000000	0.000000	0.000000
-8.000000	19.911909	21.344419	-1.000000	0.000000	0.000000
-8.000000	19.625406	21.344419	-1.000000	0.000000	0.000000
-8.000000	19.338903	21.344419	-1.000000	0.000000	0.000000
-8.000000	19.052402	21.344419	-1.000000	0.000000	0.000000
-8.000000	18.765900	21.344419	-1.000000	0.000000	0.000000
-8.000000	18.479397	21.344419	-1.000000	0.000000	0.000000
-8.000000	18.192896	21.344419	-1.000000	0.000000	0.000000
-8.000000	17.906393	21.344419	-1.000000	0.000000	0.000000
-8.000000	17.619890	21.344419	-1.000000	0.000000	0.000000
-8.000000	17.333387	21.344419	-1.000000	0.000000	0.000000
-8.000000	17.046886	21.344419	-1.000000	0.000000	0.000000
-8.000000	16.760384	21.344419	-1.000000	0.000000	0.000000
-8.000000	16.473881	21.344419	-1.000000	0.000000	0.000000
-8.000000	16.187380	21.344419	-1.000000	0.000000	0.000000
-8.000000	15.900877	21.344419	-1.000000	0.000000	0.000000
-8.000000	15.614374	21.344419	-1.000000	0.000000	0.000000
-8.000000	15.327872	21.344419	-1.000000	0.000000	0.000000
-8.000000	15.041369	21.344419	-1.000000	0.000000	0.000000
-8.000000	14.754868	21.344419	-1.000000	0.000000	0.000000
-8.000000	-14.468366	21.344419	-1.000000	0.000000	0.000000
-8.000000	-14.754868	21.344419	-1.000000	0.000000	0.000000
-8.000000	-15.041369	21.344419	-1.000000	0.000000	0.000000
-8.000000	-15.327872	21.344419	-1.000000	0.000000	0.000000
-8.000000	-15.614374	21.344419	-1.000000	0.000000	0.000000
-8.000000	-15.900877	21.344419	-1.000000	0.000000	0.000000
-8.000000	-16.187380	21.344419	-1.000000	0.000000	0.000000
-8.000000	-16.473881	21.344419	-1.000000	0.000000	0.000000
-8.000000	-16.760384	21.344419	-1.000000	0.000000	0.000000
-8.000000	-17.046886	21.344419	-1.000000	0.000000	0.000000
-8.000000	-17.333387	21.344419	-1.000000	0.000000	0.000000
-8.000000	-17.619890	21.344419	-1.000000	0.000000	0.000000
-8.000000	-17.906393	21.344419	-1.000000	0.000000	0.000000
-8.000000	-18.192896	21.344419	-1.000000	0.000000	0.000000
-8.000000	-18.479397	21.344419	-1.000000	0.000000	0.000000
-8.000000	-18.765900	21.344419	-1.000000	0.000000	0.000000
-8.000000	-19.052402	21.344419	-1.000000	0.000000	0.000000
-8.000000	-19.338903	21.344419	-1.000000	0.000000	0.000000
-8.000000	-19.625406	21.344419	-1.000000	0.000000	0.000000
-8.000000	-19.911909	21.344419	-1.000000	0.000000	0.000000
-8.000000	-20.484913	21.344419	-1.000000	0.000000	0.000000
-8.000000	-20.771416	21.344419	-1.000000	0.000000	0.000000
-8.000000	-21.057919	21.344419	-1.000000	0.000000	0.000000
-8.000000	-21.344419	21.344419	-1.000000	0.000000	0.000000
-8.000000	-21.630922	21.344419	-1.000000	0.000000	0.000000
-8.000000	-21.917425	21.344419	-1.000000	0.000000	0.000000
8.000000	21.630922	21.344419	1.000000	0.000000	0.000000
8.000000	21.917425	21.344419	1.000000	0.000000	0.000000
8.000000	22.203926	21.344419	1.000000	0.000000	0.000000
-8.000000	22.481052	21.344419	-1.000000	0.000000	0.000000
8.000000	16.760384	21.344419	1.000000	0.000000	0.000000
8.000000	18.765900	21.344419	1.000000	0.000000	0.000000
8.000000	22.481052	21.344419	0.000000	0.725202	0.688536
8.000000	17.046886	21.344419	1.000000	0.000000	0.000000
8.000000	17.333387	21.344419	1.000000	0.000000	0.000000
8.000000	18.479397	21.344419	1.000000	0.000000	0.000000
8.000000	17.619890	21.344419	1.000000	0.000000	0.000000
8.000000	-17.046886	21.344419	1.000000	0.000000	0.000000
8.000000	21.344419	21.344419	1.000000	0.000000	0.000000
8.000000	17.906393	21.344419	1.000000	0.000000	0.000000
8.000000	-20.198410	21.344419	1.000000	0.000000	0.000000
8.000000	-20.484913	21.344419	1.000000	0.000000	0.000000
8.000000	-21.630922	21.344419	1.000000	0.000000	0.000000
8.000000	18.192896	21.344419	1.000000	0.000000	0.000000
8.000000	21.057919	21.344419	1.000000	0.000000	0.000000
8.000000	19.052402	21.344419	1.000000	0.000000	0.000000
-8.000000	14.468366	21.344419	-1.000000	0.000000	0.000000
8.000000	-22.481052	21.344419	0.000000	-0.725202	0.688536
8.000000	-16.760384	21.344419	1.000000	0.000000	0.000000
8.000000	19.338903	21.344419	1.000000	0.000000	0.000000
8.000000	-19.911909	21.344419	1.000000	0.000000	0.000000
-8.000000	14.252185	21.344419	-1.000000	0.000000	0.000000
8.000000	-22.203926	21.344419	1.000000	0.000000	0.000000
8.000000	-15.041369	21.344419	1.000000	0.000000	0.000000
8.000000	-14.754868	21.344419	1.000000	0.000000	0.000000
8.000000	-14.468366	21.344419	1.000000	0.000000	0.000000
8.000000	-19.625406	21.344419	1.000000	0.000000	0.000000
8.000000	14.252185	21.344419	1.000000	0.000000	0.000000
8.000000	14.468366	21.344419	1.000000	0.000000	0.000000
8.000000	16.473881	21.344419	1.000000	0.000000	0.000000
8.000000	-20.771416	21.344419	1.000000	0.000000	0.000000
8.000000	20.484913	21.344419	1.000000	0.000000	0.000000
8.000000	-19.338903	21.344419	1.000000	0.000000	0.000000
8.000000	-19.052402	21.344419	1.000000	0.000000	0.000000
8.000000	-14.252185	21.344419	1.000000	0.000000	0.000000
-8.000000	-14.181863	21.391069	-1.000000	0.000000	0.000000
8.000000	-14.181863	21.391069	1.000000	0.000000	0.000000
8.000000	14.181863	21.391069	1.000000	0.000000	0.000000
-8.000000	14.181863	21.391069	-1.000000	0.000000	0.000000
6.571429	-22.347082	21.485062	0.000000	-0.720874	0.693067
4.857143	-22.347082	21.485062	0.000000	-0.720874	0.693067
4.571429	-22.347082	21.485062	0.000000	-0.720874	0.693067
-6.000000	-22.347082	21.485062	0.000000	-0.720874	0.693067
-6.285714	-22.347082	21.485062	0.000000	-0.720874	0.693067
5.428571	-22.347082	21.485062	0.000000	-0.720874	0.693067
3.428571	-22.347082	21.485062	0.000000	-0.720874	0.693067
3.142857	-22.347082	21.485062	0.000000	-0.720874	0.693067
-1.142857	-22.347082	21.485062	0.000000	-0.720874	0.693067
-6.857143	-22.347082	21.485062	0.000000	-0.720874	0.693067
-7.142857	-22.347082	21.485062	0.000000	-0.720874	0.693067
-7.428571	-22.347082	21.485062	0.000000	-0.720874	0.693067
5.714286	-22.347082	21.485062	0.000000	-0.720874	0.693067
-7.714286	-22.347082	21.485062	0.000000	-0.720874	0.693067
4.000000	-22.347082	21.485062	0.000000	-0.720874	0.693067
3.714286	-22.347082	21.485062	0.000000	-0.720874	0.693067
6.285714	-22.347082	21.485062	0.000000	-0.720874	0.693067
7.714286	-22.347082	21.485062	0.000000	-0.720874	0.693067
7.428571	-22.347082	21.485062	0.000000	-0.720874	0.693067
2.571429	-22.347082	21.485062	0.000000	-0.720874	0.693067
-8.000000	-22.347082	21.485062	-1.000000	0.000000	0.000000
-6.571429	-22.347082	21.485062	0.000000	-0.720874	0.693067
7.142857	-22.347082	21.485062	0.000000	-0.720874	0.693067
0.857143	-22.347082	21.485062	0.000000	-0.720874	0.693067
1.142857	-22.347082	21.485062	0.000000	-0.720874	0.693067
6.000000	-22.347082	21.485062	0.000000	-0.720874	0.693067
5.142857	-22.347082	21.485062	0.000000	-0.720874	0.693067
2.285714	-22.347082	21.485062	0.000000	-0.720874	0.693067
2.000000	-22.347082	21.485062	0.000000	-0.720874	0.693067
1.714286	-22.347082	21.485062	0.000000	-0.720874	0.693067
1.428571	-22.347082	21.485062	0.000000	-0.720874	0.693067
-5.714286	-22.347082	21.485062	0.000000	-0.720874	0.693067
-5.428571	-22.347082	21.485062	0.000000	-0.720874	0.693067
-5.142857	-22.347082	21.485062	0.000000	-0.720874	0.693067
-4.857143	-22.347082	21.485062	0.000000	-0.720874	0.693067
-4.571429	-22.347082	21.485062	0.000000	-0.720874	0.693067
-4.285714	-22.347082	21.485062	0.000000	-0.720874	0.693067
-4.000000	-22.347082	21.485062	0.000000	-0.720874	0.693067
-3.714286	-22.347082	21.485062	0.000000	-0.720874	0.693067
-3.428571	-22.347082	21.485062	0.000000	-0.720874	0.693067
-3.142857	-22.347082	21.485062	0.000000	-0.720874	0.693067
-2.857143	-22.347082	21.485062	0.000000	-0.720874	0.693067
2.857143	-22.347082	21.485062	0.000000	-0.720874	0.693067
-2.285714	-22.347082	21.485062	0.000000	-0.720874	0.693067
-2.000000	-22.347082	21.485062	0.000000	-0.720874	0.693067
-1.714286	-22.347082	21.485062	0.000000	-0.720874	0.693067
-1.428571	-22.347082	21.485062	0.000000	-0.720874	0.693067
-0.857143	-22.347082	21.485062	0.000000	-0.720874	0.693067
-0.571429	-22.347082	21.485062	0.000000	-0.720874	0.693067
-2.571429	-22.347082	21.485062	0.000000	-0.720874	0.693067
4.285714	-22.347082	21.485062	0.000000	-0.720874	0.693067
0.000000	-22.347082	21.485062	0.000000	-0.720874	0.693067
0.285714	-22.347082	21.485062	0.000000	-0.720874	0.693067
6.857143	-22.347082	21.485062	0.000000	-0.720874	0.693067
8.000000	-22.347082	21.485062	0.000000	-0.720874	0.693067
0.571429	-22.347082	21.485062	0.000000	-0.720874	0.693067
-0.285714	-22.347082	21.485062	0.000000	-0.720874	0.693067
1.714286	22.347082	21.485062	0.000000	0.720874	0.693067
1.428571	22.347082	21.485062	0.000000	0.720874	0.693067
4.285714	22.347082	21.485062	0.000000	0.720874	0.693067
0.857143	22.347082	21.485062	0.000000	0.720874	0.693067
0.571429	22.347082	21.485062	0.000000	0.720874	0.693067
0.285714	22.347082	21.485062	0.000000	0.720874	0.693067
0.000000	22.347082	21.485062	0.000000	0.720874	0.693067
-0.285714	22.347082	21.485062	0.000000	0.720874	0.693067
-0.571429	22.347082	21.485062	0.000000	0.720874	0.693067
-0.857143	22.347082	21.485062	0.000000	0.720874	0.693067
-6.000000	22.347082	21.485062	0.000000	0.720874	0.693067
-6.285714	22.347082	21.485062	0.000000	0.720874	0.693067
-6.571429	22.347082	21.485062	0.000000	0.720874	0.693067
-6.857143	22.347082	21.485062	0.000000	0.720874	0.693067
1.142857	22.347082	21.485062	0.000000	0.720874	0.693067
-1.142857	22.347082	21.485062	0.000000	0.720874	0.693067
-1.428571	22.347082	21.485062	0.000000	0.720874	0.693067
-7.142857	22.347082	21.485062	0.000000	0.720874	0.693067
-7.428571	22.347082	21.485062	0.000000	0.720874	0.693067
-7.714286	22.347082	21.485062	0.000000	0.720874	0.693067
8.000000	22.347082	21.485062	0.000000	0.720874	0.693067
-8.000000	22.347082	21.485062	-1.000000	0.000000	0.000000
7.714286	22.347082	21.485062	0.000000	0.720874	0.693067
7.428571	22.347082	21.485062	0.000000	0.720874	0.693067
-5.714286	22.347082	21.485062	0.000000	0.720874	0.693067
7.142857	22.347082	21.485062	0.000000	0.720874	0.693067
6.857143	22.347082	21.485062	0.000000	0.720874	0.693067
6.571429	22.347082	21.485062	0.000000	0.720874	0.693067
6.285714	22.347082	21.485062	0.000000	0.720874	0.693067
6.000000	22.347082	21.485062	0.000000	0.720874	0.693067
5.714286	22.347082	21.485062	0.000000	0.720874	0.693067
5.428571	22.347082	21.485062	0.000000	0.720874	0.693067
5.142857	22.347082	21.485062	0.000000	0.720874	0.693067
4.857143	22.347082	21.485062	0.000000	0.720874	0.693067
4.571429	22.347082	21.485062	0.000000	0.720874	0.693067
-1.714286	22.347082	21.485062	0.000000	0.720874	0.693067
4.000000	22.347082	21.485062	0.000000	0.720874	0.693067
3.714286	22.347082	21.485062	0.000000	0.720874	0.693067
3.428571	22.347082	21.485062	0.000000	0.720874	0.693067
3.142857	22.347082	21.485062	0.000000	0.720874	0.693067
-2.000000	22.347082	21.485062	0.000000	0.720874	0.693067
-2.285714	22.347082	21.485062	0.000000	0.720874	0.693067
-2.571429	22.347082	21.485062	0.000000	0.720874	0.693067
-2.857143	22.347082	21.485062	0.000000	0.720874	0.693067
-3.142857	22.347082	21.485062	0.000000	0.720874	0.693067
2.857143	22.347082	21.485062	0.000000	0.720874	0.693067
-3.428571	22.347082	21.485062	0.000000	0.720874	0.693067
-3.714286	22.347082	21.485062	0.000000	0.720874	0.693067
-4.000000	22.347082	21.485062	0.000000	0.720874	0.693067
-4.285714	22.347082	21.485062	0.000000	0.720874	0.693067
-4.571429	22.347082	21.485062	0.000000	0.720874	0.693067
2.571429	22.347082	21.485062	0.000000	0.720874	0.693067
2.285714	22.347082	21.485062	0.000000	0.720874	0.693067
-4.857143	22.347082	21.485062	0.000000	0.720874	0.693067
-5.142857	22.347082	21.485062	0.000000	0.720874	0.693067
-5.428571	22.347082	21.485062	0.000000	0.720874	0.693067
2.000000	22.347082	21.485062	0.000000	0.720874	0.693067
-8.000000	-13.959960	21.538275	-1.000000	0.000000	0.000000
8.000000	-13.959960	21.538275	1.000000	0.000000	0.000000
-8.000000	13.959960	21.538275	-1.000000	0.000000	0.000000
8.000000	13.959960	21.538275	1.000000	0.000000	0.000000
-8.000000	-13.895361	21.579174	-1.000000	0.000000	0.000000
8.000000	-13.895361	21.579174	1.000000	0.000000	0.000000
8.000000	13.895361	21.579174	1.000000	0.000000	0.000000
-8.000000	13.895361	21.579174	-1.000000	0.000000	0.000000
8.000000	-21.917425	21.630922	1.000000	0.000000	0.000000
8.000000	20.198410	21.630922	1.000000	0.000000	0.000000
8.000000	-15.900877	21.630922	1.000000	0.000000	0.000000
-8.000000	13.895361	21.630922	-1.000000	0.000000	0.000000
8.000000	-15.614374	21.630922	1.000000	0.000000	0.000000
8.000000	21.917425	21.630922	1.000000	0.000000	0.000000
8.000000	22.203926	21.630922	1.000000	0.000000	0.000000
-8.000000	22.203926	21.630922	-1.000000	0.000000	0.000000
-8.000000	13.813627	21.630922	-1.000000	0.000000	0.000000
8.000000	-15.327872	21.630922	1.000000	0.000000	0.000000
8.000000	-22.203926	21.630922	1.000000	0.000000	0.000000
8.000000	-15.041369	21.630922	1.000000	0.000000	0.000000
8.000000	-14.754868	21.630922	1.000000	0.000000	0.000000
8.000000	-14.468366	21.630922	1.000000	0.000000	0.000000
8.000000	-14.181863	21.630922	1.000000	0.000000	0.000000
8.000000	-13.895361	21.630922	1.000000	0.000000	0.000000
8.000000	19.911909	21.630922	1.000000	0.000000	0.000000
-8.000000	-13.813627	21.630922	-1.000000	0.000000	0.000000
-8.000000	-21.630922	21.630922	-1.000000	0.000000	0.000000
-8.000000	-21.344419	21.630922	-1.000000	0.000000	0.000000
-8.000000	-21.057919	21.630922	-1.000000	0.000000	0.000000
-8.000000	-20.771416	21.630922	-1.000000	0.000000	0.000000
-8.000000	-20.484913	21.630922	-1.000000	0.000000	0.000000
-8.000000	-20.198410	21.630922	-1.000000	0.000000	0.000000
-8.000000	-19.911909	21.630922	-1.000000	0.000000	0.000000
-8.000000	-19.625406	21.630922	-1.000000	0.000000	0.000000
-8.000000	-19.338903	21.630922	-1.000000	0.000000	0.000000
-8.000000	-19.052402	21.630922	-1.000000	0.000000	0.000000
-8.000000	-18.765900	21.630922	-1.000000	0.000000	0.000000
-8.000000	-18.479397	21.630922	-1.000000	0.000000	0.000000
-8.000000	-18.192896	21.630922	-1.000000	0.000000	0.000000
-8.000000	-17.906393	21.630922	-1.000000	0.000000	0.000000
-8.000000	-17.619890	21.630922	-1.000000	0.000000	0.000000
-8.000000	-17.333387	21.630922	-1.000000	0.000000	0.000000
-8.000000	-17.046886	21.630922	-1.000000	0.000000	0.000000
-8.000000	-16.760384	21.630922	-1.000000	0.000000	0.000000
8.000000	20.484913	21.630922	1.000000	0.000000	0.000000
-8.000000	-16.473881	21.630922	-1.000000	0.000000	0.000000
-8.000000	-16.187380	21.630922	-1.000000	0.000000	0.000000
-8.000000	-15.900877	21.630922	-1.000000	0.000000	0.000000
-8.000000	-15.614374	21.630922	-1.000000	0.000000	0.000000
-8.000000	-15.327872	21.630922	-1.000000	0.000000	0.000000
-8.000000	-15.041369	21.630922	-1.000000	0.000000	0.000000
-8.000000	-14.754868	21.630922	-1.000000	0.000000	0.000000
-8.000000	-14.468366	21.630922	-1.000000	0.000000	0.000000
-8.000000	-14.181863	21.630922	-1.000000	0.000000	0.000000
-8.000000	-13.895361	21.630922	-1.000000	0.000000	0.000000
8.000000	20.771416	21.630922	1.000000	0.000000	0.000000
-8.000000	14.181863	21.630922	-1.000000	0.000000	0.000000
-8.000000	14.468366	21.630922	-1.000000	0.000000	0.000000
-8.000000	14.754868	21.630922	-1.000000	0.000000	0.000000
-8.000000	15.041369	21.630922	-1.000000	0.000000	0.000000
-8.000000	15.327872	21.630922	-1.000000	0.000000	0.000000
-8.000000	15.614374	21.630922	-1.000000	0.000000	0.000000
-8.000000	15.900877	21.630922	-1.000000	0.000000	0.000000
-8.000000	16.187380	21.630922	-1.000000	0.000000	0.000000
8.000000	18.479397	21.630922	1.000000	0.000000	0.000000
8.000000	21.057919	21.630922	1.000000	0.000000	0.000000
-8.000000	16.473881	21.630922	-1.000000	0.000000	0.000000
-8.000000	16.760384	21.630922	-1.000000	0.000000	0.000000
-8.000000	17.046886	21.630922	-1.000000	0.000000	0.000000
-8.000000	-21.917425	21.630922	-1.000000	0.000000	0.000000
-8.000000	-22.203926	21.630922	-1.000000	0.000000	0.000000
-8.000000	21.917425	21.630922	-1.000000	0.000000	0.000000
-8.000000	21.630922	21.630922	-1.000000	0.000000	0.000000
-8.000000	21.344419	21.630922	-1.000000	0.000000	0.000000
-8.000000	21.057919	21.630922	-1.000000	0.000000	0.000000
-8.000000	17.333387	21.630922	-1.000000	0.000000	0.000000
-8.000000	17.619890	21.630922	-1.000000	0.000000	0.000000
-8.000000	19.052402	21.630922	-1.000000	0.000000	0.000000
-8.000000	17.906393	21.630922	-1.000000	0.000000	0.000000
-8.000000	18.192896	21.630922	-1.000000	0.000000	0.000000
-8.000000	18.479397	21.630922	-1.000000	0.000000	0.000000
-8.000000	18.765900	21.630922	-1.000000	0.000000	0.000000
8.000000	21.344419	21.630922	1.000000	0.000000	0.000000
8.000000	13.813627	21.630922	1.000000	0.000000	0.000000
8.000000	13.895361	21.630922	1.000000	0.000000	0.000000
8.000000	19.625406	21.630922	1.000000	0.000000	0.000000
8.000000	19.338903	21.630922	1.000000	0.000000	0.000000
8.000000	18.765900	21.630922	1.000000	0.000000	0.000000
8.000000	14.181863	21.630922	1.000000	0.000000	0.000000
8.000000	14.468366	21.630922	1.000000	0.000000	0.000000
8.000000	14.754868	21.630922	1.000000	0.000000	0.000000
8.000000	15.041369	21.630922	1.000000	0.000000	0.000000
8.000000	15.327872	21.630922	1.000000	0.000000	0.000000
8.000000	15.614374	21.630922	1.000000	0.000000	0.000000
8.000000	15.900877	21.630922	1.000000	0.000000	0.000000
8.000000	16.187380	21.630922	1.000000	0.000000	0.000000
-8.000000	-22.205544	21.630922	-1.000000	0.000000	0.000000
8.000000	16.473881	21.630922	1.000000	0.000000	0.000000
8.000000	16.760384	21.630922	1.000000	0.000000	0.000000
8.000000	17.046886	21.630922	1.000000	0.000000	0.000000
8.000000	17.333387	21.630922	1.000000	0.000000	0.000000
8.000000	17.619890	21.630922	1.000000	0.000000	0.000000
8.000000	17.906393	21.630922	1.000000	0.000000	0.000000
8.000000	18.192896	21.630922	1.000000	0.000000	0.000000
8.000000	19.052402	21.630922	1.000000	0.000000	0.000000
8.000000	22.205544	21.630922	0.000000	0.716314	0.697778
-8.000000	22.205544	21.630922	-1.000000	0.000000	0.000000
8.000000	-20.198410	21.630922	1.000000	0.000000	0.000000
8.000000	-20.484913	21.630922	1.000000	0.000000	0.000000
8.000000	-19.911909	21.630922	1.000000	0.000000	0.000000
8.000000	-19.625406	21.630922	1.000000	0.000000	0.000000
8.000000	-19.338903	21.630922	1.000000	0.000000	0.000000
8.000000	-20.771416	21.630922	1.000000	0.000000	0.000000
8.000000	-19.052402	21.630922	1.000000	0.000000	0.000000
8.000000	-18.765900	21.630922	1.000000	0.000000	0.000000
8.000000	-21.057919	21.630922	1.000000	0.000000	0.000000
8.000000	-18.479397	21.630922	1.000000	0.000000	0.000000
8.000000	-18.192896	21.630922	1.000000	0.000000	0.000000
8.000000	-22.205544	21.630922	0.000000	-0.716314	0.697778
8.000000	-17.906393	21.630922	1.000000	0.000000	0.000000
8.000000	-21.344419	21.630922	1.000000	0.000000	0.000000
8.000000	-17.619890	21.630922	1.000000	0.000000	0.000000
8.000000	21.630922	21.630922	1.000000	0.000000	0.000000
8.000000	-17.333387	21.630922	1.000000	0.000000	0.000000
8.000000	-21.630922	21.630922	1.000000	0.000000	0.000000
8.000000	-17.046886	21.630922	1.000000	0.000000	0.000000
8.000000	-16.760384	21.630922	1.000000	0.000000	0.000000
8.000000	-16.473881	21.630922	1.000000	0.000000	0.000000
8.000000	-13.813627	21.630922	1.000000	0.000000	0.000000
8.000000	-16.187380	21.630922	1.000000	0.000000	0.000000
-8.000000	20.771416	21.630922	-1.000000	0.000000	0.000000
-8.000000	20.484913	21.630922	-1.000000	0.000000	0.000000
-8.000000	20.198410	21.630922	-1.000000	0.000000	0.000000
-8.000000	19.911909	21.630922	-1.000000	0.000000	0.000000
-8.000000	19.625406	21.630922	-1.000000	0.000000	0.000000
-8.000000	19.338903	21.630922	-1.000000	0.000000	0.000000
-8.000000	-22.203926	21.632589	-1.000000	0.000000	0.000000
8.000000	-22.203926	21.632589	0.000000	-0.716262	0.697832
8.000000	22.203926	21.632589	0.000000	0.716262	0.697832
-8.000000	22.203926	21.632589	-1.000000	0.000000	0.000000
-8.000000	-22.147314	21.690929	-1.000000	0.000000	0.000000
-7.428571	-22.147314	21.690929	0.000000	-0.714429	0.699707
-7.142857	-22.147314	21.690929	0.000000	-0.714429	0.699707
7.428571	-22.147314	21.690929	0.000000	-0.714429	0.699707
7.142857	-22.147314	21.690929	0.000000	-0.714429	0.699707
6.857143	-22.147314	21.690929	0.000000	-0.714429	0.699707
6.571429	-22.147314	21.690929	0.000000	-0.714429	0.699707
6.285714	-22.147314	21.690929	0.000000	-0.714429	0.699707
6.000000	-22.147314	21.690929	0.000000	-0.714429	0.699707
5.714286	-22.147314	21.690929	0.000000	-0.714429	0.699707
5.428571	-22.147314	21.690929	0.000000	-0.714429	0.699707
5.142857	-22.147314	21.690929	0.000000	-0.714429	0.699707
4.857143	-22.147314	21.690929	0.000000	-0.714429	0.699707
4.571429	-22.147314	21.690929	0.000000	-0.714429	0.699707
4.285714	-22.147314	21.690929	0.000000	-0.714429	0.699707
4.000000	-22.147314	21.690929	0.000000	-0.714429	0.699707
3.714286	-22.147314	21.690929	0.000000	-0.714429	0.699707
3.142857	-22.147314	21.690929	0.000000	-0.714429	0.699707
2.857143	-22.147314	21.690929	0.000000	-0.714429	0.699707
2.571429	-22.147314	21.690929	0.000000	-0.714429	0.699707
2.285714	-22.147314	21.690929	0.000000	-0.714429	0.699707
2.000000	-22.147314	21.690929	0.000000	-0.714429	0.699707
1.714286	-22.147314	21.690929	0.000000	-0.714429	0.699707
1.428571	-22.147314	21.690929	0.000000	-0.714429	0.699707
1.142857	-22.147314	21.690929	0.000000	-0.714429	0.699707
-6.857143	-22.147314	21.690929	0.000000	-0.714429	0.699707
7.714286	-22.147314	21.690929	0.000000	-0.714429	0.699707
0.857143	-22.147314	21.690929	0.000000	-0.714429	0.699707
-5.714286	-22.147314	21.690929	0.000000	-0.714429	0.699707
0.571429	-22.147314	21.690929	0.000000	-0.714429	0.699707
0.285714	-22.147314	21.690929	0.000000	-0.714429	0.699707
0.000000	-22.147314	21.690929	0.000000	-0.714429	0.699707
-4.285714	-22.147314	21.690929	0.000000	-0.714429	0.699707
3.428571	-22.147314	21.690929	0.000000	-0.714429	0.699707
-0.285714	-22.147314	21.690929	0.000000	-0.714429	0.699707
-0.571429	-22.147314	21.690929	0.000000	-0.714429	0.699707
-0.857143	-22.147314	21.690929	0.000000	-0.714429	0.699707
-1.142857	-22.147314	21.690929	0.000000	-0.714429	0.699707
-6.000000	-22.147314	21.690929	0.000000	-0.714429	0.699707
-1.428571	-22.147314	21.690929	0.000000	-0.714429	0.699707
-1.714286	-22.147314	21.690929	0.000000	-0.714429	0.699707
-2.000000	-22.147314	21.690929	0.000000	-0.714429	0.699707
-2.285714	-22.147314	21.690929	0.000000	-0.714429	0.699707
-2.571429	-22.147314	21.690929	0.000000	-0.714429	0.699707
-2.857143	-22.147314	21.690929	0.000000	-0.714429	0.699707
-3.142857	-22.147314	21.690929	0.000000	-0.714429	0.699707
8.000000	-22.147314	21.690929	0.000000	-0.714429	0.699707
-7.714286	-22.147314	21.690929	0.000000	-0.714429	0.699707
-3.428571	-22.147314	21.690929	0.000000	-0.714429	0.699707
-3.714286	-22.147314	21.690929	0.000000	-0.714429	0.699707
-4.000000	-22.147314	21.690929	0.000000	-0.714429	0.699707
-5.142857	-22.147314	21.690929	0.000000	-0.714429	0.699707
-4.857143	-22.147314	21.690929	0.000000	-0.714429	0.699707
-6.571429	-22.147314	21.690929	0.000000	-0.714429	0.699707
-5.428571	-22.147314	21.690929	0.000000	-0.714429	0.699707
-4.571429	-22.147314	21.690929	0.000000	-0.714429	0.699707
-6.285714	-22.147314	21.690929	0.000000	-0.714429	0.699707
-1.428571	22.147314	21.690929	0.000000	0.714429	0.699707
-1.142857	22.147314	21.690929	0.000000	0.714429	0.699707
-0.857143	22.147314	21.690929	0.000000	0.714429	0.699707
-0.571429	22.147314	21.690929	0.000000	0.714429	0.699707
-0.285714	22.147314	21.690929	0.000000	0.714429	0.699707
0.000000	22.147314	21.690929	0.000000	0.714429	0.699707
0.285714	22.147314	21.690929	0.000000	0.714429	0.699707
0.571429	22.147314	21.690929	0.000000	0.714429	0.699707
0.857143	22.147314	21.690929	0.000000	0.714429	0.699707
1.142857	22.147314	21.690929	0.000000	0.714429	0.699707
1.428571	22.147314	21.690929	0.000000	0.714429	0.699707
-1.714286	22.147314	21.690929	0.000000	0.714429	0.699707
-8.000000	22.147314	21.690929	-1.000000	0.000000	0.000000
1.714286	22.147314	21.690929	0.000000	0.714429	0.699707
2.000000	22.147314	21.690929	0.000000	0.714429	0.699707
2.285714	22.147314	21.690929	0.000000	0.714429	0.699707
2.571429	22.147314	21.690929	0.000000	0.714429	0.699707
2.857143	22.147314	21.690929	0.000000	0.714429	0.699707
3.142857	22.147314	21.690929	0.000000	0.714429	0.699707
3.428571	22.147314	21.690929	0.000000	0.714429	0.699707
3.714286	22.147314	21.690929	0.000000	0.714429	0.699707
4.000000	22.147314	21.690929	0.000000	0.714429	0.699707
4.285714	22.147314	21.690929	0.000000	0.714429	0.699707
6.000000	22.147314	21.690929	0.000000	0.714429	0.699707
-7.714286	22.147314	21.690929	0.000000	0.714429	0.699707
4.571429	22.147314	21.690929	0.000000	0.714429	0.699707
4.857143	22.147314	21.690929	0.000000	0.714429	0.699707
5.142857	22.147314	21.690929	0.000000	0.714429	0.699707
5.428571	22.147314	21.690929	0.000000	0.714429	0.699707
5.714286	22.147314	21.690929	0.000000	0.714429	0.699707
6.285714	22.147314	21.690929	0.000000	0.714429	0.699707
6.571429	22.147314	21.690929	0.000000	0.714429	0.699707
6.857143	22.147314	21.690929	0.000000	0.714429	0.699707
7.142857	22.147314	21.690929	0.000000	0.714429	0.699707
-7.428571	22.147314	21.690929	0.000000	0.714429	0.699707
-7.142857	22.147314	21.690929	0.000000	0.714429	0.699707
7.428571	22.147314	21.690929	0.000000	0.714429	0.699707
7.714286	22.147314	21.690929	0.000000	0.714429	0.699707
8.000000	22.147314	21.690929	0.000000	0.714429	0.699707
-6.857143	22.147314	21.690929	0.000000	0.714429	0.699707
-6.571429	22.147314	21.690929	0.000000	0.714429	0.699707
-6.285714	22.147314	21.690929	0.000000	0.714429	0.699707
-6.000000	22.147314	21.690929	0.000000	0.714429	0.699707
-5.714286	22.147314	21.690929	0.000000	0.714429	0.699707
-5.428571	22.147314	21.690929	0.000000	0.714429	0.699707
-5.142857	22.147314	21.690929	0.000000	0.714429	0.699707
-4.857143	22.147314	21.690929	0.000000	0.714429	0.699707
-4.571429	22.147314	21.690929	0.000000	0.714429	0.699707
-4.285714	22.147314	21.690929	0.000000	0.714429	0.699707
-4.000000	22.147314	21.690929	0.000000	0.714429	0.699707
-3.714286	22.147314	21.690929	0.000000	0.714429	0.699707
-3.428571	22.147314	21.690929	0.000000	0.714429	0.699707
-3.142857	22.147314	21.690929	0.000000	0.714429	0.699707
-2.857143	22.147314	21.690929	0.000000	0.714429	0.699707
-2.571429	22.147314	21.690929	0.000000	0.714429	0.699707
-2.285714	22.147314	21.690929	0.000000	0.714429	0.699707
-2.000000	22.147314	21.690929	0.000000	0.714429	0.699707
-8.000000	-13.608858	21.760567	-1.000000	0.000000	0.000000
8.000000	-13.608858	21.760567	1.000000	0.000000	0.000000
8.000000	13.608858	21.760567	1.000000	0.000000	0.000000
-8.000000	13.608858	21.760567	-1.000000	0.000000	0.000000
-8.000000	-13.498086	21.830700	-1.000000	0.000000	0.000000
8.000000	-13.498086	21.830700	1.000000	0.000000	0.000000
8.000000	13.498086	21.830700	1.000000	0.000000	0.000000
-8.000000	13.498086	21.830700	-1.000000	0.000000	0.000000
2.571429	-21.945650	21.894939	0.000000	-0.707924	0.706288
7.142857	-21.945650	21.894939	0.000000	-0.707924	0.706288
7.428571	-21.945650	21.894939	0.000000	-0.707924	0.706288
7.714286	-21.945650	21.894939	0.000000	-0.707924	0.706288
-5.142857	-21.945650	21.894939	0.000000	-0.707924	0.706288
-7.428571	-21.945650	21.894939	0.000000	-0.707924	0.706288
-8.000000	-21.945650	21.894939	-1.000000	0.000000	0.000000
-4.857143	-21.945650	21.894939	0.000000	-0.707924	0.706288
-4.571429	-21.945650	21.894939	0.000000	-0.707924	0.706288
-4.285714	-21.945650	21.894939	0.000000	-0.707924	0.706288
-7.142857	-21.945650	21.894939	0.000000	-0.707924	0.706288
-7.714286	-21.945650	21.894939	0.000000	-0.707924	0.706288
8.000000	-21.945650	21.894939	0.000000	-0.707924	0.706288
3.142857	-21.945650	21.894939	0.000000	-0.707924	0.706288
-4.000000	-21.945650	21.894939	0.000000	-0.707924	0.706288
-3.714286	-21.945650	21.894939	0.000000	-0.707924	0.706288
-3.428571	-21.945650	21.894939	0.000000	-0.707924	0.706288
-3.142857	-21.945650	21.894939	0.000000	-0.707924	0.706288
-2.857143	-21.945650	21.894939	0.000000	-0.707924	0.706288
-2.285714	-21.945650	21.894939	0.000000	-0.707924	0.706288
-2.000000	-21.945650	21.894939	0.000000	-0.707924	0.706288
-1.714286	-21.945650	21.894939	0.000000	-0.707924	0.706288
-1.428571	-21.945650	21.894939	0.000000	-0.707924	0.706288
1.428571	-21.945650	21.894939	0.000000	-0.707924	0.706288
1.714286	-21.945650	21.894939	0.000000	-0.707924	0.706288
2.000000	-21.945650	21.894939	0.000000	-0.707924	0.706288
2.285714	-21.945650	21.894939	0.000000	-0.707924	0.706288
2.857143	-21.945650	21.894939	0.000000	-0.707924	0.706288
-1.142857	-21.945650	21.894939	0.000000	-0.707924	0.706288
3.428571	-21.945650	21.894939	0.000000	-0.707924	0.706288
3.714286	-21.945650	21.894939	0.000000	-0.707924	0.706288
4.000000	-21.945650	21.894939	0.000000	-0.707924	0.706288
-5.428571	-21.945650	21.894939	0.000000	-0.707924	0.706288
-5.714286	-21.945650	21.894939	0.000000	-0.707924	0.706288
4.285714	-21.945650	21.894939	0.000000	-0.707924	0.706288
4.571429	-21.945650	21.894939	0.000000	-0.707924	0.706288
4.857143	-21.945650	21.894939	0.000000	-0.707924	0.706288
5.142857	-21.945650	21.894939	0.000000	-0.707924	0.706288
5.428571	-21.945650	21.894939	0.000000	-0.707924	0.706288
5.714286	-21.945650	21.894939	0.000000	-0.707924	0.706288
6.000000	-21.945650	21.894939	0.000000	-0.707924	0.706288
6.285714	-21.945650	21.894939	0.000000	-0.707924	0.706288
6.571429	-21.945650	21.894939	0.000000	-0.707924	0.706288
6.857143	-21.945650	21.894939	0.000000	-0.707924	0.706288
-6.000000	-21.945650	21.894939	0.000000	-0.707924	0.706288
-0.857143	-21.945650	21.894939	0.000000	-0.707924	0.706288
-0.571429	-21.945650	21.894939	0.000000	-0.707924	0.706288
-0.285714	-21.945650	21.894939	0.000000	-0.707924	0.706288
0.000000	-21.945650	21.894939	0.000000	-0.707924	0.706288
0.285714	-21.945650	21.894939	0.000000	-0.707924	0.706288
0.571429	-21.945650	21.894939	0.000000	-0.707924	0.706288
0.857143	-21.945650	21.894939	0.000000	-0.707924	0.706288
1.142857	-21.945650	21.894939	0.000000	-0.707924	0.706288
-2.571429	-21.945650	21.894939	0.000000	-0.707924	0.706288
-6.285714	-21.945650	21.894939	0.000000	-0.707924	0.706288
-6.571429	-21.945650	21.894939	0.000000	-0.707924	0.706288
-6.857143	-21.945650	21.894939	0.000000	-0.707924	0.706288
-8.000000	21.945650	21.894939	-1.000000	0.000000	0.000000
8.000000	21.945650	21.894939	0.000000	0.707924	0.706288
-7.714286	21.945650	21.894939	0.000000	0.707924	0.706288
-7.428571	21.945650	21.894939	0.000000	0.707924	0.706288
-7.142857	21.945650	21.894939	0.000000	0.707924	0.706288
-6.857143	21.945650	21.894939	0.000000	0.707924	0.706288
-6.571429	21.945650	21.894939	0.000000	0.707924	0.706288
-5.714286	21.945650	21.894939	0.000000	0.707924	0.706288
-5.428571	21.945650	21.894939	0.000000	0.707924	0.706288
-5.142857	21.945650	21.894939	0.000000	0.707924	0.706288
-4.857143	21.945650	21.894939	0.000000	0.707924	0.706288
-4.571429	21.945650	21.894939	0.000000	0.707924	0.706288
-4.285714	21.945650	21.894939	0.000000	0.707924	0.706288
-4.000000	21.945650	21.894939	0.000000	0.707924	0.706288
-3.714286	21.945650	21.894939	0.000000	0.707924	0.706288
-3.428571	21.945650	21.894939	0.000000	0.707924	0.706288
-6.000000	21.945650	21.894939	0.000000	0.707924	0.706288
7.428571	21.945650	21.894939	0.000000	0.707924	0.706288
7.142857	21.945650	21.894939	0.000000	0.707924	0.706288
6.857143	21.945650	21.894939	0.000000	0.707924	0.706288
6.571429	21.945650	21.894939	0.000000	0.707924	0.706288
6.285714	21.945650	21.894939	0.000000	0.707924	0.706288
6.000000	21.945650	21.894939	0.000000	0.707924	0.706288
5.714286	21.945650	21.894939	0.000000	0.707924	0.706288
5.428571	21.945650	21.894939	0.000000	0.707924	0.706288
-2.571429	21.945650	21.894939	0.000000	0.707924	0.706288
-6.285714	21.945650	21.894939	0.000000	0.707924	0.706288
4.285714	21.945650	21.894939	0.000000	0.707924	0.706288
3.714286	21.945650	21.894939	0.000000	0.707924	0.706288
-2.857143	21.945650	21.894939	0.000000	0.707924	0.706288
4.000000	21.945650	21.894939	0.000000	0.707924	0.706288
4.571429	21.945650	21.894939	0.000000	0.707924	0.706288
-3.142857	21.945650	21.894939	0.000000	0.707924	0.706288
3.428571	21.945650	21.894939	0.000000	0.707924	0.706288
3.142857	21.945650	21.894939	0.000000	0.707924	0.706288
2.857143	21.945650	21.894939	0.000000	0.707924	0.706288
2.571429	21.945650	21.894939	0.000000	0.707924	0.706288
2.285714	21.945650	21.894939	0.000000	0.707924	0.706288
2.000000	21.945650	21.894939	0.000000	0.707924	0.706288
1.714286	21.945650	21.894939	0.000000	0.707924	0.706288
1.428571	21.945650	21.894939	0.000000	0.707924	0.706288
7.714286	21.945650	21.894939	0.000000	0.707924	0.706288
1.142857	21.945650	21.894939	0.000000	0.707924	0.706288
0.857143	21.945650	21.894939	0.000000	0.707924	0.706288
0.571429	21.945650	21.894939	0.000000	0.707924	0.706288
0.285714	21.945650	21.894939	0.000000	0.707924	0.706288
0.000000	21.945650	21.894939	0.000000	0.707924	0.706288
-0.285714	21.945650	21.894939	0.000000	0.707924	0.706288
-0.571429	21.945650	21.894939	0.000000	0.707924	0.706288
4.857143	21.945650	21.894939	0.000000	0.707924	0.706288
5.142857	21.945650	21.894939	0.000000	0.707924	0.706288
-0.857143	21.945650	21.894939	0.000000	0.707924	0.706288
-1.142857	21.945650	21.894939	0.000000	0.707924	0.706288
-1.428571	21.945650	21.894939	0.000000	0.707924	0.706288
-1.714286	21.945650	21.894939	0.000000	0.707924	0.706288
-2.000000	21.945650	21.894939	0.000000	0.707924	0.706288
-2.285714	21.945650	21.894939	0.000000	0.707924	0.706288
8.000000	21.057919	21.917425	1.000000	0.000000	0.000000
8.000000	-21.923010	21.917425	0.000000	-0.707197	0.707017
-8.000000	20.484913	21.917425	-1.000000	0.000000	0.000000
8.000000	21.344419	21.917425	1.000000	0.000000	0.000000
8.000000	21.630922	21.917425	1.000000	0.000000	0.000000
8.000000	17.333387	21.917425	1.000000	0.000000	0.000000
-8.000000	18.765900	21.917425	-1.000000	0.000000	0.000000
8.000000	17.619890	21.917425	1.000000	0.000000	0.000000
8.000000	14.181863	21.917425	1.000000	0.000000	0.000000
-8.000000	18.479397	21.917425	-1.000000	0.000000	0.000000
-8.000000	13.608858	21.917425	-1.000000	0.000000	0.000000
-8.000000	13.354426	21.917425	-1.000000	0.000000	0.000000
8.000000	21.917425	21.917425	1.000000	0.000000	0.000000
8.000000	21.923010	21.917425	0.000000	0.707197	0.707017
8.000000	14.468366	21.917425	1.000000	0.000000	0.000000
-8.000000	-21.630922	21.917425	-1.000000	0.000000	0.000000
8.000000	-21.917425	21.917425	1.000000	0.000000	0.000000
8.000000	17.906393	21.917425	1.000000	0.000000	0.000000
-8.000000	18.192896	21.917425	-1.000000	0.000000	0.000000
8.000000	13.354426	21.917425	1.000000	0.000000	0.000000
8.000000	13.608858	21.917425	1.000000	0.000000	0.000000
8.000000	18.479397	21.917425	1.000000	0.000000	0.000000
8.000000	18.192896	21.917425	1.000000	0.000000	0.000000
8.000000	14.754868	21.917425	1.000000	0.000000	0.000000
-8.000000	20.198410	21.917425	-1.000000	0.000000	0.000000
-8.000000	17.906393	21.917425	-1.000000	0.000000	0.000000
-8.000000	-19.911909	21.917425	-1.000000	0.000000	0.000000
8.000000	19.052402	21.917425	1.000000	0.000000	0.000000
-8.000000	21.344419	21.917425	-1.000000	0.000000	0.000000
8.000000	16.760384	21.917425	1.000000	0.000000	0.000000
8.000000	-20.198410	21.917425	1.000000	0.000000	0.000000
-8.000000	17.619890	21.917425	-1.000000	0.000000	0.000000
8.000000	15.041369	21.917425	1.000000	0.000000	0.000000
-8.000000	17.333387	21.917425	-1.000000	0.000000	0.000000
8.000000	19.338903	21.917425	1.000000	0.000000	0.000000
-8.000000	17.046886	21.917425	-1.000000	0.000000	0.000000
-8.000000	21.057919	21.917425	-1.000000	0.000000	0.000000
8.000000	18.765900	21.917425	1.000000	0.000000	0.000000
8.000000	19.625406	21.917425	1.000000	0.000000	0.000000
-8.000000	16.760384	21.917425	-1.000000	0.000000	0.000000
-8.000000	16.473881	21.917425	-1.000000	0.000000	0.000000
-8.000000	16.187380	21.917425	-1.000000	0.000000	0.000000
-8.000000	15.900877	21.917425	-1.000000	0.000000	0.000000
-8.000000	15.614374	21.917425	-1.000000	0.000000	0.000000
-8.000000	15.327872	21.917425	-1.000000	0.000000	0.000000
-8.000000	15.041369	21.917425	-1.000000	0.000000	0.000000
-8.000000	14.754868	21.917425	-1.000000	0.000000	0.000000
-8.000000	14.468366	21.917425	-1.000000	0.000000	0.000000
-8.000000	20.771416	21.917425	-1.000000	0.000000	0.000000
-8.000000	14.181863	21.917425	-1.000000	0.000000	0.000000
-8.000000	13.895361	21.917425	-1.000000	0.000000	0.000000
8.000000	-20.484913	21.917425	1.000000	0.000000	0.000000
8.000000	-19.911909	21.917425	1.000000	0.000000	0.000000
8.000000	-19.625406	21.917425	1.000000	0.000000	0.000000
8.000000	16.473881	21.917425	1.000000	0.000000	0.000000
8.000000	-19.338903	21.917425	1.000000	0.000000	0.000000
8.000000	-20.771416	21.917425	1.000000	0.000000	0.000000
8.000000	-19.052402	21.917425	1.000000	0.000000	0.000000
8.000000	-18.765900	21.917425	1.000000	0.000000	0.000000
8.000000	-21.057919	21.917425	1.000000	0.000000	0.000000
8.000000	-18.479397	21.917425	1.000000	0.000000	0.000000
8.000000	-18.192896	21.917425	1.000000	0.000000	0.000000
8.000000	-17.906393	21.917425	1.000000	0.000000	0.000000
8.000000	-21.344419	21.917425	1.000000	0.000000	0.000000
-8.000000	21.630922	21.917425	-1.000000	0.000000	0.000000
-8.000000	-13.608858	21.917425	-1.000000	0.000000	0.000000
-8.000000	-13.895361	21.917425	-1.000000	0.000000	0.000000
-8.000000	-14.181863	21.917425	-1.000000	0.000000	0.000000
-8.000000	-21.923010	21.917425	-1.000000	0.000000	0.000000
-8.000000	-14.468366	21.917425	-1.000000	0.000000	0.000000
-8.000000	19.911909	21.917425	-1.000000	0.000000	0.000000
8.000000	-17.619890	21.917425	1.000000	0.000000	0.000000
8.000000	-17.333387	21.917425	1.000000	0.000000	0.000000
8.000000	-21.630922	21.917425	1.000000	0.000000	0.000000
8.000000	-17.046886	21.917425	1.000000	0.000000	0.000000
8.000000	-16.760384	21.917425	1.000000	0.000000	0.000000
8.000000	-16.473881	21.917425	1.000000	0.000000	0.000000
8.000000	15.327872	21.917425	1.000000	0.000000	0.000000
-8.000000	19.625406	21.917425	-1.000000	0.000000	0.000000
8.000000	-16.187380	21.917425	1.000000	0.000000	0.000000
8.000000	20.198410	21.917425	1.000000	0.000000	0.000000
8.000000	-15.900877	21.917425	1.000000	0.000000	0.000000
8.000000	-15.614374	21.917425	1.000000	0.000000	0.000000
8.000000	-15.327872	21.917425	1.000000	0.000000	0.000000
8.000000	-15.041369	21.917425	1.000000	0.000000	0.000000
8.000000	-14.754868	21.917425	1.000000	0.000000	0.000000
8.000000	15.614374	21.917425	1.000000	0.000000	0.000000
-8.000000	19.338903	21.917425	-1.000000	0.000000	0.000000
8.000000	-14.468366	21.917425	1.000000	0.000000	0.000000
8.000000	-14.181863	21.917425	1.000000	0.000000	0.000000
8.000000	-13.895361	21.917425	1.000000	0.000000	0.000000
-8.000000	-21.917425	21.917425	-1.000000	0.000000	0.000000
8.000000	16.187380	21.917425	1.000000	0.000000	0.000000
8.000000	-13.608858	21.917425	1.000000	0.000000	0.000000
-8.000000	-13.354426	21.917425	-1.000000	0.000000	0.000000
8.000000	19.911909	21.917425	1.000000	0.000000	0.000000
8.000000	15.900877	21.917425	1.000000	0.000000	0.000000
-8.000000	19.052402	21.917425	-1.000000	0.000000	0.000000
-8.000000	-14.754868	21.917425	-1.000000	0.000000	0.000000
-8.000000	-15.041369	21.917425	-1.000000	0.000000	0.000000
8.000000	17.046886	21.917425	1.000000	0.000000	0.000000
-8.000000	-15.327872	21.917425	-1.000000	0.000000	0.000000
-8.000000	-15.614374	21.917425	-1.000000	0.000000	0.000000
-8.000000	-15.900877	21.917425	-1.000000	0.000000	0.000000
-8.000000	-16.187380	21.917425	-1.000000	0.000000	0.000000
-8.000000	-16.473881	21.917425	-1.000000	0.000000	0.000000
-8.000000	21.917425	21.917425	-1.000000	0.000000	0.000000
-8.000000	-16.760384	21.917425	-1.000000	0.000000	0.000000
-8.000000	-17.046886	21.917425	-1.000000	0.000000	0.000000
-8.000000	-17.333387	21.917425	-1.000000	0.000000	0.000000
-8.000000	-17.619890	21.917425	-1.000000	0.000000	0.000000
-8.000000	-17.906393	21.917425	-1.000000	0.000000	0.000000
-8.000000	-18.192896	21.917425	-1.000000	0.000000	0.000000
-8.000000	-18.479397	21.917425	-1.000000	0.000000	0.000000
-8.000000	-18.765900	21.917425	-1.000000	0.000000	0.000000
-8.000000	-19.052402	21.917425	-1.000000	0.000000	0.000000
-8.000000	-19.338903	21.917425	-1.000000	0.000000	0.000000
-8.000000	-19.625406	21.917425	-1.000000	0.000000	0.000000
-8.000000	-20.198410	21.917425	-1.000000	0.000000	0.000000
-8.000000	-20.484913	21.917425	-1.000000	0.000000	0.000000
8.000000	-13.354426	21.917425	1.000000	0.000000	0.000000
-8.000000	-20.771416	21.917425	-1.000000	0.000000	0.000000
-8.000000	-21.057919	21.917425	-1.000000	0.000000	0.000000
-8.000000	21.923010	21.917425	-1.000000	0.000000	0.000000
-8.000000	-21.344419	21.917425	-1.000000	0.000000	0.000000
8.000000	20.771416	21.917425	1.000000	0.000000	0.000000
8.000000	13.895361	21.917425	1.000000	0.000000	0.000000
8.000000	20.484913	21.917425	1.000000	0.000000	0.000000
-8.000000	-21.917425	21.922972	-1.000000	0.000000	0.000000
8.000000	-21.917425	21.922972	0.000000	-0.707017	0.707196
8.000000	21.917425	21.922972	0.000000	0.707017	0.707196
-8.000000	21.917425	21.922972	-1.000000	0.000000	0.000000
-8.000000	-13.322356	21.936785	-1.000000	0.000000	0.000000
8.000000	-13.322356	21.936785	1.000000	0.000000	0.000000
8.000000	13.322356	21.936785	1.000000	0.000000	0.000000
-8.000000	13.322356	21.936785	-1.000000	0.000000	0.000000
1.428571	-21.742107	22.097076	0.000000	-0.701358	0.712809
1.142857	-21.742107	22.097076	0.000000	-0.701358	0.712809
0.857143	-21.742107	22.097076	0.000000	-0.701358	0.712809
0.571429	-21.742107	22.097076	0.000000	-0.701358	0.712809
0.285714	-21.742107	22.097076	0.000000	-0.701358	0.712809
0.000000	-21.742107	22.097076	0.000000	-0.701358	0.712809
-0.285714	-21.742107	22.097076	0.000000	-0.701358	0.712809
-0.571429	-21.742107	22.097076	0.000000	-0.701358	0.712809
-0.857143	-21.742107	22.097076	0.000000	-0.701358	0.712809
-1.142857	-21.742107	22.097076	0.000000	-0.701358	0.712809
-1.428571	-21.742107	22.097076	0.000000	-0.701358	0.712809
-1.714286	-21.742107	22.097076	0.000000	-0.701358	0.712809
-2.000000	-21.742107	22.097076	0.000000	-0.701358	0.712809
-2.285714	-21.742107	22.097076	0.000000	-0.701358	0.712809
-2.571429	-21.742107	22.097076	0.000000	-0.701358	0.712809
-2.857143	-21.742107	22.097076	0.000000	-0.701358	0.712809
-3.142857	-21.742107	22.097076	0.000000	-0.701358	0.712809
-3.428571	-21.742107	22.097076	0.000000	-0.701358	0.712809
-3.714286	-21.742107	22.097076	0.000000	-0.701358	0.712809
-4.000000	-21.742107	22.097076	0.000000	-0.701358	0.712809
-4.285714	-21.742107	22.097076	0.000000	-0.701358	0.712809
-4.571429	-21.742107	22.097076	0.000000	-0.701358	0.712809
-4.857143	-21.742107	22.097076	0.000000	-0.701358	0.712809
-5.142857	-21.742107	22.097076	0.000000	-0.701358	0.712809
-5.428571	-21.742107	22.097076	0.000000	-0.701358	0.712809
-5.714286	-21.742107	22.097076	0.000000	-0.701358	0.712809
-6.000000	-21.742107	22.097076	0.000000	-0.701358	0.712809
-6.285714	-21.742107	22.097076	0.000000	-0.701358	0.712809
-6.571429	-21.742107	22.097076	0.000000	-0.701358	0.712809
-6.857143	-21.742107	22.097076	0.000000	-0.701358	0.712809
-7.142857	-21.742107	22.097076	0.000000	-0.701358	0.712809
-7.428571	-21.742107	22.097076	0.000000	-0.701358	0.712809
-7.714286	-21.742107	22.097076	0.000000	-0.701358	0.712809
6.000000	-21.742107	22.097076	0.000000	-0.701358	0.712809
5.714286	-21.742107	22.097076	0.000000	-0.701358	0.712809
5.428571	-21.742107	22.097076	0.000000	-0.701358	0.712809
5.142857	-21.742107	22.097076	0.000000	-0.701358	0.712809
4.857143	-21.742107	22.097076	0.000000	-0.701358	0.712809
4.571429	-21.742107	22.097076	0.000000	-0.701358	0.712809
-8.000000	-21.742107	22.097076	-1.000000	0.000000	0.000000
8.000000	-21.742107	22.097076	0.000000	-0.701358	0.712809
7.714286	-21.742107	22.097076	0.000000	-0.701358	0.712809
7.428571	-21.742107	22.097076	0.000000	-0.701358	0.712809
6.857143	-21.742107	22.097076	0.000000	-0.701358	0.712809
6.571429	-21.742107	22.097076	0.000000	-0.701358	0.712809
6.285714	-21.742107	22.097076	0.000000	-0.701358	0.712809
4.285714	-21.742107	22.097076	0.000000	-0.701358	0.712809
4.000000	-21.742107	22.097076	0.000000	-0.701358	0.712809
3.714286	-21.742107	22.097076	0.000000	-0.701358	0.712809
3.428571	-21.742107	22.097076	0.000000	-0.701358	0.712809
3.142857	-21.742107	22.097076	0.000000	-0.701358	0.712809
2.857143	-21.742107	22.097076	0.000000	-0.701358	0.712809
2.571429	-21.742107	22.097076	0.000000	-0.701358	0.712809
