-10.342042	14.000000	-4.426572	0.000000	1.000000	0.000000
10.342042	14.000000	-4.426572	0.000000	1.000000	0.000000
-13.296178	12.971429	-4.383109	-0.949727	0.000000	-0.313079
-13.296178	13.085714	-4.383109	-0.949727	0.000000	-0.313079
-13.296178	13.200000	-4.383109	-0.949727	0.000000	-0.313079
-13.296178	13.314285	-4.383109	-0.949727	0.000000	-0.313079
-13.296178	13.542857	-4.383109	-0.949727	0.000000	-0.313079
-13.296178	13.428572	-4.383109	-0.949727	0.000000	-0.313079
-13.296178	13.771428	-4.383109	-0.949727	0.000000	-0.313079
-13.296178	14.000000	-4.383109	0.000000	1.000000	0.000000
-13.296178	11.600000	-4.383109	-0.949727	0.000000	-0.313079
-13.296178	13.657143	-4.383109	-0.949727	0.000000	-0.313079
-13.296178	11.828571	-4.383109	-0.949727	0.000000	-0.313079
-13.296178	11.942857	-4.383109	-0.949727	0.000000	-0.313079
-13.296178	12.857142	-4.383109	-0.949727	0.000000	-0.313079
-13.296178	12.171429	-4.383109	-0.949727	0.000000	-0.313079
-13.296178	12.285714	-4.383109	-0.949727	0.000000	-0.313079
-13.296178	12.400000	-4.383109	-0.949727	0.000000	-0.313079
-13.296178	12.514286	-4.383109	-0.949727	0.000000	-0.313079
-13.296178	13.885715	-4.383109	-0.949727	0.000000	-0.313079
-13.296178	12.628572	-4.383109	-0.949727	0.000000	-0.313079
-13.296178	11.714286	-4.383109	-0.949727	0.000000	-0.313079
-13.296178	12.742857	-4.383109	-0.949727	0.000000	-0.313079
-13.296178	12.057143	-4.383109	-0.949727	0.000000	-0.313079
13.296178	14.000000	-4.383109	0.000000	1.000000	0.000000
13.296178	13.771428	-4.383109	0.949727	0.000000	-0.313079
13.296178	13.885715	-4.383109	0.949727	0.000000	-0.313079
13.296178	13.657143	-4.383109	0.949727	0.000000	-0.313079
13.296178	13.542857	-4.383109	0.949727	0.000000	-0.313079
13.296178	13.428572	-4.383109	0.949727	0.000000	-0.313079
13.296178	13.314285	-4.383109	0.949727	0.000000	-0.313079
13.296178	13.200000	-4.383109	0.949727	0.000000	-0.313079
13.296178	13.085714	-4.383109	0.949727	0.000000	-0.313079
13.296178	12.971429	-4.383109	0.949727	0.000000	-0.313079
13.296178	12.857142	-4.383109	0.949727	0.000000	-0.313079
13.296178	12.742857	-4.383109	0.949727	0.000000	-0.313079
13.296178	12.628572	-4.383109	0.949727	0.000000	-0.313079
13.296178	12.514286	-4.383109	0.949727	0.000000	-0.313079
13.296178	12.400000	-4.383109	0.949727	0.000000	-0.313079
13.296178	12.285714	-4.383109	0.949727	0.000000	-0.313079
13.296178	12.171429	-4.383109	0.949727	0.000000	-0.313079
13.296178	12.057143	-4.383109	0.949727	0.000000	-0.313079
13.296178	11.942857	-4.383109	0.949727	0.000000	-0.313079
13.296178	11.828571	-4.383109	0.949727	0.000000	-0.313079
13.296178	11.714286	-4.383109	0.949727	0.000000	-0.313079
13.296178	11.600000	-4.383109	0.949727	0.000000	-0.313079
13.302393	14.000000	-4.363983	0.000000	1.000000	0.000000
10.368443	14.000000	-4.363983	0.000000	1.000000	0.000000
10.461603	14.000000	-4.363983	0.000000	1.000000	0.000000
-13.302393	14.000000	-4.363983	0.000000	1.000000	0.000000
12.613705	14.000000	-4.363983	0.000000	1.000000	0.000000
12.494143	14.000000	-4.363983	0.000000	1.000000	0.000000
-11.059409	14.000000	-4.363983	0.000000	1.000000	0.000000
13.091949	14.000000	-4.363983	0.000000	1.000000	0.000000
13.211511	14.000000	-4.363983	0.000000	1.000000	0.000000
-11.178970	14.000000	-4.363983	0.000000	1.000000	0.000000
-10.939848	14.000000	-4.363983	0.000000	1.000000	0.000000
-12.494143	14.000000	-4.363983	0.000000	1.000000	0.000000
10.820287	14.000000	-4.363983	0.000000	1.000000	0.000000
11.657215	14.000000	-4.363983	0.000000	1.000000	0.000000
12.733266	14.000000	-4.363983	0.000000	1.000000	0.000000
-12.255021	14.000000	-4.363983	0.000000	1.000000	0.000000
12.852827	14.000000	-4.363983	0.000000	1.000000	0.000000
-12.972388	14.000000	-4.363983	0.000000	1.000000	0.000000
-10.820287	14.000000	-4.363983	0.000000	1.000000	0.000000
-12.015899	14.000000	-4.363983	0.000000	1.000000	0.000000
-11.418093	14.000000	-4.363983	0.000000	1.000000	0.000000
-11.657215	14.000000	-4.363983	0.000000	1.000000	0.000000
11.059409	14.000000	-4.363983	0.000000	1.000000	0.000000
11.418093	14.000000	-4.363983	0.000000	1.000000	0.000000
10.939848	14.000000	-4.363983	0.000000	1.000000	0.000000
-10.581164	14.000000	-4.363983	0.000000	1.000000	0.000000
-12.135460	14.000000	-4.363983	0.000000	1.000000	0.000000
11.776776	14.000000	-4.363983	0.000000	1.000000	0.000000
-11.298532	14.000000	-4.363983	0.000000	1.000000	0.000000
-11.776776	14.000000	-4.363983	0.000000	1.000000	0.000000
-10.461603	14.000000	-4.363983	0.000000	1.000000	0.000000
11.537654	14.000000	-4.363983	0.000000	1.000000	0.000000
-12.733266	14.000000	-4.363983	0.000000	1.000000	0.000000
12.015899	14.000000	-4.363983	0.000000	1.000000	0.000000
11.896338	14.000000	-4.363983	0.000000	1.000000	0.000000
11.298532	14.000000	-4.363983	0.000000	1.000000	0.000000
-13.091949	14.000000	-4.363983	0.000000	1.000000	0.000000
12.374582	14.000000	-4.363983	0.000000	1.000000	0.000000
12.972388	14.000000	-4.363983	0.000000	1.000000	0.000000
-13.211511	14.000000	-4.363983	0.000000	1.000000	0.000000
-12.374582	14.000000	-4.363983	0.000000	1.000000	0.000000
12.255021	14.000000	-4.363983	0.000000	1.000000	0.000000
-12.852827	14.000000	-4.363983	0.000000	1.000000	0.000000
-12.613705	14.000000	-4.363983	0.000000	1.000000	0.000000
12.135460	14.000000	-4.363983	0.000000	1.000000	0.000000
-11.537654	14.000000	-4.363983	0.000000	1.000000	0.000000
11.178970	14.000000	-4.363983	0.000000	1.000000	0.000000
10.700726	14.000000	-4.363983	0.000000	1.000000	0.000000
10.581164	14.000000	-4.363983	0.000000	1.000000	0.000000
-10.700726	14.000000	-4.363983	0.000000	1.000000	0.000000
-11.896338	14.000000	-4.363983	0.000000	1.000000	0.000000
-10.368443	14.000000	-4.363983	0.000000	1.000000	0.000000
-13.331072	14.000000	-4.275718	0.000000	1.000000	0.000000
13.331072	14.000000	-4.275718	0.000000	1.000000	0.000000
-13.333161	11.600000	-4.269288	-0.952369	0.000000	-0.304949
-13.333161	12.171429	-4.269288	-0.952369	0.000000	-0.304949
-13.333161	13.085714	-4.269288	-0.952369	0.000000	-0.304949
-13.333161	13.200000	-4.269288	-0.952369	0.000000	-0.304949
-13.333161	13.314285	-4.269288	-0.952369	0.000000	-0.304949
-13.333161	13.542857	-4.269288	-0.952369	0.000000	-0.304949
-13.333161	11.714286	-4.269288	-0.952369	0.000000	-0.304949
-13.333161	11.828571	-4.269288	-0.952369	0.000000	-0.304949
-13.333161	11.942857	-4.269288	-0.952369	0.000000	-0.304949
-13.333161	12.057143	-4.269288	-0.952369	0.000000	-0.304949
-13.333161	13.428572	-4.269288	-0.952369	0.000000	-0.304949
-13.333161	13.657143	-4.269288	-0.952369	0.000000	-0.304949
-13.333161	13.771428	-4.269288	-0.952369	0.000000	-0.304949
-13.333161	13.885715	-4.269288	-0.952369	0.000000	-0.304949
-13.333161	12.285714	-4.269288	-0.952369	0.000000	-0.304949
-13.333161	12.400000	-4.269288	-0.952369	0.000000	-0.304949
-13.333161	12.514286	-4.269288	-0.952369	0.000000	-0.304949
-13.333161	12.628572	-4.269288	-0.952369	0.000000	-0.304949
-13.333161	12.742857	-4.269288	-0.952369	0.000000	-0.304949
-13.333161	14.000000	-4.269288	0.000000	1.000000	0.000000
-13.333161	12.857142	-4.269288	-0.952369	0.000000	-0.304949
-13.333161	12.971429	-4.269288	-0.952369	0.000000	-0.304949
13.333161	12.057143	-4.269288	0.952369	0.000000	-0.304949
13.333161	14.000000	-4.269288	0.000000	1.000000	0.000000
13.333161	13.885715	-4.269288	0.952369	0.000000	-0.304949
13.333161	13.771428	-4.269288	0.952369	0.000000	-0.304949
13.333161	13.657143	-4.269288	0.952369	0.000000	-0.304949
13.333161	13.542857	-4.269288	0.952369	0.000000	-0.304949
13.333161	13.428572	-4.269288	0.952369	0.000000	-0.304949
13.333161	13.314285	-4.269288	0.952369	0.000000	-0.304949
13.333161	13.200000	-4.269288	0.952369	0.000000	-0.304949
13.333161	13.085714	-4.269288	0.952369	0.000000	-0.304949
13.333161	12.971429	-4.269288	0.952369	0.000000	-0.304949
13.333161	12.857142	-4.269288	0.952369	0.000000	-0.304949
13.333161	12.742857	-4.269288	0.952369	0.000000	-0.304949
13.333161	12.628572	-4.269288	0.952369	0.000000	-0.304949
13.333161	12.514286	-4.269288	0.952369	0.000000	-0.304949
13.333161	12.400000	-4.269288	0.952369	0.000000	-0.304949
13.333161	12.285714	-4.269288	0.952369	0.000000	-0.304949
13.333161	12.171429	-4.269288	0.952369	0.000000	-0.304949
13.333161	11.942857	-4.269288	0.952369	0.000000	-0.304949
13.333161	11.828571	-4.269288	0.952369	0.000000	-0.304949
13.333161	11.714286	-4.269288	0.952369	0.000000	-0.304949
13.333161	11.600000	-4.269288	0.952369	0.000000	-0.304949
-10.410305	14.000000	-4.264745	0.000000	1.000000	0.000000
10.410305	14.000000	-4.264745	0.000000	1.000000	0.000000
13.341006	14.000000	-4.244422	0.000000	1.000000	0.000000
-10.700726	14.000000	-4.244422	0.000000	1.000000	0.000000
12.852827	14.000000	-4.244422	0.000000	1.000000	0.000000
11.298532	14.000000	-4.244422	0.000000	1.000000	0.000000
-12.135460	14.000000	-4.244422	0.000000	1.000000	0.000000
12.733266	14.000000	-4.244422	0.000000	1.000000	0.000000
12.972388	14.000000	-4.244422	0.000000	1.000000	0.000000
11.418093	14.000000	-4.244422	0.000000	1.000000	0.000000
-11.657215	14.000000	-4.244422	0.000000	1.000000	0.000000
12.613705	14.000000	-4.244422	0.000000	1.000000	0.000000
-12.494143	14.000000	-4.244422	0.000000	1.000000	0.000000
-12.972388	14.000000	-4.244422	0.000000	1.000000	0.000000
-11.178970	14.000000	-4.244422	0.000000	1.000000	0.000000
10.939848	14.000000	-4.244422	0.000000	1.000000	0.000000
12.494143	14.000000	-4.244422	0.000000	1.000000	0.000000
-13.341006	14.000000	-4.244422	0.000000	1.000000	0.000000
13.091949	14.000000	-4.244422	0.000000	1.000000	0.000000
-11.059409	14.000000	-4.244422	0.000000	1.000000	0.000000
-10.461603	14.000000	-4.244422	0.000000	1.000000	0.000000
10.820287	14.000000	-4.244422	0.000000	1.000000	0.000000
-12.255021	14.000000	-4.244422	0.000000	1.000000	0.000000
13.211511	14.000000	-4.244422	0.000000	1.000000	0.000000
-11.537654	14.000000	-4.244422	0.000000	1.000000	0.000000
11.178970	14.000000	-4.244422	0.000000	1.000000	0.000000
-13.331072	14.000000	-4.244422	0.000000	1.000000	0.000000
13.331072	14.000000	-4.244422	0.000000	1.000000	0.000000
-12.852827	14.000000	-4.244422	0.000000	1.000000	0.000000
-11.418093	14.000000	-4.244422	0.000000	1.000000	0.000000
11.059409	14.000000	-4.244422	0.000000	1.000000	0.000000
10.700726	14.000000	-4.244422	0.000000	1.000000	0.000000
-12.015899	14.000000	-4.244422	0.000000	1.000000	0.000000
10.581164	14.000000	-4.244422	0.000000	1.000000	0.000000
-10.581164	14.000000	-4.244422	0.000000	1.000000	0.000000
11.657215	14.000000	-4.244422	0.000000	1.000000	0.000000
-11.298532	14.000000	-4.244422	0.000000	1.000000	0.000000
12.374582	14.000000	-4.244422	0.000000	1.000000	0.000000
-12.733266	14.000000	-4.244422	0.000000	1.000000	0.000000
-13.091949	14.000000	-4.244422	0.000000	1.000000	0.000000
11.896338	14.000000	-4.244422	0.000000	1.000000	0.000000
12.255021	14.000000	-4.244422	0.000000	1.000000	0.000000
12.135460	14.000000	-4.244422	0.000000	1.000000	0.000000
10.418386	14.000000	-4.244422	0.000000	1.000000	0.000000
-10.939848	14.000000	-4.244422	0.000000	1.000000	0.000000
10.461603	14.000000	-4.244422	0.000000	1.000000	0.000000
-10.418386	14.000000	-4.244422	0.000000	1.000000	0.000000
-11.776776	14.000000	-4.244422	0.000000	1.000000	0.000000
12.015899	14.000000	-4.244422	0.000000	1.000000	0.000000
11.776776	14.000000	-4.244422	0.000000	1.000000	0.000000
-12.374582	14.000000	-4.244422	0.000000	1.000000	0.000000
-12.613705	14.000000	-4.244422	0.000000	1.000000	0.000000
-11.896338	14.000000	-4.244422	0.000000	1.000000	0.000000
11.537654	14.000000	-4.244422	0.000000	1.000000	0.000000
-13.211511	14.000000	-4.244422	0.000000	1.000000	0.000000
-10.820287	14.000000	-4.244422	0.000000	1.000000	0.000000
-13.369169	12.971429	-4.155154	-0.954941	0.000000	-0.296797
-13.369169	11.714286	-4.155154	-0.954941	0.000000	-0.296797
-13.369169	11.600000	-4.155154	-0.954941	0.000000	-0.296797
-13.369169	14.000000	-4.155154	0.000000	1.000000	0.000000
-13.369169	11.828571	-4.155154	-0.954941	0.000000	-0.296797
-13.369169	13.200000	-4.155154	-0.954941	0.000000	-0.296797
-13.369169	12.400000	-4.155154	-0.954941	0.000000	-0.296797
-13.369169	12.514286	-4.155154	-0.954941	0.000000	-0.296797
-13.369169	13.085714	-4.155154	-0.954941	0.000000	-0.296797
-13.369169	12.285714	-4.155154	-0.954941	0.000000	-0.296797
-13.369169	13.771428	-4.155154	-0.954941	0.000000	-0.296797
-13.369169	13.314285	-4.155154	-0.954941	0.000000	-0.296797
-13.369169	12.171429	-4.155154	-0.954941	0.000000	-0.296797
-13.369169	13.428572	-4.155154	-0.954941	0.000000	-0.296797
-13.369169	12.057143	-4.155154	-0.954941	0.000000	-0.296797
-13.369169	11.942857	-4.155154	-0.954941	0.000000	-0.296797
-13.369169	13.542857	-4.155154	-0.954941	0.000000	-0.296797
-13.369169	12.742857	-4.155154	-0.954941	0.000000	-0.296797
-13.369169	12.628572	-4.155154	-0.954941	0.000000	-0.296797
-13.369169	12.857142	-4.155154	-0.954941	0.000000	-0.296797
-13.369169	13.885715	-4.155154	-0.954941	0.000000	-0.296797
-13.369169	13.657143	-4.155154	-0.954941	0.000000	-0.296797
13.369169	14.000000	-4.155154	0.000000	1.000000	0.000000
13.369169	13.885715	-4.155154	0.954941	0.000000	-0.296797
13.369169	13.771428	-4.155154	0.954941	0.000000	-0.296797
13.369169	13.657143	-4.155154	0.954941	0.000000	-0.296797
13.369169	13.542857	-4.155154	0.954941	0.000000	-0.296797
13.369169	13.428572	-4.155154	0.954941	0.000000	-0.296797
13.369169	13.314285	-4.155154	0.954941	0.000000	-0.296797
13.369169	13.200000	-4.155154	0.954941	0.000000	-0.296797
13.369169	13.085714	-4.155154	0.954941	0.000000	-0.296797
13.369169	12.971429	-4.155154	0.954941	0.000000	-0.296797
13.369169	12.857142	-4.155154	0.954941	0.000000	-0.296797
13.369169	12.742857	-4.155154	0.954941	0.000000	-0.296797
13.369169	12.628572	-4.155154	0.954941	0.000000	-0.296797
13.369169	12.514286	-4.155154	0.954941	0.000000	-0.296797
13.369169	12.400000	-4.155154	0.954941	0.000000	-0.296797
13.369169	12.285714	-4.155154	0.954941	0.000000	-0.296797
13.369169	12.171429	-4.155154	0.954941	0.000000	-0.296797
13.369169	12.057143	-4.155154	0.954941	0.000000	-0.296797
13.369169	11.942857	-4.155154	0.954941	0.000000	-0.296797
13.369169	11.828571	-4.155154	0.954941	0.000000	-0.296797
13.369169	11.714286	-4.155154	0.954941	0.000000	-0.296797
13.369169	11.600000	-4.155154	0.954941	0.000000	-0.296797
-10.461603	14.000000	-4.135727	0.000000	1.000000	0.000000
10.461603	14.000000	-4.135727	0.000000	1.000000	0.000000
13.378443	14.000000	-4.124861	0.000000	1.000000	0.000000
10.465924	14.000000	-4.124861	0.000000	1.000000	0.000000
-13.091949	14.000000	-4.124861	0.000000	1.000000	0.000000
-11.537654	14.000000	-4.124861	0.000000	1.000000	0.000000
12.374582	14.000000	-4.124861	0.000000	1.000000	0.000000
11.298532	14.000000	-4.124861	0.000000	1.000000	0.000000
-12.972388	14.000000	-4.124861	0.000000	1.000000	0.000000
-12.135460	14.000000	-4.124861	0.000000	1.000000	0.000000
13.091949	14.000000	-4.124861	0.000000	1.000000	0.000000
-11.178970	14.000000	-4.124861	0.000000	1.000000	0.000000
-10.581164	14.000000	-4.124861	0.000000	1.000000	0.000000
11.776776	14.000000	-4.124861	0.000000	1.000000	0.000000
12.494143	14.000000	-4.124861	0.000000	1.000000	0.000000
11.178970	14.000000	-4.124861	0.000000	1.000000	0.000000
-13.331072	14.000000	-4.124861	0.000000	1.000000	0.000000
12.015899	14.000000	-4.124861	0.000000	1.000000	0.000000
-11.657215	14.000000	-4.124861	0.000000	1.000000	0.000000
10.939848	14.000000	-4.124861	0.000000	1.000000	0.000000
-12.255021	14.000000	-4.124861	0.000000	1.000000	0.000000
-12.374582	14.000000	-4.124861	0.000000	1.000000	0.000000
11.059409	14.000000	-4.124861	0.000000	1.000000	0.000000
11.418093	14.000000	-4.124861	0.000000	1.000000	0.000000
-11.298532	14.000000	-4.124861	0.000000	1.000000	0.000000
-12.494143	14.000000	-4.124861	0.000000	1.000000	0.000000
12.613705	14.000000	-4.124861	0.000000	1.000000	0.000000
-12.613705	14.000000	-4.124861	0.000000	1.000000	0.000000
12.255021	14.000000	-4.124861	0.000000	1.000000	0.000000
12.852827	14.000000	-4.124861	0.000000	1.000000	0.000000
-10.700726	14.000000	-4.124861	0.000000	1.000000	0.000000
-12.852827	14.000000	-4.124861	0.000000	1.000000	0.000000
-11.896338	14.000000	-4.124861	0.000000	1.000000	0.000000
-10.820287	14.000000	-4.124861	0.000000	1.000000	0.000000
13.331072	14.000000	-4.124861	0.000000	1.000000	0.000000
10.700726	14.000000	-4.124861	0.000000	1.000000	0.000000
-12.733266	14.000000	-4.124861	0.000000	1.000000	0.000000
-10.939848	14.000000	-4.124861	0.000000	1.000000	0.000000
13.211511	14.000000	-4.124861	0.000000	1.000000	0.000000
10.820287	14.000000	-4.124861	0.000000	1.000000	0.000000
12.972388	14.000000	-4.124861	0.000000	1.000000	0.000000
-12.015899	14.000000	-4.124861	0.000000	1.000000	0.000000
-13.211511	14.000000	-4.124861	0.000000	1.000000	0.000000
11.537654	14.000000	-4.124861	0.000000	1.000000	0.000000
11.657215	14.000000	-4.124861	0.000000	1.000000	0.000000
-11.059409	14.000000	-4.124861	0.000000	1.000000	0.000000
-11.418093	14.000000	-4.124861	0.000000	1.000000	0.000000
-11.776776	14.000000	-4.124861	0.000000	1.000000	0.000000
-13.378443	14.000000	-4.124861	0.000000	1.000000	0.000000
11.896338	14.000000	-4.124861	0.000000	1.000000	0.000000
12.733266	14.000000	-4.124861	0.000000	1.000000	0.000000
10.581164	14.000000	-4.124861	0.000000	1.000000	0.000000
12.135460	14.000000	-4.124861	0.000000	1.000000	0.000000
-10.465924	14.000000	-4.124861	0.000000	1.000000	0.000000
-10.496497	14.000000	-4.047969	0.000000	1.000000	0.000000
10.496497	14.000000	-4.047969	0.000000	1.000000	0.000000
-13.404202	13.657143	-4.040716	-0.957443	0.000000	-0.288623
-13.404202	13.542857	-4.040716	-0.957443	0.000000	-0.288623
-13.404202	11.714286	-4.040716	-0.957443	0.000000	-0.288623
-13.404202	12.057143	-4.040716	-0.957443	0.000000	-0.288623
-13.404202	13.771428	-4.040716	-0.957443	0.000000	-0.288623
-13.404202	11.942857	-4.040716	-0.957443	0.000000	-0.288623
-13.404202	14.000000	-4.040716	0.000000	1.000000	0.000000
-13.404202	11.828571	-4.040716	-0.957443	0.000000	-0.288623
-13.404202	13.428572	-4.040716	-0.957443	0.000000	-0.288623
-13.404202	13.314285	-4.040716	-0.957443	0.000000	-0.288623
-13.404202	13.200000	-4.040716	-0.957443	0.000000	-0.288623
-13.404202	13.085714	-4.040716	-0.957443	0.000000	-0.288623
-13.404202	12.971429	-4.040716	-0.957443	0.000000	-0.288623
-13.404202	12.857142	-4.040716	-0.957443	0.000000	-0.288623
-13.404202	12.742857	-4.040716	-0.957443	0.000000	-0.288623
-13.404202	12.628572	-4.040716	-0.957443	0.000000	-0.288623
-13.404202	13.885715	-4.040716	-0.957443	0.000000	-0.288623
-13.404202	12.514286	-4.040716	-0.957443	0.000000	-0.288623
-13.404202	12.400000	-4.040716	-0.957443	0.000000	-0.288623
-13.404202	12.285714	-4.040716	-0.957443	0.000000	-0.288623
-13.404202	12.171429	-4.040716	-0.957443	0.000000	-0.288623
-13.404202	11.600000	-4.040716	-0.957443	0.000000	-0.288623
13.404202	13.885715	-4.040716	0.957443	0.000000	-0.288623
13.404202	14.000000	-4.040716	0.000000	1.000000	0.000000
13.404202	13.771428	-4.040716	0.957443	0.000000	-0.288623
13.404202	13.657143	-4.040716	0.957443	0.000000	-0.288623
13.404202	13.542857	-4.040716	0.957443	0.000000	-0.288623
13.404202	13.314285	-4.040716	0.957443	0.000000	-0.288623
13.404202	12.057143	-4.040716	0.957443	0.000000	-0.288623
13.404202	11.942857	-4.040716	0.957443	0.000000	-0.288623
13.404202	11.714286	-4.040716	0.957443	0.000000	-0.288623
13.404202	12.400000	-4.040716	0.957443	0.000000	-0.288623
13.404202	12.971429	-4.040716	0.957443	0.000000	-0.288623
13.404202	11.600000	-4.040716	0.957443	0.000000	-0.288623
13.404202	12.857142	-4.040716	0.957443	0.000000	-0.288623
13.404202	12.742857	-4.040716	0.957443	0.000000	-0.288623
13.404202	12.514286	-4.040716	0.957443	0.000000	-0.288623
13.404202	13.200000	-4.040716	0.957443	0.000000	-0.288623
13.404202	12.285714	-4.040716	0.957443	0.000000	-0.288623
13.404202	12.171429	-4.040716	0.957443	0.000000	-0.288623
13.404202	12.628572	-4.040716	0.957443	0.000000	-0.288623
13.404202	13.428572	-4.040716	0.957443	0.000000	-0.288623
13.404202	11.828571	-4.040716	0.957443	0.000000	-0.288623
13.404202	13.085714	-4.040716	0.957443	0.000000	-0.288623
-13.414713	14.000000	-4.005300	0.000000	1.000000	0.000000
-12.494143	14.000000	-4.005300	0.000000	1.000000	0.000000
13.091949	14.000000	-4.005300	0.000000	1.000000	0.000000
11.776776	14.000000	-4.005300	0.000000	1.000000	0.000000
-11.657215	14.000000	-4.005300	0.000000	1.000000	0.000000
-11.059409	14.000000	-4.005300	0.000000	1.000000	0.000000
-13.211511	14.000000	-4.005300	0.000000	1.000000	0.000000
10.700726	14.000000	-4.005300	0.000000	1.000000	0.000000
11.657215	14.000000	-4.005300	0.000000	1.000000	0.000000
13.414713	14.000000	-4.005300	0.000000	1.000000	0.000000
13.211511	14.000000	-4.005300	0.000000	1.000000	0.000000
13.331072	14.000000	-4.005300	0.000000	1.000000	0.000000
12.733266	14.000000	-4.005300	0.000000	1.000000	0.000000
-12.733266	14.000000	-4.005300	0.000000	1.000000	0.000000
-10.820287	14.000000	-4.005300	0.000000	1.000000	0.000000
12.613705	14.000000	-4.005300	0.000000	1.000000	0.000000
-11.178970	14.000000	-4.005300	0.000000	1.000000	0.000000
-11.896338	14.000000	-4.005300	0.000000	1.000000	0.000000
12.494143	14.000000	-4.005300	0.000000	1.000000	0.000000
12.972388	14.000000	-4.005300	0.000000	1.000000	0.000000
-11.418093	14.000000	-4.005300	0.000000	1.000000	0.000000
-10.939848	14.000000	-4.005300	0.000000	1.000000	0.000000
10.581164	14.000000	-4.005300	0.000000	1.000000	0.000000
10.939848	14.000000	-4.005300	0.000000	1.000000	0.000000
11.418093	14.000000	-4.005300	0.000000	1.000000	0.000000
-11.537654	14.000000	-4.005300	0.000000	1.000000	0.000000
-13.091949	14.000000	-4.005300	0.000000	1.000000	0.000000
12.374582	14.000000	-4.005300	0.000000	1.000000	0.000000
-12.015899	14.000000	-4.005300	0.000000	1.000000	0.000000
-12.613705	14.000000	-4.005300	0.000000	1.000000	0.000000
12.852827	14.000000	-4.005300	0.000000	1.000000	0.000000
11.298532	14.000000	-4.005300	0.000000	1.000000	0.000000
12.255021	14.000000	-4.005300	0.000000	1.000000	0.000000
-10.581164	14.000000	-4.005300	0.000000	1.000000	0.000000
-12.972388	14.000000	-4.005300	0.000000	1.000000	0.000000
-10.700726	14.000000	-4.005300	0.000000	1.000000	0.000000
-12.374582	14.000000	-4.005300	0.000000	1.000000	0.000000
12.135460	14.000000	-4.005300	0.000000	1.000000	0.000000
-11.776776	14.000000	-4.005300	0.000000	1.000000	0.000000
12.015899	14.000000	-4.005300	0.000000	1.000000	0.000000
-12.255021	14.000000	-4.005300	0.000000	1.000000	0.000000
-13.331072	14.000000	-4.005300	0.000000	1.000000	0.000000
11.059409	14.000000	-4.005300	0.000000	1.000000	0.000000
-11.298532	14.000000	-4.005300	0.000000	1.000000	0.000000
11.178970	14.000000	-4.005300	0.000000	1.000000	0.000000
-12.135460	14.000000	-4.005300	0.000000	1.000000	0.000000
-12.852827	14.000000	-4.005300	0.000000	1.000000	0.000000
11.896338	14.000000	-4.005300	0.000000	1.000000	0.000000
11.537654	14.000000	-4.005300	0.000000	1.000000	0.000000
10.820287	14.000000	-4.005300	0.000000	1.000000	0.000000
-10.512446	14.000000	-4.005300	0.000000	1.000000	0.000000
10.512446	14.000000	-4.005300	0.000000	1.000000	0.000000
-13.438253	13.771428	-3.925983	-0.959875	0.000000	-0.280427
-13.438253	12.971429	-3.925983	-0.959875	0.000000	-0.280427
-13.438253	13.428572	-3.925983	-0.959875	0.000000	-0.280427
-13.438253	14.000000	-3.925983	0.000000	1.000000	0.000000
-13.438253	13.542857	-3.925983	-0.959875	0.000000	-0.280427
-13.438253	13.200000	-3.925983	-0.959875	0.000000	-0.280427
-13.438253	12.285714	-3.925983	-0.959875	0.000000	-0.280427
-13.438253	13.657143	-3.925983	-0.959875	0.000000	-0.280427
-13.438253	13.885715	-3.925983	-0.959875	0.000000	-0.280427
-13.438253	13.314285	-3.925983	-0.959875	0.000000	-0.280427
-13.438253	13.085714	-3.925983	-0.959875	0.000000	-0.280427
-13.438253	12.857142	-3.925983	-0.959875	0.000000	-0.280427
-13.438253	12.742857	-3.925983	-0.959875	0.000000	-0.280427
-13.438253	12.628572	-3.925983	-0.959875	0.000000	-0.280427
-13.438253	12.514286	-3.925983	-0.959875	0.000000	-0.280427
-13.438253	12.400000	-3.925983	-0.959875	0.000000	-0.280427
-13.438253	12.171429	-3.925983	-0.959875	0.000000	-0.280427
-13.438253	12.057143	-3.925983	-0.959875	0.000000	-0.280427
-13.438253	11.942857	-3.925983	-0.959875	0.000000	-0.280427
-13.438253	11.828571	-3.925983	-0.959875	0.000000	-0.280427
-13.438253	11.714286	-3.925983	-0.959875	0.000000	-0.280427
-13.438253	11.600000	-3.925983	-0.959875	0.000000	-0.280427
13.438253	14.000000	-3.925983	0.000000	1.000000	0.000000
13.438253	13.428572	-3.925983	0.959875	0.000000	-0.280427
13.438253	12.857142	-3.925983	0.959875	0.000000	-0.280427
13.438253	13.085714	-3.925983	0.959875	0.000000	-0.280427
13.438253	13.542857	-3.925983	0.959875	0.000000	-0.280427
13.438253	11.942857	-3.925983	0.959875	0.000000	-0.280427
13.438253	11.600000	-3.925983	0.959875	0.000000	-0.280427
13.438253	12.742857	-3.925983	0.959875	0.000000	-0.280427
13.438253	12.400000	-3.925983	0.959875	0.000000	-0.280427
13.438253	11.714286	-3.925983	0.959875	0.000000	-0.280427
13.438253	13.200000	-3.925983	0.959875	0.000000	-0.280427
13.438253	13.885715	-3.925983	0.959875	0.000000	-0.280427
13.438253	13.771428	-3.925983	0.959875	0.000000	-0.280427
13.438253	12.971429	-3.925983	0.959875	0.000000	-0.280427
13.438253	11.828571	-3.925983	0.959875	0.000000	-0.280427
13.438253	13.657143	-3.925983	0.959875	0.000000	-0.280427
13.438253	12.057143	-3.925983	0.959875	0.000000	-0.280427
13.438253	12.285714	-3.925983	0.959875	0.000000	-0.280427
13.438253	12.171429	-3.925983	0.959875	0.000000	-0.280427
13.438253	12.628572	-3.925983	0.959875	0.000000	-0.280427
13.438253	12.514286	-3.925983	0.959875	0.000000	-0.280427
13.438253	13.314285	-3.925983	0.959875	0.000000	-0.280427
10.557137	14.000000	-3.885738	0.000000	1.000000	0.000000
-13.449824	14.000000	-3.885738	0.000000	1.000000	0.000000
-10.557137	14.000000	-3.885738	0.000000	1.000000	0.000000
-12.972388	14.000000	-3.885738	0.000000	1.000000	0.000000
-12.255021	14.000000	-3.885738	0.000000	1.000000	0.000000
-11.298532	14.000000	-3.885738	0.000000	1.000000	0.000000
-12.852827	14.000000	-3.885738	0.000000	1.000000	0.000000
-12.015899	14.000000	-3.885738	0.000000	1.000000	0.000000
-11.059409	14.000000	-3.885738	0.000000	1.000000	0.000000
11.657215	14.000000	-3.885738	0.000000	1.000000	0.000000
12.733266	14.000000	-3.885738	0.000000	1.000000	0.000000
-12.733266	14.000000	-3.885738	0.000000	1.000000	0.000000
11.896338	14.000000	-3.885738	0.000000	1.000000	0.000000
-11.178970	14.000000	-3.885738	0.000000	1.000000	0.000000
11.418093	14.000000	-3.885738	0.000000	1.000000	0.000000
-12.613705	14.000000	-3.885738	0.000000	1.000000	0.000000
12.374582	14.000000	-3.885738	0.000000	1.000000	0.000000
12.972388	14.000000	-3.885738	0.000000	1.000000	0.000000
-13.211511	14.000000	-3.885738	0.000000	1.000000	0.000000
-11.657215	14.000000	-3.885738	0.000000	1.000000	0.000000
13.091949	14.000000	-3.885738	0.000000	1.000000	0.000000
10.820287	14.000000	-3.885738	0.000000	1.000000	0.000000
12.613705	14.000000	-3.885738	0.000000	1.000000	0.000000
11.537654	14.000000	-3.885738	0.000000	1.000000	0.000000
10.939848	14.000000	-3.885738	0.000000	1.000000	0.000000
-12.374582	14.000000	-3.885738	0.000000	1.000000	0.000000
-12.135460	14.000000	-3.885738	0.000000	1.000000	0.000000
12.494143	14.000000	-3.885738	0.000000	1.000000	0.000000
-11.776776	14.000000	-3.885738	0.000000	1.000000	0.000000
12.135460	14.000000	-3.885738	0.000000	1.000000	0.000000
-11.537654	14.000000	-3.885738	0.000000	1.000000	0.000000
-12.494143	14.000000	-3.885738	0.000000	1.000000	0.000000
11.178970	14.000000	-3.885738	0.000000	1.000000	0.000000
12.015899	14.000000	-3.885738	0.000000	1.000000	0.000000
-10.939848	14.000000	-3.885738	0.000000	1.000000	0.000000
10.581164	14.000000	-3.885738	0.000000	1.000000	0.000000
11.059409	14.000000	-3.885738	0.000000	1.000000	0.000000
-13.331072	14.000000	-3.885738	0.000000	1.000000	0.000000
11.776776	14.000000	-3.885738	0.000000	1.000000	0.000000
-10.820287	14.000000	-3.885738	0.000000	1.000000	0.000000
-10.700726	14.000000	-3.885738	0.000000	1.000000	0.000000
13.449824	14.000000	-3.885738	0.000000	1.000000	0.000000
-11.896338	14.000000	-3.885738	0.000000	1.000000	0.000000
-10.581164	14.000000	-3.885738	0.000000	1.000000	0.000000
13.331072	14.000000	-3.885738	0.000000	1.000000	0.000000
13.211511	14.000000	-3.885738	0.000000	1.000000	0.000000
-11.418093	14.000000	-3.885738	0.000000	1.000000	0.000000
10.700726	14.000000	-3.885738	0.000000	1.000000	0.000000
12.255021	14.000000	-3.885738	0.000000	1.000000	0.000000
-13.091949	14.000000	-3.885738	0.000000	1.000000	0.000000
12.852827	14.000000	-3.885738	0.000000	1.000000	0.000000
11.298532	14.000000	-3.885738	0.000000	1.000000	0.000000
-13.450633	14.000000	-3.882927	0.000000	1.000000	0.000000
13.450633	14.000000	-3.882927	0.000000	1.000000	0.000000
-10.578176	14.000000	-3.829453	0.000000	1.000000	0.000000
10.578176	14.000000	-3.829453	0.000000	1.000000	0.000000
-10.581164	14.000000	-3.820920	0.000000	1.000000	0.000000
10.581164	14.000000	-3.820920	0.000000	1.000000	0.000000
-13.471323	13.771428	-3.810964	-0.962237	0.000000	-0.272212
-13.471323	11.714286	-3.810964	-0.962237	0.000000	-0.272212
-13.471323	12.971429	-3.810964	-0.962237	0.000000	-0.272212
-13.471323	12.857142	-3.810964	-0.962237	0.000000	-0.272212
-13.471323	13.657143	-3.810964	-0.962237	0.000000	-0.272212
-13.471323	11.600000	-3.810964	-0.962237	0.000000	-0.272212
-13.471323	12.742857	-3.810964	-0.962237	0.000000	-0.272212
-13.471323	13.542857	-3.810964	-0.962237	0.000000	-0.272212
-13.471323	13.428572	-3.810964	-0.962237	0.000000	-0.272212
-13.471323	14.000000	-3.810964	0.000000	1.000000	0.000000
-13.471323	13.314285	-3.810964	-0.962237	0.000000	-0.272212
-13.471323	12.628572	-3.810964	-0.962237	0.000000	-0.272212
-13.471323	12.514286	-3.810964	-0.962237	0.000000	-0.272212
-13.471323	13.200000	-3.810964	-0.962237	0.000000	-0.272212
-13.471323	13.085714	-3.810964	-0.962237	0.000000	-0.272212
-13.471323	12.285714	-3.810964	-0.962237	0.000000	-0.272212
-13.471323	12.171429	-3.810964	-0.962237	0.000000	-0.272212
-13.471323	13.885715	-3.810964	-0.962237	0.000000	-0.272212
-13.471323	12.057143	-3.810964	-0.962237	0.000000	-0.272212
-13.471323	11.942857	-3.810964	-0.962237	0.000000	-0.272212
-13.471323	11.828571	-3.810964	-0.962237	0.000000	-0.272212
-13.471323	12.400000	-3.810964	-0.962237	0.000000	-0.272212
13.471323	11.714286	-3.810964	0.962237	0.000000	-0.272212
13.471323	11.600000	-3.810964	0.962237	0.000000	-0.272212
13.471323	14.000000	-3.810964	0.000000	1.000000	0.000000
13.471323	13.885715	-3.810964	0.962237	0.000000	-0.272212
13.471323	13.771428	-3.810964	0.962237	0.000000	-0.272212
13.471323	13.657143	-3.810964	0.962237	0.000000	-0.272212
13.471323	13.542857	-3.810964	0.962237	0.000000	-0.272212
13.471323	13.428572	-3.810964	0.962237	0.000000	-0.272212
13.471323	13.314285	-3.810964	0.962237	0.000000	-0.272212
13.471323	13.200000	-3.810964	0.962237	0.000000	-0.272212
13.471323	12.971429	-3.810964	0.962237	0.000000	-0.272212
13.471323	12.857142	-3.810964	0.962237	0.000000	-0.272212
13.471323	12.742857	-3.810964	0.962237	0.000000	-0.272212
13.471323	12.628572	-3.810964	0.962237	0.000000	-0.272212
13.471323	12.514286	-3.810964	0.962237	0.000000	-0.272212
13.471323	12.400000	-3.810964	0.962237	0.000000	-0.272212
13.471323	12.285714	-3.810964	0.962237	0.000000	-0.272212
13.471323	12.171429	-3.810964	0.962237	0.000000	-0.272212
13.471323	12.057143	-3.810964	0.962237	0.000000	-0.272212
13.471323	13.085714	-3.810964	0.962237	0.000000	-0.272212
13.471323	11.942857	-3.810964	0.962237	0.000000	-0.272212
13.471323	11.828571	-3.810964	0.962237	0.000000	-0.272212
-13.483787	14.000000	-3.766177	0.000000	1.000000	0.000000
-10.600343	14.000000	-3.766177	0.000000	1.000000	0.000000
13.483787	14.000000	-3.766177	0.000000	1.000000	0.000000
12.613705	14.000000	-3.766177	0.000000	1.000000	0.000000
-11.059409	14.000000	-3.766177	0.000000	1.000000	0.000000
-12.494143	14.000000	-3.766177	0.000000	1.000000	0.000000
-12.852827	14.000000	-3.766177	0.000000	1.000000	0.000000
-11.298532	14.000000	-3.766177	0.000000	1.000000	0.000000
-12.613705	14.000000	-3.766177	0.000000	1.000000	0.000000
-12.255021	14.000000	-3.766177	0.000000	1.000000	0.000000
12.135460	14.000000	-3.766177	0.000000	1.000000	0.000000
-12.374582	14.000000	-3.766177	0.000000	1.000000	0.000000
12.374582	14.000000	-3.766177	0.000000	1.000000	0.000000
11.537654	14.000000	-3.766177	0.000000	1.000000	0.000000
11.059409	14.000000	-3.766177	0.000000	1.000000	0.000000
-12.015899	14.000000	-3.766177	0.000000	1.000000	0.000000
10.820287	14.000000	-3.766177	0.000000	1.000000	0.000000
-12.972388	14.000000	-3.766177	0.000000	1.000000	0.000000
11.298532	14.000000	-3.766177	0.000000	1.000000	0.000000
12.852827	14.000000	-3.766177	0.000000	1.000000	0.000000
13.091949	14.000000	-3.766177	0.000000	1.000000	0.000000
-13.091949	14.000000	-3.766177	0.000000	1.000000	0.000000
12.255021	14.000000	-3.766177	0.000000	1.000000	0.000000
-11.657215	14.000000	-3.766177	0.000000	1.000000	0.000000
-13.211511	14.000000	-3.766177	0.000000	1.000000	0.000000
13.450633	14.000000	-3.766177	0.000000	1.000000	0.000000
13.331072	14.000000	-3.766177	0.000000	1.000000	0.000000
-11.418093	14.000000	-3.766177	0.000000	1.000000	0.000000
10.700726	14.000000	-3.766177	0.000000	1.000000	0.000000
12.972388	14.000000	-3.766177	0.000000	1.000000	0.000000
11.776776	14.000000	-3.766177	0.000000	1.000000	0.000000
13.211511	14.000000	-3.766177	0.000000	1.000000	0.000000
-10.700726	14.000000	-3.766177	0.000000	1.000000	0.000000
-10.820287	14.000000	-3.766177	0.000000	1.000000	0.000000
-10.939848	14.000000	-3.766177	0.000000	1.000000	0.000000
-11.537654	14.000000	-3.766177	0.000000	1.000000	0.000000
-13.450633	14.000000	-3.766177	0.000000	1.000000	0.000000
12.015899	14.000000	-3.766177	0.000000	1.000000	0.000000
-13.331072	14.000000	-3.766177	0.000000	1.000000	0.000000
12.733266	14.000000	-3.766177	0.000000	1.000000	0.000000
11.178970	14.000000	-3.766177	0.000000	1.000000	0.000000
-11.776776	14.000000	-3.766177	0.000000	1.000000	0.000000
-12.135460	14.000000	-3.766177	0.000000	1.000000	0.000000
12.494143	14.000000	-3.766177	0.000000	1.000000	0.000000
11.896338	14.000000	-3.766177	0.000000	1.000000	0.000000
11.418093	14.000000	-3.766177	0.000000	1.000000	0.000000
10.939848	14.000000	-3.766177	0.000000	1.000000	0.000000
-11.178970	14.000000	-3.766177	0.000000	1.000000	0.000000
-12.733266	14.000000	-3.766177	0.000000	1.000000	0.000000
-11.896338	14.000000	-3.766177	0.000000	1.000000	0.000000
11.657215	14.000000	-3.766177	0.000000	1.000000	0.000000
10.600343	14.000000	-3.766177	0.000000	1.000000	0.000000
-13.503409	13.428572	-3.695666	-0.964529	0.000000	-0.263976
-13.503409	13.542857	-3.695666	-0.964529	0.000000	-0.263976
-13.503409	13.657143	-3.695666	-0.964529	0.000000	-0.263976
-13.503409	13.771428	-3.695666	-0.964529	0.000000	-0.263976
-13.503409	13.885715	-3.695666	-0.964529	0.000000	-0.263976
-13.503409	12.285714	-3.695666	-0.964529	0.000000	-0.263976
-13.503409	13.085714	-3.695666	-0.964529	0.000000	-0.263976
-13.503409	12.628572	-3.695666	-0.964529	0.000000	-0.263976
-13.503409	12.742857	-3.695666	-0.964529	0.000000	-0.263976
-13.503409	13.314285	-3.695666	-0.964529	0.000000	-0.263976
-13.503409	12.171429	-3.695666	-0.964529	0.000000	-0.263976
-13.503409	12.057143	-3.695666	-0.964529	0.000000	-0.263976
-13.503409	11.942857	-3.695666	-0.964529	0.000000	-0.263976
-13.503409	12.857142	-3.695666	-0.964529	0.000000	-0.263976
-13.503409	12.971429	-3.695666	-0.964529	0.000000	-0.263976
-13.503409	14.000000	-3.695666	0.000000	1.000000	0.000000
-13.503409	12.400000	-3.695666	-0.964529	0.000000	-0.263976
-13.503409	11.828571	-3.695666	-0.964529	0.000000	-0.263976
-13.503409	11.714286	-3.695666	-0.964529	0.000000	-0.263976
-13.503409	11.600000	-3.695666	-0.964529	0.000000	-0.263976
-13.503409	12.514286	-3.695666	-0.964529	0.000000	-0.263976
-13.503409	13.200000	-3.695666	-0.964529	0.000000	-0.263976
13.503409	13.085714	-3.695666	0.964529	0.000000	-0.263976
13.503409	12.971429	-3.695666	0.964529	0.000000	-0.263976
13.503409	13.657143	-3.695666	0.964529	0.000000	-0.263976
13.503409	13.200000	-3.695666	0.964529	0.000000	-0.263976
13.503409	12.857142	-3.695666	0.964529	0.000000	-0.263976
13.503409	12.742857	-3.695666	0.964529	0.000000	-0.263976
13.503409	12.628572	-3.695666	0.964529	0.000000	-0.263976
13.503409	12.514286	-3.695666	0.964529	0.000000	-0.263976
13.503409	11.714286	-3.695666	0.964529	0.000000	-0.263976
13.503409	14.000000	-3.695666	0.000000	1.000000	0.000000
13.503409	11.942857	-3.695666	0.964529	0.000000	-0.263976
13.503409	11.828571	-3.695666	0.964529	0.000000	-0.263976
13.503409	13.542857	-3.695666	0.964529	0.000000	-0.263976
13.503409	13.314285	-3.695666	0.964529	0.000000	-0.263976
13.503409	12.171429	-3.695666	0.964529	0.000000	-0.263976
13.503409	13.428572	-3.695666	0.964529	0.000000	-0.263976
13.503409	12.285714	-3.695666	0.964529	0.000000	-0.263976
13.503409	12.057143	-3.695666	0.964529	0.000000	-0.263976
13.503409	11.600000	-3.695666	0.964529	0.000000	-0.263976
13.503409	13.885715	-3.695666	0.964529	0.000000	-0.263976
13.503409	12.400000	-3.695666	0.964529	0.000000	-0.263976
13.503409	13.771428	-3.695666	0.964529	0.000000	-0.263976
-13.516608	14.000000	-3.646616	0.000000	1.000000	0.000000
-10.642228	14.000000	-3.646616	0.000000	1.000000	0.000000
10.820287	14.000000	-3.646616	0.000000	1.000000	0.000000
12.135460	14.000000	-3.646616	0.000000	1.000000	0.000000
-11.657215	14.000000	-3.646616	0.000000	1.000000	0.000000
-11.059409	14.000000	-3.646616	0.000000	1.000000	0.000000
-12.494143	14.000000	-3.646616	0.000000	1.000000	0.000000
13.450633	14.000000	-3.646616	0.000000	1.000000	0.000000
13.516608	14.000000	-3.646616	0.000000	1.000000	0.000000
11.657215	14.000000	-3.646616	0.000000	1.000000	0.000000
12.613705	14.000000	-3.646616	0.000000	1.000000	0.000000
-12.613705	14.000000	-3.646616	0.000000	1.000000	0.000000
10.939848	14.000000	-3.646616	0.000000	1.000000	0.000000
-11.178970	14.000000	-3.646616	0.000000	1.000000	0.000000
-11.896338	14.000000	-3.646616	0.000000	1.000000	0.000000
12.374582	14.000000	-3.646616	0.000000	1.000000	0.000000
11.896338	14.000000	-3.646616	0.000000	1.000000	0.000000
11.537654	14.000000	-3.646616	0.000000	1.000000	0.000000
-12.733266	14.000000	-3.646616	0.000000	1.000000	0.000000
-12.135460	14.000000	-3.646616	0.000000	1.000000	0.000000
-12.852827	14.000000	-3.646616	0.000000	1.000000	0.000000
-12.015899	14.000000	-3.646616	0.000000	1.000000	0.000000
10.642228	14.000000	-3.646616	0.000000	1.000000	0.000000
12.733266	14.000000	-3.646616	0.000000	1.000000	0.000000
12.972388	14.000000	-3.646616	0.000000	1.000000	0.000000
-11.298532	14.000000	-3.646616	0.000000	1.000000	0.000000
11.059409	14.000000	-3.646616	0.000000	1.000000	0.000000
-11.776776	14.000000	-3.646616	0.000000	1.000000	0.000000
12.494143	14.000000	-3.646616	0.000000	1.000000	0.000000
-12.972388	14.000000	-3.646616	0.000000	1.000000	0.000000
-13.091949	14.000000	-3.646616	0.000000	1.000000	0.000000
13.331072	14.000000	-3.646616	0.000000	1.000000	0.000000
-12.255021	14.000000	-3.646616	0.000000	1.000000	0.000000
11.776776	14.000000	-3.646616	0.000000	1.000000	0.000000
12.255021	14.000000	-3.646616	0.000000	1.000000	0.000000
-11.418093	14.000000	-3.646616	0.000000	1.000000	0.000000
11.418093	14.000000	-3.646616	0.000000	1.000000	0.000000
13.211511	14.000000	-3.646616	0.000000	1.000000	0.000000
-13.211511	14.000000	-3.646616	0.000000	1.000000	0.000000
13.091949	14.000000	-3.646616	0.000000	1.000000	0.000000
12.852827	14.000000	-3.646616	0.000000	1.000000	0.000000
11.298532	14.000000	-3.646616	0.000000	1.000000	0.000000
11.178970	14.000000	-3.646616	0.000000	1.000000	0.000000
-13.331072	14.000000	-3.646616	0.000000	1.000000	0.000000
10.700726	14.000000	-3.646616	0.000000	1.000000	0.000000
12.015899	14.000000	-3.646616	0.000000	1.000000	0.000000
-13.450633	14.000000	-3.646616	0.000000	1.000000	0.000000
-11.537654	14.000000	-3.646616	0.000000	1.000000	0.000000
-10.939848	14.000000	-3.646616	0.000000	1.000000	0.000000
-10.700726	14.000000	-3.646616	0.000000	1.000000	0.000000
-10.820287	14.000000	-3.646616	0.000000	1.000000	0.000000
-12.374582	14.000000	-3.646616	0.000000	1.000000	0.000000
-10.655305	14.000000	-3.609290	0.000000	1.000000	0.000000
10.655305	14.000000	-3.609290	0.000000	1.000000	0.000000
-13.534508	11.828571	-3.580097	-0.966751	0.000000	-0.255721
-13.534508	12.285714	-3.580097	-0.966751	0.000000	-0.255721
-13.534508	12.400000	-3.580097	-0.966751	0.000000	-0.255721
-13.534508	12.514286	-3.580097	-0.966751	0.000000	-0.255721
-13.534508	12.171429	-3.580097	-0.966751	0.000000	-0.255721
-13.534508	14.000000	-3.580097	0.000000	1.000000	0.000000
-13.534508	13.085714	-3.580097	-0.966751	0.000000	-0.255721
-13.534508	12.628572	-3.580097	-0.966751	0.000000	-0.255721
-13.534508	12.742857	-3.580097	-0.966751	0.000000	-0.255721
-13.534508	12.857142	-3.580097	-0.966751	0.000000	-0.255721
-13.534508	13.200000	-3.580097	-0.966751	0.000000	-0.255721
-13.534508	12.971429	-3.580097	-0.966751	0.000000	-0.255721
-13.534508	13.314285	-3.580097	-0.966751	0.000000	-0.255721
-13.534508	13.428572	-3.580097	-0.966751	0.000000	-0.255721
-13.534508	11.600000	-3.580097	-0.966751	0.000000	-0.255721
-13.534508	13.885715	-3.580097	-0.966751	0.000000	-0.255721
-13.534508	13.542857	-3.580097	-0.966751	0.000000	-0.255721
-13.534508	13.657143	-3.580097	-0.966751	0.000000	-0.255721
-13.534508	13.771428	-3.580097	-0.966751	0.000000	-0.255721
-13.534508	11.714286	-3.580097	-0.966751	0.000000	-0.255721
-13.534508	11.942857	-3.580097	-0.966751	0.000000	-0.255721
-13.534508	12.057143	-3.580097	-0.966751	0.000000	-0.255721
13.534508	13.428572	-3.580097	0.966751	0.000000	-0.255721
13.534508	13.314285	-3.580097	0.966751	0.000000	-0.255721
13.534508	11.714286	-3.580097	0.966751	0.000000	-0.255721
13.534508	11.600000	-3.580097	0.966751	0.000000	-0.255721
13.534508	13.085714	-3.580097	0.966751	0.000000	-0.255721
13.534508	12.628572	-3.580097	0.966751	0.000000	-0.255721
13.534508	12.514286	-3.580097	0.966751	0.000000	-0.255721
13.534508	12.285714	-3.580097	0.966751	0.000000	-0.255721
13.534508	12.171429	-3.580097	0.966751	0.000000	-0.255721
13.534508	12.971429	-3.580097	0.966751	0.000000	-0.255721
13.534508	12.857142	-3.580097	0.966751	0.000000	-0.255721
13.534508	12.057143	-3.580097	0.966751	0.000000	-0.255721
13.534508	13.885715	-3.580097	0.966751	0.000000	-0.255721
13.534508	13.771428	-3.580097	0.966751	0.000000	-0.255721
13.534508	11.942857	-3.580097	0.966751	0.000000	-0.255721
13.534508	11.828571	-3.580097	0.966751	0.000000	-0.255721
13.534508	13.542857	-3.580097	0.966751	0.000000	-0.255721
13.534508	13.657143	-3.580097	0.966751	0.000000	-0.255721
13.534508	12.742857	-3.580097	0.966751	0.000000	-0.255721
13.534508	12.400000	-3.580097	0.966751	0.000000	-0.255721
13.534508	14.000000	-3.580097	0.000000	1.000000	0.000000
13.534508	13.200000	-3.580097	0.966751	0.000000	-0.255721
11.657215	14.000000	-3.527055	0.000000	1.000000	0.000000
-10.700726	14.000000	-3.527055	0.000000	1.000000	0.000000
-12.255021	14.000000	-3.527055	0.000000	1.000000	0.000000
13.331072	14.000000	-3.527055	0.000000	1.000000	0.000000
-12.135460	14.000000	-3.527055	0.000000	1.000000	0.000000
13.450633	14.000000	-3.527055	0.000000	1.000000	0.000000
11.776776	14.000000	-3.527055	0.000000	1.000000	0.000000
-13.211511	14.000000	-3.527055	0.000000	1.000000	0.000000
-10.820287	14.000000	-3.527055	0.000000	1.000000	0.000000
10.939848	14.000000	-3.527055	0.000000	1.000000	0.000000
-13.091949	14.000000	-3.527055	0.000000	1.000000	0.000000
-12.374582	14.000000	-3.527055	0.000000	1.000000	0.000000
12.255021	14.000000	-3.527055	0.000000	1.000000	0.000000
12.972388	14.000000	-3.527055	0.000000	1.000000	0.000000
-11.537654	14.000000	-3.527055	0.000000	1.000000	0.000000
-13.450633	14.000000	-3.527055	0.000000	1.000000	0.000000
-11.896338	14.000000	-3.527055	0.000000	1.000000	0.000000
-13.331072	14.000000	-3.527055	0.000000	1.000000	0.000000
-10.939848	14.000000	-3.527055	0.000000	1.000000	0.000000
-11.657215	14.000000	-3.527055	0.000000	1.000000	0.000000
-12.852827	14.000000	-3.527055	0.000000	1.000000	0.000000
11.178970	14.000000	-3.527055	0.000000	1.000000	0.000000
12.613705	14.000000	-3.527055	0.000000	1.000000	0.000000
10.820287	14.000000	-3.527055	0.000000	1.000000	0.000000
13.091949	14.000000	-3.527055	0.000000	1.000000	0.000000
12.852827	14.000000	-3.527055	0.000000	1.000000	0.000000
11.298532	14.000000	-3.527055	0.000000	1.000000	0.000000
-12.613705	14.000000	-3.527055	0.000000	1.000000	0.000000
-12.972388	14.000000	-3.527055	0.000000	1.000000	0.000000
12.494143	14.000000	-3.527055	0.000000	1.000000	0.000000
11.418093	14.000000	-3.527055	0.000000	1.000000	0.000000
-12.733266	14.000000	-3.527055	0.000000	1.000000	0.000000
-11.059409	14.000000	-3.527055	0.000000	1.000000	0.000000
-11.298532	14.000000	-3.527055	0.000000	1.000000	0.000000
-11.178970	14.000000	-3.527055	0.000000	1.000000	0.000000
13.211511	14.000000	-3.527055	0.000000	1.000000	0.000000
-12.494143	14.000000	-3.527055	0.000000	1.000000	0.000000
12.135460	14.000000	-3.527055	0.000000	1.000000	0.000000
-11.776776	14.000000	-3.527055	0.000000	1.000000	0.000000
11.059409	14.000000	-3.527055	0.000000	1.000000	0.000000
12.374582	14.000000	-3.527055	0.000000	1.000000	0.000000
-10.682214	14.000000	-3.527055	0.000000	1.000000	0.000000
12.015899	14.000000	-3.527055	0.000000	1.000000	0.000000
12.733266	14.000000	-3.527055	0.000000	1.000000	0.000000
-11.418093	14.000000	-3.527055	0.000000	1.000000	0.000000
-12.015899	14.000000	-3.527055	0.000000	1.000000	0.000000
11.896338	14.000000	-3.527055	0.000000	1.000000	0.000000
11.537654	14.000000	-3.527055	0.000000	1.000000	0.000000
10.700726	14.000000	-3.527055	0.000000	1.000000	0.000000
13.548296	14.000000	-3.527055	0.000000	1.000000	0.000000
10.682214	14.000000	-3.527055	0.000000	1.000000	0.000000
-13.548296	14.000000	-3.527055	0.000000	1.000000	0.000000
-10.700726	14.000000	-3.470479	0.000000	1.000000	0.000000
10.700726	14.000000	-3.470479	0.000000	1.000000	0.000000
-13.564617	13.085714	-3.464267	-0.968901	0.000000	-0.247448
-13.564617	12.628572	-3.464267	-0.968901	0.000000	-0.247448
-13.564617	13.657143	-3.464267	-0.968901	0.000000	-0.247448
-13.564617	13.200000	-3.464267	-0.968901	0.000000	-0.247448
-13.564617	12.171429	-3.464267	-0.968901	0.000000	-0.247448
-13.564617	13.314285	-3.464267	-0.968901	0.000000	-0.247448
-13.564617	12.514286	-3.464267	-0.968901	0.000000	-0.247448
-13.564617	13.771428	-3.464267	-0.968901	0.000000	-0.247448
-13.564617	12.857142	-3.464267	-0.968901	0.000000	-0.247448
-13.564617	11.600000	-3.464267	-0.968901	0.000000	-0.247448
-13.564617	13.885715	-3.464267	-0.968901	0.000000	-0.247448
-13.564617	12.742857	-3.464267	-0.968901	0.000000	-0.247448
-13.564617	13.542857	-3.464267	-0.968901	0.000000	-0.247448
-13.564617	14.000000	-3.464267	0.000000	1.000000	0.000000
-13.564617	12.971429	-3.464267	-0.968901	0.000000	-0.247448
-13.564617	12.400000	-3.464267	-0.968901	0.000000	-0.247448
-13.564617	12.057143	-3.464267	-0.968901	0.000000	-0.247448
-13.564617	12.285714	-3.464267	-0.968901	0.000000	-0.247448
-13.564617	13.428572	-3.464267	-0.968901	0.000000	-0.247448
-13.564617	11.714286	-3.464267	-0.968901	0.000000	-0.247448
-13.564617	11.828571	-3.464267	-0.968901	0.000000	-0.247448
-13.564617	11.942857	-3.464267	-0.968901	0.000000	-0.247448
13.564617	14.000000	-3.464267	0.000000	1.000000	0.000000
13.564617	12.285714	-3.464267	0.968901	0.000000	-0.247448
13.564617	12.514286	-3.464267	0.968901	0.000000	-0.247448
13.564617	13.200000	-3.464267	0.968901	0.000000	-0.247448
13.564617	13.428572	-3.464267	0.968901	0.000000	-0.247448
13.564617	13.085714	-3.464267	0.968901	0.000000	-0.247448
13.564617	12.171429	-3.464267	0.968901	0.000000	-0.247448
13.564617	12.971429	-3.464267	0.968901	0.000000	-0.247448
13.564617	11.714286	-3.464267	0.968901	0.000000	-0.247448
13.564617	13.885715	-3.464267	0.968901	0.000000	-0.247448
13.564617	12.857142	-3.464267	0.968901	0.000000	-0.247448
13.564617	13.771428	-3.464267	0.968901	0.000000	-0.247448
13.564617	13.657143	-3.464267	0.968901	0.000000	-0.247448
