9.673034	11.600000	12.325316	0.000000	1.000000	0.000000
9.517016	11.600000	12.325316	0.000000	1.000000	0.000000
9.361000	11.600000	12.325316	0.000000	1.000000	0.000000
9.204984	11.600000	12.325316	0.000000	1.000000	0.000000
9.048966	11.600000	12.325316	0.000000	1.000000	0.000000
8.892950	11.600000	12.325316	0.000000	1.000000	0.000000
8.736934	11.600000	12.325316	0.000000	1.000000	0.000000
8.580916	11.600000	12.325316	0.000000	1.000000	0.000000
8.424900	11.600000	12.325316	0.000000	1.000000	0.000000
8.268884	11.600000	12.325316	0.000000	1.000000	0.000000
8.112866	11.600000	12.325316	0.000000	1.000000	0.000000
7.956850	11.600000	12.325316	0.000000	1.000000	0.000000
7.800833	11.600000	12.325316	0.000000	1.000000	0.000000
7.644817	11.600000	12.325316	0.000000	1.000000	0.000000
7.488800	11.600000	12.325316	0.000000	1.000000	0.000000
7.332783	11.600000	12.325316	0.000000	1.000000	0.000000
7.176767	11.600000	12.325316	0.000000	1.000000	0.000000
6.864733	11.600000	12.325316	0.000000	1.000000	0.000000
7.020750	11.600000	12.325316	0.000000	1.000000	0.000000
6.708717	11.600000	12.325316	0.000000	1.000000	0.000000
-6.864733	11.600000	12.325316	0.000000	1.000000	0.000000
-7.020750	11.600000	12.325316	0.000000	1.000000	0.000000
-7.176767	11.600000	12.325316	0.000000	1.000000	0.000000
-7.332783	11.600000	12.325316	0.000000	1.000000	0.000000
-7.488800	11.600000	12.325316	0.000000	1.000000	0.000000
-7.644817	11.600000	12.325316	0.000000	1.000000	0.000000
-7.800833	11.600000	12.325316	0.000000	1.000000	0.000000
-7.956850	11.600000	12.325316	0.000000	1.000000	0.000000
-8.112866	11.600000	12.325316	0.000000	1.000000	0.000000
-8.268884	11.600000	12.325316	0.000000	1.000000	0.000000
-8.424900	11.600000	12.325316	0.000000	1.000000	0.000000
-8.580916	11.600000	12.325316	0.000000	1.000000	0.000000
-8.736934	11.600000	12.325316	0.000000	1.000000	0.000000
-8.892950	11.600000	12.325316	0.000000	1.000000	0.000000
-9.204984	11.600000	12.325316	0.000000	1.000000	0.000000
-9.361000	11.600000	12.325316	0.000000	1.000000	0.000000
-6.708717	11.600000	12.325316	0.000000	1.000000	0.000000
-6.638713	11.600000	12.325316	0.000000	1.000000	0.000000
-9.517016	11.600000	12.325316	0.000000	1.000000	0.000000
-9.673034	11.600000	12.325316	0.000000	1.000000	0.000000
-9.829050	11.600000	12.325316	0.000000	1.000000	0.000000
-9.985066	11.600000	12.325316	0.000000	1.000000	0.000000
-10.141084	11.600000	12.325316	0.000000	1.000000	0.000000
-10.297100	11.600000	12.325316	0.000000	1.000000	0.000000
-10.453116	11.600000	12.325316	0.000000	1.000000	0.000000
-10.609134	11.600000	12.325316	0.000000	1.000000	0.000000
-10.765150	11.600000	12.325316	0.000000	1.000000	0.000000
-10.921166	11.600000	12.325316	0.000000	1.000000	0.000000
-11.077184	11.600000	12.325316	0.000000	1.000000	0.000000
-11.233200	11.600000	12.325316	0.000000	1.000000	0.000000
-11.389216	11.600000	12.325316	0.000000	1.000000	0.000000
-11.545234	11.600000	12.325316	0.000000	1.000000	0.000000
-11.701250	11.600000	12.325316	0.000000	1.000000	0.000000
-11.857266	11.600000	12.325316	0.000000	1.000000	0.000000
-12.013284	11.600000	12.325316	0.000000	1.000000	0.000000
-12.169300	11.600000	12.325316	0.000000	1.000000	0.000000
-12.325316	11.600000	12.325316	0.000000	1.000000	0.000000
-12.481334	11.600000	12.325316	0.000000	1.000000	0.000000
-12.637350	11.600000	12.325316	0.000000	1.000000	0.000000
-12.793366	11.600000	12.325316	0.000000	1.000000	0.000000
-12.949384	11.600000	12.325316	0.000000	1.000000	0.000000
-13.105400	11.600000	12.325316	0.000000	1.000000	0.000000
-13.261416	11.600000	12.325316	0.000000	1.000000	0.000000
-13.417434	11.600000	12.325316	0.000000	1.000000	0.000000
-13.573450	11.600000	12.325316	0.000000	1.000000	0.000000
13.573450	11.600000	12.325316	0.000000	1.000000	0.000000
13.729466	11.600000	12.325316	0.000000	1.000000	0.000000
-13.796031	11.600000	12.325316	0.745738	0.000000	-0.666239
-9.048966	11.600000	12.325316	0.000000	1.000000	0.000000
6.638713	11.600000	12.325316	0.000000	1.000000	0.000000
13.796031	11.600000	12.325316	-0.745738	0.000000	-0.666239
-13.729466	11.600000	12.325316	0.000000	1.000000	0.000000
13.417434	11.600000	12.325316	0.000000	1.000000	0.000000
13.261416	11.600000	12.325316	0.000000	1.000000	0.000000
13.105400	11.600000	12.325316	0.000000	1.000000	0.000000
12.949384	11.600000	12.325316	0.000000	1.000000	0.000000
12.793366	11.600000	12.325316	0.000000	1.000000	0.000000
12.637350	11.600000	12.325316	0.000000	1.000000	0.000000
12.481334	11.600000	12.325316	0.000000	1.000000	0.000000
12.325316	11.600000	12.325316	0.000000	1.000000	0.000000
12.169300	11.600000	12.325316	0.000000	1.000000	0.000000
-6.587224	11.600000	12.353480	0.000000	1.000000	0.000000
6.587224	11.600000	12.353480	0.000000	1.000000	0.000000
-6.552700	11.600000	12.371420	0.000000	1.000000	0.000000
6.552700	11.600000	12.371420	0.000000	1.000000	0.000000
-13.741199	11.900000	12.386665	0.742767	0.000000	-0.669549
-13.741199	14.000000	12.386665	0.742767	0.000000	-0.669549
-13.741199	13.850000	12.386665	0.742767	0.000000	-0.669549
-13.741199	13.700000	12.386665	0.742767	0.000000	-0.669549
-13.741199	13.550000	12.386665	0.742767	0.000000	-0.669549
-13.741199	13.400000	12.386665	0.742767	0.000000	-0.669549
-13.741199	13.250000	12.386665	0.742767	0.000000	-0.669549
-13.741199	13.100000	12.386665	0.742767	0.000000	-0.669549
-13.741199	12.950000	12.386665	0.742767	0.000000	-0.669549
-13.741199	12.800000	12.386665	0.742767	0.000000	-0.669549
-13.741199	12.650000	12.386665	0.742767	0.000000	-0.669549
-13.741199	12.500000	12.386665	0.742767	0.000000	-0.669549
-13.741199	12.350000	12.386665	0.742767	0.000000	-0.669549
-13.741199	12.200000	12.386665	0.742767	0.000000	-0.669549
-13.741199	12.050000	12.386665	0.742767	0.000000	-0.669549
-13.741199	11.750000	12.386665	0.742767	0.000000	-0.669549
-13.741199	11.600000	12.386665	0.742767	0.000000	-0.669549
13.741199	13.700000	12.386665	-0.742767	0.000000	-0.669549
13.741199	12.800000	12.386665	-0.742767	0.000000	-0.669549
13.741199	13.850000	12.386665	-0.742767	0.000000	-0.669549
13.741199	12.050000	12.386665	-0.742767	0.000000	-0.669549
13.741199	12.950000	12.386665	-0.742767	0.000000	-0.669549
13.741199	11.600000	12.386665	-0.742767	0.000000	-0.669549
13.741199	13.100000	12.386665	-0.742767	0.000000	-0.669549
13.741199	13.250000	12.386665	-0.742767	0.000000	-0.669549
13.741199	13.400000	12.386665	-0.742767	0.000000	-0.669549
13.741199	13.550000	12.386665	-0.742767	0.000000	-0.669549
13.741199	12.650000	12.386665	-0.742767	0.000000	-0.669549
13.741199	12.500000	12.386665	-0.742767	0.000000	-0.669549
13.741199	12.350000	12.386665	-0.742767	0.000000	-0.669549
13.741199	12.200000	12.386665	-0.742767	0.000000	-0.669549
13.741199	14.000000	12.386665	-0.742767	0.000000	-0.669549
13.741199	11.900000	12.386665	-0.742767	0.000000	-0.669549
13.741199	11.750000	12.386665	-0.742767	0.000000	-0.669549
13.729466	11.600000	12.399570	-0.742136	0.000000	-0.670249
-13.729466	11.600000	12.399570	0.742136	0.000000	-0.670249
-6.396683	11.600000	12.452491	0.000000	1.000000	0.000000
6.396683	11.600000	12.452491	0.000000	1.000000	0.000000
9.517016	11.600000	12.481334	0.000000	1.000000	0.000000
9.361000	11.600000	12.481334	0.000000	1.000000	0.000000
9.204984	11.600000	12.481334	0.000000	1.000000	0.000000
9.048966	11.600000	12.481334	0.000000	1.000000	0.000000
8.892950	11.600000	12.481334	0.000000	1.000000	0.000000
8.736934	11.600000	12.481334	0.000000	1.000000	0.000000
8.580916	11.600000	12.481334	0.000000	1.000000	0.000000
8.424900	11.600000	12.481334	0.000000	1.000000	0.000000
8.268884	11.600000	12.481334	0.000000	1.000000	0.000000
8.112866	11.600000	12.481334	0.000000	1.000000	0.000000
7.956850	11.600000	12.481334	0.000000	1.000000	0.000000
7.800833	11.600000	12.481334	0.000000	1.000000	0.000000
7.644817	11.600000	12.481334	0.000000	1.000000	0.000000
7.488800	11.600000	12.481334	0.000000	1.000000	0.000000
7.332783	11.600000	12.481334	0.000000	1.000000	0.000000
7.176767	11.600000	12.481334	0.000000	1.000000	0.000000
7.020750	11.600000	12.481334	0.000000	1.000000	0.000000
6.864733	11.600000	12.481334	0.000000	1.000000	0.000000
6.708717	11.600000	12.481334	0.000000	1.000000	0.000000
6.552700	11.600000	12.481334	0.000000	1.000000	0.000000
6.396683	11.600000	12.481334	0.000000	1.000000	0.000000
-6.552700	11.600000	12.481334	0.000000	1.000000	0.000000
-6.708717	11.600000	12.481334	0.000000	1.000000	0.000000
-6.864733	11.600000	12.481334	0.000000	1.000000	0.000000
-7.020750	11.600000	12.481334	0.000000	1.000000	0.000000
-7.176767	11.600000	12.481334	0.000000	1.000000	0.000000
-7.332783	11.600000	12.481334	0.000000	1.000000	0.000000
-7.488800	11.600000	12.481334	0.000000	1.000000	0.000000
-7.800833	11.600000	12.481334	0.000000	1.000000	0.000000
-7.956850	11.600000	12.481334	0.000000	1.000000	0.000000
-8.112866	11.600000	12.481334	0.000000	1.000000	0.000000
-8.268884	11.600000	12.481334	0.000000	1.000000	0.000000
-8.424900	11.600000	12.481334	0.000000	1.000000	0.000000
-8.580916	11.600000	12.481334	0.000000	1.000000	0.000000
-8.736934	11.600000	12.481334	0.000000	1.000000	0.000000
-8.892950	11.600000	12.481334	0.000000	1.000000	0.000000
-9.048966	11.600000	12.481334	0.000000	1.000000	0.000000
-9.361000	11.600000	12.481334	0.000000	1.000000	0.000000
-9.517016	11.600000	12.481334	0.000000	1.000000	0.000000
-9.673034	11.600000	12.481334	0.000000	1.000000	0.000000
-9.829050	11.600000	12.481334	0.000000	1.000000	0.000000
-9.985066	11.600000	12.481334	0.000000	1.000000	0.000000
-10.141084	11.600000	12.481334	0.000000	1.000000	0.000000
-10.453116	11.600000	12.481334	0.000000	1.000000	0.000000
-10.609134	11.600000	12.481334	0.000000	1.000000	0.000000
-10.765150	11.600000	12.481334	0.000000	1.000000	0.000000
-10.921166	11.600000	12.481334	0.000000	1.000000	0.000000
-11.077184	11.600000	12.481334	0.000000	1.000000	0.000000
-11.233200	11.600000	12.481334	0.000000	1.000000	0.000000
-9.204984	11.600000	12.481334	0.000000	1.000000	0.000000
13.655133	11.600000	12.481334	-0.738119	0.000000	-0.674670
-13.417434	11.600000	12.481334	0.000000	1.000000	0.000000
-12.949384	11.600000	12.481334	0.000000	1.000000	0.000000
-12.793366	11.600000	12.481334	0.000000	1.000000	0.000000
-12.637350	11.600000	12.481334	0.000000	1.000000	0.000000
-13.573450	11.600000	12.481334	0.000000	1.000000	0.000000
6.341177	11.600000	12.481334	0.000000	1.000000	0.000000
-12.481334	11.600000	12.481334	0.000000	1.000000	0.000000
13.261416	11.600000	12.481334	0.000000	1.000000	0.000000
13.105400	11.600000	12.481334	0.000000	1.000000	0.000000
12.949384	11.600000	12.481334	0.000000	1.000000	0.000000
-12.013284	11.600000	12.481334	0.000000	1.000000	0.000000
12.793366	11.600000	12.481334	0.000000	1.000000	0.000000
12.637350	11.600000	12.481334	0.000000	1.000000	0.000000
12.481334	11.600000	12.481334	0.000000	1.000000	0.000000
-12.325316	11.600000	12.481334	0.000000	1.000000	0.000000
12.325316	11.600000	12.481334	0.000000	1.000000	0.000000
-12.169300	11.600000	12.481334	0.000000	1.000000	0.000000
12.169300	11.600000	12.481334	0.000000	1.000000	0.000000
12.013284	11.600000	12.481334	0.000000	1.000000	0.000000
11.857266	11.600000	12.481334	0.000000	1.000000	0.000000
11.701250	11.600000	12.481334	0.000000	1.000000	0.000000
11.545234	11.600000	12.481334	0.000000	1.000000	0.000000
11.389216	11.600000	12.481334	0.000000	1.000000	0.000000
11.233200	11.600000	12.481334	0.000000	1.000000	0.000000
11.077184	11.600000	12.481334	0.000000	1.000000	0.000000
10.921166	11.600000	12.481334	0.000000	1.000000	0.000000
10.765150	11.600000	12.481334	0.000000	1.000000	0.000000
10.609134	11.600000	12.481334	0.000000	1.000000	0.000000
10.453116	11.600000	12.481334	0.000000	1.000000	0.000000
10.297100	11.600000	12.481334	0.000000	1.000000	0.000000
-13.655133	11.600000	12.481334	0.738119	0.000000	-0.674670
10.141084	11.600000	12.481334	0.000000	1.000000	0.000000
-7.644817	11.600000	12.481334	0.000000	1.000000	0.000000
-11.857266	11.600000	12.481334	0.000000	1.000000	0.000000
-11.701250	11.600000	12.481334	0.000000	1.000000	0.000000
-11.545234	11.600000	12.481334	0.000000	1.000000	0.000000
-11.389216	11.600000	12.481334	0.000000	1.000000	0.000000
13.417434	11.600000	12.481334	0.000000	1.000000	0.000000
13.573450	11.600000	12.481334	0.000000	1.000000	0.000000
-13.261416	11.600000	12.481334	0.000000	1.000000	0.000000
9.985066	11.600000	12.481334	0.000000	1.000000	0.000000
-13.105400	11.600000	12.481334	0.000000	1.000000	0.000000
9.829050	11.600000	12.481334	0.000000	1.000000	0.000000
9.673034	11.600000	12.481334	0.000000	1.000000	0.000000
-6.396683	11.600000	12.481334	0.000000	1.000000	0.000000
-6.341177	11.600000	12.481334	0.000000	1.000000	0.000000
-10.297100	11.600000	12.481334	0.000000	1.000000	0.000000
-6.322634	11.600000	12.490969	0.000000	1.000000	0.000000
6.322634	11.600000	12.490969	0.000000	1.000000	0.000000
-13.635961	13.400000	12.502423	0.737079	0.000000	-0.675807
-13.635961	12.650000	12.502423	0.737079	0.000000	-0.675807
-13.635961	11.600000	12.502423	0.737079	0.000000	-0.675807
-13.635961	12.500000	12.502423	0.737079	0.000000	-0.675807
-13.635961	12.350000	12.502423	0.737079	0.000000	-0.675807
-13.635961	12.200000	12.502423	0.737079	0.000000	-0.675807
-13.635961	14.000000	12.502423	0.737079	0.000000	-0.675807
-13.635961	13.850000	12.502423	0.737079	0.000000	-0.675807
-13.635961	13.700000	12.502423	0.737079	0.000000	-0.675807
-13.635961	13.550000	12.502423	0.737079	0.000000	-0.675807
-13.635961	11.900000	12.502423	0.737079	0.000000	-0.675807
-13.635961	13.250000	12.502423	0.737079	0.000000	-0.675807
-13.635961	13.100000	12.502423	0.737079	0.000000	-0.675807
-13.635961	12.950000	12.502423	0.737079	0.000000	-0.675807
-13.635961	12.800000	12.502423	0.737079	0.000000	-0.675807
-13.635961	11.750000	12.502423	0.737079	0.000000	-0.675807
-13.635961	12.050000	12.502423	0.737079	0.000000	-0.675807
13.635961	13.700000	12.502423	-0.737079	0.000000	-0.675807
13.635961	13.850000	12.502423	-0.737079	0.000000	-0.675807
13.635961	14.000000	12.502423	-0.737079	0.000000	-0.675807
13.635961	13.250000	12.502423	-0.737079	0.000000	-0.675807
13.635961	11.600000	12.502423	-0.737079	0.000000	-0.675807
13.635961	12.050000	12.502423	-0.737079	0.000000	-0.675807
13.635961	12.350000	12.502423	-0.737079	0.000000	-0.675807
13.635961	12.200000	12.502423	-0.737079	0.000000	-0.675807
13.635961	11.900000	12.502423	-0.737079	0.000000	-0.675807
13.635961	12.800000	12.502423	-0.737079	0.000000	-0.675807
13.635961	13.400000	12.502423	-0.737079	0.000000	-0.675807
13.635961	11.750000	12.502423	-0.737079	0.000000	-0.675807
13.635961	12.500000	12.502423	-0.737079	0.000000	-0.675807
13.635961	12.650000	12.502423	-0.737079	0.000000	-0.675807
13.635961	13.550000	12.502423	-0.737079	0.000000	-0.675807
13.635961	12.950000	12.502423	-0.737079	0.000000	-0.675807
13.635961	13.100000	12.502423	-0.737079	0.000000	-0.675807
-6.240667	11.600000	12.531368	0.000000	1.000000	0.000000
6.240667	11.600000	12.531368	0.000000	1.000000	0.000000
13.573450	11.600000	12.570025	-0.733706	0.000000	-0.679467
-13.573450	11.600000	12.570025	0.733706	0.000000	-0.679467
-6.084650	11.600000	12.608264	0.000000	1.000000	0.000000
6.084650	11.600000	12.608264	0.000000	1.000000	0.000000
-13.529747	13.250000	12.617288	0.731338	0.000000	-0.682016
-13.529747	13.550000	12.617288	0.731338	0.000000	-0.682016
-13.529747	13.700000	12.617288	0.731338	0.000000	-0.682016
-13.529747	13.850000	12.617288	0.731338	0.000000	-0.682016
-13.529747	14.000000	12.617288	0.731338	0.000000	-0.682016
-13.529747	11.600000	12.617288	0.731338	0.000000	-0.682016
-13.529747	13.400000	12.617288	0.731338	0.000000	-0.682016
-13.529747	11.750000	12.617288	0.731338	0.000000	-0.682016
-13.529747	11.900000	12.617288	0.731338	0.000000	-0.682016
-13.529747	12.050000	12.617288	0.731338	0.000000	-0.682016
-13.529747	12.200000	12.617288	0.731338	0.000000	-0.682016
-13.529747	12.350000	12.617288	0.731338	0.000000	-0.682016
-13.529747	12.500000	12.617288	0.731338	0.000000	-0.682016
-13.529747	12.650000	12.617288	0.731338	0.000000	-0.682016
-13.529747	12.800000	12.617288	0.731338	0.000000	-0.682016
-13.529747	12.950000	12.617288	0.731338	0.000000	-0.682016
-13.529747	13.100000	12.617288	0.731338	0.000000	-0.682016
13.529747	13.100000	12.617288	-0.731338	0.000000	-0.682016
13.529747	12.650000	12.617288	-0.731338	0.000000	-0.682016
13.529747	11.600000	12.617288	-0.731338	0.000000	-0.682016
13.529747	12.950000	12.617288	-0.731338	0.000000	-0.682016
13.529747	12.800000	12.617288	-0.731338	0.000000	-0.682016
13.529747	11.750000	12.617288	-0.731338	0.000000	-0.682016
13.529747	13.250000	12.617288	-0.731338	0.000000	-0.682016
13.529747	12.200000	12.617288	-0.731338	0.000000	-0.682016
13.529747	12.350000	12.617288	-0.731338	0.000000	-0.682016
13.529747	12.500000	12.617288	-0.731338	0.000000	-0.682016
13.529747	13.400000	12.617288	-0.731338	0.000000	-0.682016
13.529747	13.550000	12.617288	-0.731338	0.000000	-0.682016
13.529747	13.700000	12.617288	-0.731338	0.000000	-0.682016
13.529747	13.850000	12.617288	-0.731338	0.000000	-0.682016
13.529747	14.000000	12.617288	-0.731338	0.000000	-0.682016
13.529747	12.050000	12.617288	-0.731338	0.000000	-0.682016
13.529747	11.900000	12.617288	-0.731338	0.000000	-0.682016
-6.055176	11.600000	12.622790	0.000000	1.000000	0.000000
6.055176	11.600000	12.622790	0.000000	1.000000	0.000000
8.892950	11.600000	12.637350	0.000000	1.000000	0.000000
9.048966	11.600000	12.637350	0.000000	1.000000	0.000000
9.204984	11.600000	12.637350	0.000000	1.000000	0.000000
9.361000	11.600000	12.637350	0.000000	1.000000	0.000000
9.517016	11.600000	12.637350	0.000000	1.000000	0.000000
13.261416	11.600000	12.637350	0.000000	1.000000	0.000000
9.673034	11.600000	12.637350	0.000000	1.000000	0.000000
13.417434	11.600000	12.637350	0.000000	1.000000	0.000000
9.829050	11.600000	12.637350	0.000000	1.000000	0.000000
9.985066	11.600000	12.637350	0.000000	1.000000	0.000000
10.141084	11.600000	12.637350	0.000000	1.000000	0.000000
10.297100	11.600000	12.637350	0.000000	1.000000	0.000000
10.453116	11.600000	12.637350	0.000000	1.000000	0.000000
10.609134	11.600000	12.637350	0.000000	1.000000	0.000000
10.765150	11.600000	12.637350	0.000000	1.000000	0.000000
11.077184	11.600000	12.637350	0.000000	1.000000	0.000000
11.233200	11.600000	12.637350	0.000000	1.000000	0.000000
11.389216	11.600000	12.637350	0.000000	1.000000	0.000000
11.545234	11.600000	12.637350	0.000000	1.000000	0.000000
-6.396683	11.600000	12.637350	0.000000	1.000000	0.000000
11.701250	11.600000	12.637350	0.000000	1.000000	0.000000
11.857266	11.600000	12.637350	0.000000	1.000000	0.000000
12.013284	11.600000	12.637350	0.000000	1.000000	0.000000
12.325316	11.600000	12.637350	0.000000	1.000000	0.000000
12.481334	11.600000	12.637350	0.000000	1.000000	0.000000
12.637350	11.600000	12.637350	0.000000	1.000000	0.000000
12.793366	11.600000	12.637350	0.000000	1.000000	0.000000
12.949384	11.600000	12.637350	0.000000	1.000000	0.000000
13.105400	11.600000	12.637350	0.000000	1.000000	0.000000
-11.545234	11.600000	12.637350	0.000000	1.000000	0.000000
-6.023977	11.600000	12.637350	0.000000	1.000000	0.000000
-6.084650	11.600000	12.637350	0.000000	1.000000	0.000000
10.921166	11.600000	12.637350	0.000000	1.000000	0.000000
-13.417434	11.600000	12.637350	0.000000	1.000000	0.000000
-11.701250	11.600000	12.637350	0.000000	1.000000	0.000000
-11.857266	11.600000	12.637350	0.000000	1.000000	0.000000
-12.013284	11.600000	12.637350	0.000000	1.000000	0.000000
13.510879	11.600000	12.637350	-0.730322	0.000000	-0.683104
-12.169300	11.600000	12.637350	0.000000	1.000000	0.000000
-12.325316	11.600000	12.637350	0.000000	1.000000	0.000000
-12.481334	11.600000	12.637350	0.000000	1.000000	0.000000
6.240667	11.600000	12.637350	0.000000	1.000000	0.000000
-12.637350	11.600000	12.637350	0.000000	1.000000	0.000000
-13.510879	11.600000	12.637350	0.730322	0.000000	-0.683104
-12.793366	11.600000	12.637350	0.000000	1.000000	0.000000
-9.517016	11.600000	12.637350	0.000000	1.000000	0.000000
-12.949384	11.600000	12.637350	0.000000	1.000000	0.000000
-13.105400	11.600000	12.637350	0.000000	1.000000	0.000000
-13.261416	11.600000	12.637350	0.000000	1.000000	0.000000
-9.204984	11.600000	12.637350	0.000000	1.000000	0.000000
6.023977	11.600000	12.637350	0.000000	1.000000	0.000000
-11.077184	11.600000	12.637350	0.000000	1.000000	0.000000
-10.921166	11.600000	12.637350	0.000000	1.000000	0.000000
-10.765150	11.600000	12.637350	0.000000	1.000000	0.000000
-10.609134	11.600000	12.637350	0.000000	1.000000	0.000000
-10.453116	11.600000	12.637350	0.000000	1.000000	0.000000
-10.297100	11.600000	12.637350	0.000000	1.000000	0.000000
-10.141084	11.600000	12.637350	0.000000	1.000000	0.000000
-9.985066	11.600000	12.637350	0.000000	1.000000	0.000000
-9.829050	11.600000	12.637350	0.000000	1.000000	0.000000
-9.673034	11.600000	12.637350	0.000000	1.000000	0.000000
12.169300	11.600000	12.637350	0.000000	1.000000	0.000000
-9.361000	11.600000	12.637350	0.000000	1.000000	0.000000
-11.233200	11.600000	12.637350	0.000000	1.000000	0.000000
-9.048966	11.600000	12.637350	0.000000	1.000000	0.000000
-8.892950	11.600000	12.637350	0.000000	1.000000	0.000000
-8.736934	11.600000	12.637350	0.000000	1.000000	0.000000
-8.580916	11.600000	12.637350	0.000000	1.000000	0.000000
-8.424900	11.600000	12.637350	0.000000	1.000000	0.000000
-8.268884	11.600000	12.637350	0.000000	1.000000	0.000000
-8.112866	11.600000	12.637350	0.000000	1.000000	0.000000
-7.956850	11.600000	12.637350	0.000000	1.000000	0.000000
-7.800833	11.600000	12.637350	0.000000	1.000000	0.000000
-7.644817	11.600000	12.637350	0.000000	1.000000	0.000000
-7.488800	11.600000	12.637350	0.000000	1.000000	0.000000
-7.332783	11.600000	12.637350	0.000000	1.000000	0.000000
-7.176767	11.600000	12.637350	0.000000	1.000000	0.000000
-7.020750	11.600000	12.637350	0.000000	1.000000	0.000000
-6.864733	11.600000	12.637350	0.000000	1.000000	0.000000
-6.708717	11.600000	12.637350	0.000000	1.000000	0.000000
-6.552700	11.600000	12.637350	0.000000	1.000000	0.000000
-6.240667	11.600000	12.637350	0.000000	1.000000	0.000000
6.084650	11.600000	12.637350	0.000000	1.000000	0.000000
-11.389216	11.600000	12.637350	0.000000	1.000000	0.000000
6.396683	11.600000	12.637350	0.000000	1.000000	0.000000
6.552700	11.600000	12.637350	0.000000	1.000000	0.000000
6.708717	11.600000	12.637350	0.000000	1.000000	0.000000
6.864733	11.600000	12.637350	0.000000	1.000000	0.000000
7.020750	11.600000	12.637350	0.000000	1.000000	0.000000
7.176767	11.600000	12.637350	0.000000	1.000000	0.000000
7.332783	11.600000	12.637350	0.000000	1.000000	0.000000
7.488800	11.600000	12.637350	0.000000	1.000000	0.000000
7.644817	11.600000	12.637350	0.000000	1.000000	0.000000
7.800833	11.600000	12.637350	0.000000	1.000000	0.000000
7.956850	11.600000	12.637350	0.000000	1.000000	0.000000
8.112866	11.600000	12.637350	0.000000	1.000000	0.000000
8.268884	11.600000	12.637350	0.000000	1.000000	0.000000
8.424900	11.600000	12.637350	0.000000	1.000000	0.000000
8.580916	11.600000	12.637350	0.000000	1.000000	0.000000
8.736934	11.600000	12.637350	0.000000	1.000000	0.000000
-5.928633	11.600000	12.681844	0.000000	1.000000	0.000000
5.928633	11.600000	12.681844	0.000000	1.000000	0.000000
-13.422566	13.250000	12.731250	0.725544	0.000000	-0.688176
-13.422566	13.100000	12.731250	0.725544	0.000000	-0.688176
-13.422566	12.950000	12.731250	0.725544	0.000000	-0.688176
-13.422566	12.800000	12.731250	0.725544	0.000000	-0.688176
-13.422566	12.650000	12.731250	0.725544	0.000000	-0.688176
-13.422566	12.500000	12.731250	0.725544	0.000000	-0.688176
-13.422566	12.350000	12.731250	0.725544	0.000000	-0.688176
-13.422566	12.200000	12.731250	0.725544	0.000000	-0.688176
-13.422566	12.050000	12.731250	0.725544	0.000000	-0.688176
-13.422566	11.900000	12.731250	0.725544	0.000000	-0.688176
-13.422566	13.700000	12.731250	0.725544	0.000000	-0.688176
-13.422566	14.000000	12.731250	0.725544	0.000000	-0.688176
-13.422566	13.550000	12.731250	0.725544	0.000000	-0.688176
-13.422566	11.750000	12.731250	0.725544	0.000000	-0.688176
-13.422566	13.400000	12.731250	0.725544	0.000000	-0.688176
-13.422566	13.850000	12.731250	0.725544	0.000000	-0.688176
-13.422566	11.600000	12.731250	0.725544	0.000000	-0.688176
13.422566	12.500000	12.731250	-0.725544	0.000000	-0.688176
13.422566	11.600000	12.731250	-0.725544	0.000000	-0.688176
13.422566	12.650000	12.731250	-0.725544	0.000000	-0.688176
13.422566	12.800000	12.731250	-0.725544	0.000000	-0.688176
13.422566	13.250000	12.731250	-0.725544	0.000000	-0.688176
13.422566	13.400000	12.731250	-0.725544	0.000000	-0.688176
13.422566	13.550000	12.731250	-0.725544	0.000000	-0.688176
13.422566	13.100000	12.731250	-0.725544	0.000000	-0.688176
13.422566	14.000000	12.731250	-0.725544	0.000000	-0.688176
13.422566	11.750000	12.731250	-0.725544	0.000000	-0.688176
13.422566	12.050000	12.731250	-0.725544	0.000000	-0.688176
13.422566	12.200000	12.731250	-0.725544	0.000000	-0.688176
13.422566	12.350000	12.731250	-0.725544	0.000000	-0.688176
13.422566	12.950000	12.731250	-0.725544	0.000000	-0.688176
13.422566	13.700000	12.731250	-0.725544	0.000000	-0.688176
13.422566	13.850000	12.731250	-0.725544	0.000000	-0.688176
13.422566	11.900000	12.731250	-0.725544	0.000000	-0.688176
13.417434	11.600000	12.736615	-0.725268	0.000000	-0.688467
-13.417434	11.600000	12.736615	0.725268	0.000000	-0.688467
-5.784971	11.600000	12.748887	0.000000	1.000000	0.000000
5.784971	11.600000	12.748887	0.000000	1.000000	0.000000
-5.772617	11.600000	12.754334	0.000000	1.000000	0.000000
5.772617	11.600000	12.754334	0.000000	1.000000	0.000000
11.077184	11.600000	12.793366	0.000000	1.000000	0.000000
10.921166	11.600000	12.793366	0.000000	1.000000	0.000000
10.765150	11.600000	12.793366	0.000000	1.000000	0.000000
10.609134	11.600000	12.793366	0.000000	1.000000	0.000000
10.453116	11.600000	12.793366	0.000000	1.000000	0.000000
10.297100	11.600000	12.793366	0.000000	1.000000	0.000000
10.141084	11.600000	12.793366	0.000000	1.000000	0.000000
9.985066	11.600000	12.793366	0.000000	1.000000	0.000000
9.829050	11.600000	12.793366	0.000000	1.000000	0.000000
9.673034	11.600000	12.793366	0.000000	1.000000	0.000000
9.517016	11.600000	12.793366	0.000000	1.000000	0.000000
9.361000	11.600000	12.793366	0.000000	1.000000	0.000000
9.204984	11.600000	12.793366	0.000000	1.000000	0.000000
9.048966	11.600000	12.793366	0.000000	1.000000	0.000000
8.892950	11.600000	12.793366	0.000000	1.000000	0.000000
8.736934	11.600000	12.793366	0.000000	1.000000	0.000000
8.580916	11.600000	12.793366	0.000000	1.000000	0.000000
8.424900	11.600000	12.793366	0.000000	1.000000	0.000000
8.268884	11.600000	12.793366	0.000000	1.000000	0.000000
8.112866	11.600000	12.793366	0.000000	1.000000	0.000000
7.956850	11.600000	12.793366	0.000000	1.000000	0.000000
7.800833	11.600000	12.793366	0.000000	1.000000	0.000000
7.644817	11.600000	12.793366	0.000000	1.000000	0.000000
7.488800	11.600000	12.793366	0.000000	1.000000	0.000000
7.332783	11.600000	12.793366	0.000000	1.000000	0.000000
7.176767	11.600000	12.793366	0.000000	1.000000	0.000000
7.020750	11.600000	12.793366	0.000000	1.000000	0.000000
6.864733	11.600000	12.793366	0.000000	1.000000	0.000000
6.708717	11.600000	12.793366	0.000000	1.000000	0.000000
6.552700	11.600000	12.793366	0.000000	1.000000	0.000000
6.396683	11.600000	12.793366	0.000000	1.000000	0.000000
6.240667	11.600000	12.793366	0.000000	1.000000	0.000000
5.928633	11.600000	12.793366	0.000000	1.000000	0.000000
5.772617	11.600000	12.793366	0.000000	1.000000	0.000000
-5.928633	11.600000	12.793366	0.000000	1.000000	0.000000
-6.084650	11.600000	12.793366	0.000000	1.000000	0.000000
-6.240667	11.600000	12.793366	0.000000	1.000000	0.000000
-6.396683	11.600000	12.793366	0.000000	1.000000	0.000000
-6.552700	11.600000	12.793366	0.000000	1.000000	0.000000
-6.708717	11.600000	12.793366	0.000000	1.000000	0.000000
-6.864733	11.600000	12.793366	0.000000	1.000000	0.000000
-7.020750	11.600000	12.793366	0.000000	1.000000	0.000000
-7.176767	11.600000	12.793366	0.000000	1.000000	0.000000
-7.332783	11.600000	12.793366	0.000000	1.000000	0.000000
-7.488800	11.600000	12.793366	0.000000	1.000000	0.000000
-7.644817	11.600000	12.793366	0.000000	1.000000	0.000000
-7.800833	11.600000	12.793366	0.000000	1.000000	0.000000
-7.956850	11.600000	12.793366	0.000000	1.000000	0.000000
-8.112866	11.600000	12.793366	0.000000	1.000000	0.000000
-8.268884	11.600000	12.793366	0.000000	1.000000	0.000000
-8.424900	11.600000	12.793366	0.000000	1.000000	0.000000
-8.580916	11.600000	12.793366	0.000000	1.000000	0.000000
-8.736934	11.600000	12.793366	0.000000	1.000000	0.000000
-8.892950	11.600000	12.793366	0.000000	1.000000	0.000000
-9.048966	11.600000	12.793366	0.000000	1.000000	0.000000
-9.204984	11.600000	12.793366	0.000000	1.000000	0.000000
-9.361000	11.600000	12.793366	0.000000	1.000000	0.000000
-9.517016	11.600000	12.793366	0.000000	1.000000	0.000000
-9.673034	11.600000	12.793366	0.000000	1.000000	0.000000
-9.829050	11.600000	12.793366	0.000000	1.000000	0.000000
-9.985066	11.600000	12.793366	0.000000	1.000000	0.000000
-10.141084	11.600000	12.793366	0.000000	1.000000	0.000000
-10.297100	11.600000	12.793366	0.000000	1.000000	0.000000
-10.453116	11.600000	12.793366	0.000000	1.000000	0.000000
-10.609134	11.600000	12.793366	0.000000	1.000000	0.000000
-10.765150	11.600000	12.793366	0.000000	1.000000	0.000000
-10.921166	11.600000	12.793366	0.000000	1.000000	0.000000
-11.077184	11.600000	12.793366	0.000000	1.000000	0.000000
-11.233200	11.600000	12.793366	0.000000	1.000000	0.000000
-11.389216	11.600000	12.793366	0.000000	1.000000	0.000000
-11.545234	11.600000	12.793366	0.000000	1.000000	0.000000
-11.701250	11.600000	12.793366	0.000000	1.000000	0.000000
-12.013284	11.600000	12.793366	0.000000	1.000000	0.000000
-12.169300	11.600000	12.793366	0.000000	1.000000	0.000000
-12.325316	11.600000	12.793366	0.000000	1.000000	0.000000
-12.481334	11.600000	12.793366	0.000000	1.000000	0.000000
-12.637350	11.600000	12.793366	0.000000	1.000000	0.000000
13.105400	11.600000	12.793366	0.000000	1.000000	0.000000
-12.793366	11.600000	12.793366	0.000000	1.000000	0.000000
13.261416	11.600000	12.793366	0.000000	1.000000	0.000000
-12.949384	11.600000	12.793366	0.000000	1.000000	0.000000
-13.105400	11.600000	12.793366	0.000000	1.000000	0.000000
-5.684105	11.600000	12.793366	0.000000	1.000000	0.000000
-5.772617	11.600000	12.793366	0.000000	1.000000	0.000000
-13.363148	11.600000	12.793366	0.722339	0.000000	-0.691539
6.084650	11.600000	12.793366	0.000000	1.000000	0.000000
13.363148	11.600000	12.793366	-0.722339	0.000000	-0.691539
-11.857266	11.600000	12.793366	0.000000	1.000000	0.000000
11.857266	11.600000	12.793366	0.000000	1.000000	0.000000
11.701250	11.600000	12.793366	0.000000	1.000000	0.000000
5.684105	11.600000	12.793366	0.000000	1.000000	0.000000
11.545234	11.600000	12.793366	0.000000	1.000000	0.000000
-13.261416	11.600000	12.793366	0.000000	1.000000	0.000000
11.389216	11.600000	12.793366	0.000000	1.000000	0.000000
12.949384	11.600000	12.793366	0.000000	1.000000	0.000000
12.793366	11.600000	12.793366	0.000000	1.000000	0.000000
12.637350	11.600000	12.793366	0.000000	1.000000	0.000000
12.481334	11.600000	12.793366	0.000000	1.000000	0.000000
12.325316	11.600000	12.793366	0.000000	1.000000	0.000000
12.169300	11.600000	12.793366	0.000000	1.000000	0.000000
12.013284	11.600000	12.793366	0.000000	1.000000	0.000000
11.233200	11.600000	12.793366	0.000000	1.000000	0.000000
-5.616600	11.600000	12.823135	0.000000	1.000000	0.000000
5.616600	11.600000	12.823135	0.000000	1.000000	0.000000
-13.314425	12.650000	12.844301	0.719699	0.000000	-0.694287
-13.314425	12.500000	12.844301	0.719699	0.000000	-0.694287
-13.314425	12.200000	12.844301	0.719699	0.000000	-0.694287
-13.314425	11.900000	12.844301	0.719699	0.000000	-0.694287
-13.314425	12.350000	12.844301	0.719699	0.000000	-0.694287
-13.314425	13.100000	12.844301	0.719699	0.000000	-0.694287
-13.314425	11.750000	12.844301	0.719699	0.000000	-0.694287
-13.314425	12.950000	12.844301	0.719699	0.000000	-0.694287
-13.314425	12.800000	12.844301	0.719699	0.000000	-0.694287
-13.314425	12.050000	12.844301	0.719699	0.000000	-0.694287
-13.314425	13.250000	12.844301	0.719699	0.000000	-0.694287
-13.314425	13.400000	12.844301	0.719699	0.000000	-0.694287
-13.314425	13.550000	12.844301	0.719699	0.000000	-0.694287
-13.314425	13.700000	12.844301	0.719699	0.000000	-0.694287
-13.314425	13.850000	12.844301	0.719699	0.000000	-0.694287
-13.314425	14.000000	12.844301	0.719699	0.000000	-0.694287
-13.314425	11.600000	12.844301	0.719699	0.000000	-0.694287
13.314425	12.050000	12.844301	-0.719699	0.000000	-0.694287
13.314425	11.900000	12.844301	-0.719699	0.000000	-0.694287
13.314425	14.000000	12.844301	-0.719699	0.000000	-0.694287
13.314425	11.750000	12.844301	-0.719699	0.000000	-0.694287
13.314425	13.400000	12.844301	-0.719699	0.000000	-0.694287
13.314425	13.550000	12.844301	-0.719699	0.000000	-0.694287
13.314425	13.700000	12.844301	-0.719699	0.000000	-0.694287
13.314425	13.850000	12.844301	-0.719699	0.000000	-0.694287
13.314425	11.600000	12.844301	-0.719699	0.000000	-0.694287
13.314425	12.950000	12.844301	-0.719699	0.000000	-0.694287
13.314425	12.200000	12.844301	-0.719699	0.000000	-0.694287
13.314425	12.350000	12.844301	-0.719699	0.000000	-0.694287
13.314425	12.500000	12.844301	-0.719699	0.000000	-0.694287
13.314425	12.650000	12.844301	-0.719699	0.000000	-0.694287
13.314425	12.800000	12.844301	-0.719699	0.000000	-0.694287
13.314425	13.100000	12.844301	-0.719699	0.000000	-0.694287
13.314425	13.250000	12.844301	-0.719699	0.000000	-0.694287
-5.512141	11.600000	12.869200	0.000000	1.000000	0.000000
5.512141	11.600000	12.869200	0.000000	1.000000	0.000000
-5.460583	11.600000	12.890636	0.000000	1.000000	0.000000
5.460583	11.600000	12.890636	0.000000	1.000000	0.000000
13.261416	11.600000	12.898787	-0.716840	0.000000	-0.697238
-13.261416	11.600000	12.898787	0.716840	0.000000	-0.697238
-9.048966	11.600000	12.949384	0.000000	1.000000	0.000000
-9.204984	11.600000	12.949384	0.000000	1.000000	0.000000
-9.361000	11.600000	12.949384	0.000000	1.000000	0.000000
-9.517016	11.600000	12.949384	0.000000	1.000000	0.000000
-9.673034	11.600000	12.949384	0.000000	1.000000	0.000000
-9.829050	11.600000	12.949384	0.000000	1.000000	0.000000
-9.985066	11.600000	12.949384	0.000000	1.000000	0.000000
-10.141084	11.600000	12.949384	0.000000	1.000000	0.000000
-10.297100	11.600000	12.949384	0.000000	1.000000	0.000000
-10.453116	11.600000	12.949384	0.000000	1.000000	0.000000
-10.609134	11.600000	12.949384	0.000000	1.000000	0.000000
-10.765150	11.600000	12.949384	0.000000	1.000000	0.000000
-10.921166	11.600000	12.949384	0.000000	1.000000	0.000000
-11.077184	11.600000	12.949384	0.000000	1.000000	0.000000
-11.233200	11.600000	12.949384	0.000000	1.000000	0.000000
-11.389216	11.600000	12.949384	0.000000	1.000000	0.000000
-11.545234	11.600000	12.949384	0.000000	1.000000	0.000000
-11.701250	11.600000	12.949384	0.000000	1.000000	0.000000
-11.857266	11.600000	12.949384	0.000000	1.000000	0.000000
-12.013284	11.600000	12.949384	0.000000	1.000000	0.000000
-12.169300	11.600000	12.949384	0.000000	1.000000	0.000000
-12.325316	11.600000	12.949384	0.000000	1.000000	0.000000
-12.481334	11.600000	12.949384	0.000000	1.000000	0.000000
-12.637350	11.600000	12.949384	0.000000	1.000000	0.000000
-12.793366	11.600000	12.949384	0.000000	1.000000	0.000000
-12.949384	11.600000	12.949384	0.000000	1.000000	0.000000
-5.319287	11.600000	12.949384	0.000000	1.000000	0.000000
-5.460583	11.600000	12.949384	0.000000	1.000000	0.000000
5.319287	11.600000	12.949384	0.000000	1.000000	0.000000
-13.212193	11.600000	12.949384	0.714174	0.000000	-0.699968
-7.020750	11.600000	12.949384	0.000000	1.000000	0.000000
13.212193	11.600000	12.949384	-0.714174	0.000000	-0.699968
13.105400	11.600000	12.949384	0.000000	1.000000	0.000000
12.949384	11.600000	12.949384	0.000000	1.000000	0.000000
-13.105400	11.600000	12.949384	0.000000	1.000000	0.000000
12.793366	11.600000	12.949384	0.000000	1.000000	0.000000
12.637350	11.600000	12.949384	0.000000	1.000000	0.000000
12.481334	11.600000	12.949384	0.000000	1.000000	0.000000
12.325316	11.600000	12.949384	0.000000	1.000000	0.000000
12.169300	11.600000	12.949384	0.000000	1.000000	0.000000
12.013284	11.600000	12.949384	0.000000	1.000000	0.000000
11.857266	11.600000	12.949384	0.000000	1.000000	0.000000
11.701250	11.600000	12.949384	0.000000	1.000000	0.000000
11.545234	11.600000	12.949384	0.000000	1.000000	0.000000
11.389216	11.600000	12.949384	0.000000	1.000000	0.000000
11.233200	11.600000	12.949384	0.000000	1.000000	0.000000
11.077184	11.600000	12.949384	0.000000	1.000000	0.000000
10.921166	11.600000	12.949384	0.000000	1.000000	0.000000
10.765150	11.600000	12.949384	0.000000	1.000000	0.000000
10.609134	11.600000	12.949384	0.000000	1.000000	0.000000
10.453116	11.600000	12.949384	0.000000	1.000000	0.000000
10.297100	11.600000	12.949384	0.000000	1.000000	0.000000
10.141084	11.600000	12.949384	0.000000	1.000000	0.000000
9.985066	11.600000	12.949384	0.000000	1.000000	0.000000
9.829050	11.600000	12.949384	0.000000	1.000000	0.000000
9.673034	11.600000	12.949384	0.000000	1.000000	0.000000
9.517016	11.600000	12.949384	0.000000	1.000000	0.000000
9.361000	11.600000	12.949384	0.000000	1.000000	0.000000
9.204984	11.600000	12.949384	0.000000	1.000000	0.000000
9.048966	11.600000	12.949384	0.000000	1.000000	0.000000
8.892950	11.600000	12.949384	0.000000	1.000000	0.000000
8.736934	11.600000	12.949384	0.000000	1.000000	0.000000
8.580916	11.600000	12.949384	0.000000	1.000000	0.000000
8.424900	11.600000	12.949384	0.000000	1.000000	0.000000
8.268884	11.600000	12.949384	0.000000	1.000000	0.000000
8.112866	11.600000	12.949384	0.000000	1.000000	0.000000
7.956850	11.600000	12.949384	0.000000	1.000000	0.000000
7.800833	11.600000	12.949384	0.000000	1.000000	0.000000
7.644817	11.600000	12.949384	0.000000	1.000000	0.000000
7.488800	11.600000	12.949384	0.000000	1.000000	0.000000
7.332783	11.600000	12.949384	0.000000	1.000000	0.000000
7.176767	11.600000	12.949384	0.000000	1.000000	0.000000
7.020750	11.600000	12.949384	0.000000	1.000000	0.000000
6.864733	11.600000	12.949384	0.000000	1.000000	0.000000
6.708717	11.600000	12.949384	0.000000	1.000000	0.000000
6.552700	11.600000	12.949384	0.000000	1.000000	0.000000
6.396683	11.600000	12.949384	0.000000	1.000000	0.000000
6.240667	11.600000	12.949384	0.000000	1.000000	0.000000
6.084650	11.600000	12.949384	0.000000	1.000000	0.000000
5.928633	11.600000	12.949384	0.000000	1.000000	0.000000
5.772617	11.600000	12.949384	0.000000	1.000000	0.000000
5.616600	11.600000	12.949384	0.000000	1.000000	0.000000
5.460583	11.600000	12.949384	0.000000	1.000000	0.000000
-5.616600	11.600000	12.949384	0.000000	1.000000	0.000000
-5.772617	11.600000	12.949384	0.000000	1.000000	0.000000
-5.928633	11.600000	12.949384	0.000000	1.000000	0.000000
-6.084650	11.600000	12.949384	0.000000	1.000000	0.000000
-6.240667	11.600000	12.949384	0.000000	1.000000	0.000000
-6.396683	11.600000	12.949384	0.000000	1.000000	0.000000
-6.552700	11.600000	12.949384	0.000000	1.000000	0.000000
-6.708717	11.600000	12.949384	0.000000	1.000000	0.000000
-6.864733	11.600000	12.949384	0.000000	1.000000	0.000000
-7.176767	11.600000	12.949384	0.000000	1.000000	0.000000
-7.332783	11.600000	12.949384	0.000000	1.000000	0.000000
-7.488800	11.600000	12.949384	0.000000	1.000000	0.000000
-7.644817	11.600000	12.949384	0.000000	1.000000	0.000000
-7.800833	11.600000	12.949384	0.000000	1.000000	0.000000
-7.956850	11.600000	12.949384	0.000000	1.000000	0.000000
-8.112866	11.600000	12.949384	0.000000	1.000000	0.000000
-8.268884	11.600000	12.949384	0.000000	1.000000	0.000000
-8.424900	11.600000	12.949384	0.000000	1.000000	0.000000
-8.580916	11.600000	12.949384	0.000000	1.000000	0.000000
-8.736934	11.600000	12.949384	0.000000	1.000000	0.000000
-8.892950	11.600000	12.949384	0.000000	1.000000	0.000000
-5.304567	11.600000	12.955503	0.000000	1.000000	0.000000
5.304567	11.600000	12.955503	0.000000	1.000000	0.000000
-13.205333	12.500000	12.956434	0.713802	0.000000	-0.700348
-13.205333	11.750000	12.956434	0.713802	0.000000	-0.700348
-13.205333	12.350000	12.956434	0.713802	0.000000	-0.700348
-13.205333	12.200000	12.956434	0.713802	0.000000	-0.700348
-13.205333	11.900000	12.956434	0.713802	0.000000	-0.700348
-13.205333	11.600000	12.956434	0.713802	0.000000	-0.700348
-13.205333	14.000000	12.956434	0.713802	0.000000	-0.700348
-13.205333	13.850000	12.956434	0.713802	0.000000	-0.700348
-13.205333	13.550000	12.956434	0.713802	0.000000	-0.700348
-13.205333	13.700000	12.956434	0.713802	0.000000	-0.700348
-13.205333	13.400000	12.956434	0.713802	0.000000	-0.700348
-13.205333	13.250000	12.956434	0.713802	0.000000	-0.700348
-13.205333	12.050000	12.956434	0.713802	0.000000	-0.700348
-13.205333	13.100000	12.956434	0.713802	0.000000	-0.700348
-13.205333	12.950000	12.956434	0.713802	0.000000	-0.700348
-13.205333	12.800000	12.956434	0.713802	0.000000	-0.700348
-13.205333	12.650000	12.956434	0.713802	0.000000	-0.700348
13.205333	12.350000	12.956434	-0.713802	0.000000	-0.700348
13.205333	12.200000	12.956434	-0.713802	0.000000	-0.700348
13.205333	12.050000	12.956434	-0.713802	0.000000	-0.700348
13.205333	13.100000	12.956434	-0.713802	0.000000	-0.700348
13.205333	11.900000	12.956434	-0.713802	0.000000	-0.700348
13.205333	11.750000	12.956434	-0.713802	0.000000	-0.700348
13.205333	13.400000	12.956434	-0.713802	0.000000	-0.700348
13.205333	11.600000	12.956434	-0.713802	0.000000	-0.700348
13.205333	14.000000	12.956434	-0.713802	0.000000	-0.700348
13.205333	13.850000	12.956434	-0.713802	0.000000	-0.700348
13.205333	13.700000	12.956434	-0.713802	0.000000	-0.700348
13.205333	13.550000	12.956434	-0.713802	0.000000	-0.700348
13.205333	13.250000	12.956434	-0.713802	0.000000	-0.700348
13.205333	12.950000	12.956434	-0.713802	0.000000	-0.700348
13.205333	12.800000	12.956434	-0.713802	0.000000	-0.700348
13.205333	12.650000	12.956434	-0.713802	0.000000	-0.700348
13.205333	12.500000	12.956434	-0.713802	0.000000	-0.700348
-5.236812	11.600000	12.983675	0.000000	1.000000	0.000000
5.236812	11.600000	12.983675	0.000000	1.000000	0.000000
-5.148550	11.600000	13.018186	0.000000	1.000000	0.000000
5.148550	11.600000	13.018186	0.000000	1.000000	0.000000
13.105400	11.600000	13.057429	-0.708402	0.000000	-0.705809
-13.105400	11.600000	13.057429	0.708402	0.000000	-0.705809
-13.095296	12.650000	13.067640	0.707854	0.000000	-0.706359
-13.095296	11.750000	13.067640	0.707854	0.000000	-0.706359
-13.095296	11.900000	13.067640	0.707854	0.000000	-0.706359
-13.095296	12.050000	13.067640	0.707854	0.000000	-0.706359
-13.095296	11.600000	13.067640	0.707854	0.000000	-0.706359
-13.095296	14.000000	13.067640	0.707854	0.000000	-0.706359
-13.095296	13.850000	13.067640	0.707854	0.000000	-0.706359
-13.095296	13.700000	13.067640	0.707854	0.000000	-0.706359
-13.095296	13.550000	13.067640	0.707854	0.000000	-0.706359
-13.095296	12.800000	13.067640	0.707854	0.000000	-0.706359
-13.095296	13.400000	13.067640	0.707854	0.000000	-0.706359
-13.095296	13.100000	13.067640	0.707854	0.000000	-0.706359
-13.095296	12.950000	13.067640	0.707854	0.000000	-0.706359
-13.095296	13.250000	13.067640	0.707854	0.000000	-0.706359
-13.095296	12.500000	13.067640	0.707854	0.000000	-0.706359
-13.095296	12.350000	13.067640	0.707854	0.000000	-0.706359
-13.095296	12.200000	13.067640	0.707854	0.000000	-0.706359
13.095296	11.600000	13.067640	-0.707854	0.000000	-0.706359
13.095296	14.000000	13.067640	-0.707854	0.000000	-0.706359
13.095296	13.850000	13.067640	-0.707854	0.000000	-0.706359
13.095296	13.700000	13.067640	-0.707854	0.000000	-0.706359
13.095296	13.550000	13.067640	-0.707854	0.000000	-0.706359
13.095296	13.400000	13.067640	-0.707854	0.000000	-0.706359
13.095296	13.250000	13.067640	-0.707854	0.000000	-0.706359
13.095296	13.100000	13.067640	-0.707854	0.000000	-0.706359
13.095296	12.950000	13.067640	-0.707854	0.000000	-0.706359
13.095296	12.800000	13.067640	-0.707854	0.000000	-0.706359
13.095296	12.650000	13.067640	-0.707854	0.000000	-0.706359
13.095296	12.500000	13.067640	-0.707854	0.000000	-0.706359
13.095296	12.200000	13.067640	-0.707854	0.000000	-0.706359
13.095296	12.050000	13.067640	-0.707854	0.000000	-0.706359
13.095296	11.900000	13.067640	-0.707854	0.000000	-0.706359
13.095296	12.350000	13.067640	-0.707854	0.000000	-0.706359
13.095296	11.750000	13.067640	-0.707854	0.000000	-0.706359
-4.992533	11.600000	13.079189	0.000000	1.000000	0.000000
4.992533	11.600000	13.079189	0.000000	1.000000	0.000000
-4.959106	11.600000	13.092259	0.000000	1.000000	0.000000
4.959106	11.600000	13.092259	0.000000	1.000000	0.000000
-11.077184	11.600000	13.105400	0.000000	1.000000	0.000000
-10.921166	11.600000	13.105400	0.000000	1.000000	0.000000
-10.765150	11.600000	13.105400	0.000000	1.000000	0.000000
-10.609134	11.600000	13.105400	0.000000	1.000000	0.000000
-10.453116	11.600000	13.105400	0.000000	1.000000	0.000000
-10.297100	11.600000	13.105400	0.000000	1.000000	0.000000
-10.141084	11.600000	13.105400	0.000000	1.000000	0.000000
-9.985066	11.600000	13.105400	0.000000	1.000000	0.000000
-9.829050	11.600000	13.105400	0.000000	1.000000	0.000000
-9.673034	11.600000	13.105400	0.000000	1.000000	0.000000
-9.517016	11.600000	13.105400	0.000000	1.000000	0.000000
-9.361000	11.600000	13.105400	0.000000	1.000000	0.000000
-9.204984	11.600000	13.105400	0.000000	1.000000	0.000000
-9.048966	11.600000	13.105400	0.000000	1.000000	0.000000
-8.892950	11.600000	13.105400	0.000000	1.000000	0.000000
7.800833	11.600000	13.105400	0.000000	1.000000	0.000000
13.057296	11.600000	13.105400	-0.705805	0.000000	-0.708406
-8.580916	11.600000	13.105400	0.000000	1.000000	0.000000
-7.956850	11.600000	13.105400	0.000000	1.000000	0.000000
11.389216	11.600000	13.105400	0.000000	1.000000	0.000000
11.233200	11.600000	13.105400	0.000000	1.000000	0.000000
11.077184	11.600000	13.105400	0.000000	1.000000	0.000000
10.921166	11.600000	13.105400	0.000000	1.000000	0.000000
10.765150	11.600000	13.105400	0.000000	1.000000	0.000000
10.609134	11.600000	13.105400	0.000000	1.000000	0.000000
10.453116	11.600000	13.105400	0.000000	1.000000	0.000000
10.297100	11.600000	13.105400	0.000000	1.000000	0.000000
10.141084	11.600000	13.105400	0.000000	1.000000	0.000000
9.985066	11.600000	13.105400	0.000000	1.000000	0.000000
9.829050	11.600000	13.105400	0.000000	1.000000	0.000000
-13.057296	11.600000	13.105400	0.705805	0.000000	-0.708406
9.673034	11.600000	13.105400	0.000000	1.000000	0.000000
9.517016	11.600000	13.105400	0.000000	1.000000	0.000000
9.361000	11.600000	13.105400	0.000000	1.000000	0.000000
9.204984	11.600000	13.105400	0.000000	1.000000	0.000000
9.048966	11.600000	13.105400	0.000000	1.000000	0.000000
8.892950	11.600000	13.105400	0.000000	1.000000	0.000000
-8.736934	11.600000	13.105400	0.000000	1.000000	0.000000
8.736934	11.600000	13.105400	0.000000	1.000000	0.000000
8.580916	11.600000	13.105400	0.000000	1.000000	0.000000
8.424900	11.600000	13.105400	0.000000	1.000000	0.000000
8.268884	11.600000	13.105400	0.000000	1.000000	0.000000
8.112866	11.600000	13.105400	0.000000	1.000000	0.000000
7.956850	11.600000	13.105400	0.000000	1.000000	0.000000
7.644817	11.600000	13.105400	0.000000	1.000000	0.000000
7.488800	11.600000	13.105400	0.000000	1.000000	0.000000
7.332783	11.600000	13.105400	0.000000	1.000000	0.000000
7.176767	11.600000	13.105400	0.000000	1.000000	0.000000
7.020750	11.600000	13.105400	0.000000	1.000000	0.000000
6.864733	11.600000	13.105400	0.000000	1.000000	0.000000
6.552700	11.600000	13.105400	0.000000	1.000000	0.000000
6.396683	11.600000	13.105400	0.000000	1.000000	0.000000
6.240667	11.600000	13.105400	0.000000	1.000000	0.000000
6.084650	11.600000	13.105400	0.000000	1.000000	0.000000
5.928633	11.600000	13.105400	0.000000	1.000000	0.000000
5.772617	11.600000	13.105400	0.000000	1.000000	0.000000
5.616600	11.600000	13.105400	0.000000	1.000000	0.000000
5.460583	11.600000	13.105400	0.000000	1.000000	0.000000
5.304567	11.600000	13.105400	0.000000	1.000000	0.000000
5.148550	11.600000	13.105400	0.000000	1.000000	0.000000
4.992533	11.600000	13.105400	0.000000	1.000000	0.000000
-5.148550	11.600000	13.105400	0.000000	1.000000	0.000000
-5.304567	11.600000	13.105400	0.000000	1.000000	0.000000
-5.460583	11.600000	13.105400	0.000000	1.000000	0.000000
-5.616600	11.600000	13.105400	0.000000	1.000000	0.000000
