0.548203 0.071549 -0.559649
0.086788 -0.620749 -0.723480
0.612150 -0.530791 -0.489444
-0.197907 -0.561594 -0.753857
-0.265400 -0.549094 -0.158262
0.509669 -0.620749 -0.295956
-0.276314 0.547143 0.718632
-0.486182 0.467688 0.597099
-0.261192 0.607891 0.155355
-0.598029 0.622630 -0.200376
0.362458 0.622630 -0.337716
0.731259 0.180835 -0.278224
0.651231 0.351473 -0.434401
0.072926 0.283889 -0.778063
-0.275679 0.622630 -0.680558
-0.658102 0.209600 0.399967
-0.765982 0.427995 -0.100843
0.289666 -0.620749 0.376725
-0.430234 0.622630 0.023438
0.379276 0.622630 -0.289405
-0.150797 0.488415 -0.765371
-0.216869 0.264826 0.211571
0.218995 -0.415029 -0.228421
-0.251546 -0.455925 0.169132
0.121340 -0.163128 0.282504
0.225609 -0.620749 0.307468
0.341636 -0.620749 -0.188716
0.033728 -0.609176 -0.313088
0.214214 0.302223 -0.751871
-0.155879 -0.620749 -0.663253
-0.559949 -0.250582 0.527762
0.149711 0.622630 -0.707791
0.773866 -0.314515 0.100263
0.289490 0.239392 0.717073
-0.333603 0.622630 -0.549717
-0.069761 -0.073912 -0.305415
-0.280847 -0.620749 -0.349573
0.187805 0.622630 -0.554697
-0.280594 0.622630 0.158993
-0.116888 -0.383637 0.761567
0.744767 0.350103 0.229117
-0.768282 0.340175 -0.078221
-0.727835 -0.467436 -0.263771
0.768221 -0.586218 0.133492
-0.197168 0.605465 0.231273
0.249047 0.443074 -0.195706
-0.182765 -0.620749 0.640946
-0.677417 0.622630 -0.004310
-0.683022 0.622630 0.179709
0.142993 0.436034 -0.281972
-0.760157 0.491450 -0.135131
0.745688 -0.620749 -0.200967
-0.597721 -0.620749 0.331780
0.369207 -0.620749 0.626736
0.681593 0.518990 -0.384056
0.518598 -0.616205 -0.586105
0.523576 0.585208 0.572092
-0.635917 -0.620749 0.034763
-0.689347 -0.163978 -0.352999
-0.692297 0.493561 0.338096
-0.366310 0.615848 0.676669
-0.302768 0.124271 -0.717239
-0.114046 0.454197 -0.291082
-0.736904 0.287850 0.223745
-0.590385 -0.026364 0.493705
-0.278404 -0.620749 -0.336121
0.429369 0.383650 -0.654824
0.175391 0.457071 0.753226
0.218072 -0.472623 -0.750759
0.074756 0.286174 0.768396
0.337220 0.248420 -0.706867
-0.744249 0.231452 -0.207814
-0.292790 -0.515377 -0.090955
0.252183 0.349132 -0.740932
-0.768413 0.546921 0.066337
0.248844 -0.248844 -0.195996
0.664814 -0.012079 0.404850
0.074740 0.622630 0.465297
0.311892 -0.151018 0.037035
0.040013 -0.012490 -0.312538
-0.271743 -0.600829 0.135094
-0.412572 -0.620749 0.327491
0.346296 -0.620749 0.559548
0.652674 0.622630 0.321960
-0.192584 -0.142902 0.235102
-0.248906 0.335474 0.172903
-0.611385 0.591490 -0.477297
0.323133 0.622630 0.378777
0.064055 -0.613015 -0.778561
-0.444312 -0.620749 0.253748
-0.216147 0.354194 -0.748603
-0.491705 0.622630 -0.369071
0.771551 0.404077 0.113891
0.451055 0.622630 0.186495
0.773245 0.410142 0.103924
0.153079 -0.407954 -0.277269
-0.408730 0.622630 -0.013799
0.708213 -0.184941 -0.333862
0.553209 0.427919 0.545610
-0.736100 0.226244 -0.236099
0.227901 -0.245270 0.209951
-0.749068 0.622630 0.021240
-0.587289 0.054403 -0.506733
-0.062818 0.163181 0.297711
0.261854 -0.182443 -0.177416
-0.085460 0.384155 -0.776472
-0.165372 -0.311533 -0.762894
0.734533 0.229206 -0.270319
0.756334 0.527278 -0.198530
0.257944 -0.074310 -0.739272
-0.506837 -0.620749 -0.164486
0.348135 0.143904 -0.701480
0.350502 0.155270 -0.700172
0.493076 0.587588 -0.608913
-0.280824 0.570018 -0.125185
-0.292288 0.595032 -0.092831
-0.627863 -0.513789 0.444508
0.715740 0.517476 -0.315689
0.298895 0.559801 0.093727
-0.109188 0.205341 -0.772440
0.230730 0.622630 -0.508360
-0.277065 -0.620749 0.275488
-0.770895 -0.545698 0.022137
0.706955 0.332537 0.327334
-0.682447 -0.184666 0.355918
-0.442767 -0.487044 -0.638640
-0.445383 0.622630 -0.602324
0.144212 -0.273333 0.271839
-0.052750 0.135444 0.300408
-0.669404 0.622630 0.152396
0.007757 0.367924 0.305796
-0.765961 0.043791 -0.100967
0.405282 -0.620749 0.537477
0.337380 -0.620749 -0.371581
-0.684844 -0.620749 0.143219
0.594348 -0.107453 0.499801
0.296350 0.622630 0.625902
0.391476 -0.379464 -0.677526
-0.016368 -0.620749 0.515955
-0.330801 -0.620749 0.644134
-0.407492 -0.607722 -0.663474
0.684266 0.068562 -0.379219
-0.101317 -0.318833 -0.296959
-0.573376 -0.482944 -0.522302
-0.316838 -0.291785 0.701847
-0.534911 -0.487580 0.553553
0.244846 -0.337094 0.192140
-0.155557 0.622630 0.328010
0.514741 -0.149210 0.579988
0.102208 -0.005622 0.289677
0.353330 0.488525 -0.698609
-0.172907 0.368756 0.248880
0.738867 0.255265 0.249597
-0.540941 -0.272180 0.548164
-0.269680 0.417880 0.721380
-0.604570 0.491148 -0.486901
0.205640 0.549142 0.744776
0.312358 -0.045426 -0.717165
0.778504 -0.470398 -0.063786
-0.672579 -0.561618 0.373773
-0.201687 -0.410008 -0.752768
0.622679 0.102447 0.465077
-0.264368 -0.375006 -0.160385
-0.173610 -0.408409 -0.257952
0.480839 -0.088784 0.608740
-0.283765 0.464924 0.109315
-0.588471 -0.620749 0.032782
0.570258 -0.563189 0.526757
0.424305 0.622630 0.561894
0.012420 0.087589 0.771896
0.207040 -0.474334 0.744373
0.253177 0.381947 -0.740646
0.696950 -0.554887 0.346704
0.544079 0.622630 0.219561
0.612398 0.606976 0.479566
0.443874 -0.620749 0.215126
0.732823 0.071688 -0.274447
-0.736489 0.177964 0.225186
0.225917 -0.453051 -0.221499
0.157995 -0.593225 0.265412
-0.706086 0.082522 -0.316276
-0.120133 -0.356150 0.761016
0.321598 0.622630 -0.205225
0.403535 0.162835 -0.670861
0.469240 -0.128638 0.616970
0.048136 -0.344382 -0.311827
0.262441 0.335858 0.167013
0.560618 0.622630 -0.535156
-0.197071 -0.581259 -0.240934
0.054978 0.395186 0.769506
0.310162 -0.281649 0.708510
-0.665758 -0.074504 -0.395679
0.223081 -0.386362 -0.224335
0.358665 -0.269729 0.686096
0.586501 0.622630 0.259804
0.263597 -0.423346 -0.737363
-0.251207 -0.596071 -0.179180
-0.771384 0.302534 0.013421
0.287580 0.622630 0.461410
0.537009 0.622630 -0.020237
0.296427 0.370036 -0.111905
-0.660331 0.345727 -0.405499
0.304360 -0.564195 -0.082896
0.009197 -0.161393 0.305670
-0.445129 -0.414326 -0.636965
0.077681 0.083117 0.296250
0.187706 -0.378978 0.245107
0.771300 0.026798 0.115367
0.399703 -0.439789 -0.672979
-0.600096 0.397258 0.482838
-0.546766 0.335668 -0.552079
0.504621 -0.282303 0.589031
-0.101580 0.062410 -0.296889
-0.340880 0.026682 -0.700288
0.023718 0.622630 0.756020
0.263270 0.173137 0.165828
0.344334 -0.620749 -0.017118
0.313904 -0.206211 0.014038
-0.605365 0.615042 0.476216
0.736493 -0.620749 -0.054471
0.635751 0.304482 0.446654
0.528577 -0.620749 0.307561
-0.571648 -0.589504 0.514671
0.449419 -0.553670 -0.640598
0.219525 0.394781 0.218326
0.050204 -0.277569 -0.779339
-0.093117 -0.125186 -0.775171
-0.320060 0.622630 -0.253313
-0.615738 0.045465 0.461596
-0.203448 0.299780 -0.752261
-0.656057 -0.209540 -0.413232
0.201465 -0.373423 0.235472
0.745984 -0.620749 -0.125433
0.333736 0.474118 0.698745
0.300862 -0.432675 -0.095954
0.462890 -0.620749 -0.152511
-0.296442 -0.422084 0.067763
0.609234 -0.406956 0.483143
-0.252229 -0.620749 -0.560386
0.280164 -0.344627 -0.730501
-0.035478 0.040779 -0.312112
0.154844 -0.393495 -0.766282
-0.587808 -0.615450 -0.506153
-0.155140 -0.620749 -0.313371
-0.452204 -0.620749 0.617058
0.690035 -0.264229 -0.368780
-0.066266 0.465384 0.768344
-0.368358 0.622630 0.513397
-0.711729 0.027080 0.293089
-0.498956 0.622630 0.239342
0.187801 -0.601053 -0.759480
0.207914 0.494338 -0.753686
-0.221066 -0.620749 0.464415
-0.304192 -0.149310 0.017472
-0.468024 -0.620749 0.031151
-0.153036 0.247746 0.262794
-0.025069 -0.563486 0.303458
0.198806 0.063307 -0.756309
0.173253 0.622630 0.640349
0.117935 -0.049524 0.284092
-0.218279 -0.148766 -0.219726
-0.696060 -0.620749 -0.225761
-0.592104 -0.620749 0.328503
-0.408477 -0.597274 -0.662929
-0.762314 0.247125 0.112868
-0.305159 0.028088 -0.015995
0.127895 0.477141 0.761296
-0.747360 0.188104 0.187449
-0.522774 -0.300318 -0.573963
0.328075 -0.264668 0.701090
0.112008 0.569349 0.286856
0.734291 -0.018229 -0.270905
0.727774 -0.620749 0.064930
0.648309 0.026269 0.428955
0.256464 0.123377 0.730134
0.683459 -0.024436 -0.380679
-0.761200 0.547025 -0.128992
-0.210887 0.535347 0.740553
-0.105486 -0.337298 0.285509
0.065592 0.616046 -0.309053
0.780876 0.501315 -0.021550
-0.117207 -0.579591 0.761513
-0.303624 0.162754 -0.033533
0.159070 0.214147 -0.765564
-0.082293 -0.620749 0.567206
0.413103 -0.620749 0.518245
-0.165513 0.300370 -0.762870
-0.221389 0.622630 0.325539
-0.243907 -0.620749 -0.481319
-0.749533 -0.256448 0.179909
-0.520448 0.622630 -0.040204
-0.145972 0.257944 0.756626
0.243756 -0.502741 -0.203262
-0.477899 -0.081403 0.604148
0.306646 -0.329589 0.064800
-0.149309 -0.152905 0.265074
-0.759225 -0.090127 0.131052
0.270360 0.272154 -0.734561
-0.104967 -0.032938 0.285751
0.277398 -0.084151 -0.152714
0.258932 -0.620749 -0.700002
-0.220973 -0.357439 0.737647
0.772772 0.401521 0.106702
0.384049 -0.086218 0.672066
-0.303266 -0.352242 0.707468
0.065529 -0.620749 -0.340489
0.064872 0.119910 0.299682
0.033228 0.622630 -0.318812
-0.656707 -0.497501 0.402492
0.148150 0.340080 0.270003
0.476935 0.622630 -0.306025
0.005632 0.622630 -0.525258
0.380155 0.622630 0.636845
-0.664527 -0.620749 0.176089
0.292446 0.571995 -0.120443
-0.105394 -0.583396 0.285552
0.659395 -0.620749 -0.370619
-0.030712 0.622630 -0.426615
0.763175 0.249956 -0.172754
-0.174376 0.550158 -0.760636
-0.757288 -0.620749 -0.019059
-0.343915 -0.620749 -0.397598
-0.707249 -0.428367 -0.313470
-0.489769 0.103345 -0.603458
0.236708 0.491023 -0.210707
-0.391742 0.622630 -0.238824
-0.690886 0.215452 -0.350214
0.311739 0.237299 -0.717422
-0.479937 -0.620749 -0.146466
-0.200631 0.622630 0.595749
0.527227 0.622630 0.436132
0.422284 -0.620749 -0.212382
0.120881 -0.042781 0.282718
0.546948 -0.332357 -0.560770
0.302763 -0.404252 0.711575
-0.271541 0.208248 0.135527
0.684659 0.579129 -0.378507
-0.035965 0.237448 0.770046
0.568864 -0.036652 -0.537882
-0.215053 0.244066 0.213388
0.532349 0.517266 -0.573816
-0.137492 0.244784 -0.767631
0.313787 -0.315043 0.015371
0.708985 0.314083 -0.331998
0.027821 -0.327823 -0.313605
-0.258735 -0.175643 0.725914
0.641392 -0.530564 0.438704
-0.483098 -0.526465 -0.609420
0.298174 0.034436 0.096421
0.051486 0.622630 0.524819
-0.336184 -0.353173 0.693319
-0.375207 -0.179442 0.671752
-0.172823 -0.288281 0.751519
-0.176925 -0.277831 0.750338
-0.111702 -0.071925 0.762448
-0.629670 0.126490 -0.451526
0.642443 -0.184716 0.437223
-0.206633 -0.274190 0.741779
-0.074119 0.298786 -0.304247
-0.354888 0.037706 -0.692546
0.266454 0.295939 -0.170845
0.614035 -0.620749 0.301704
0.631975 -0.494551 0.451976
0.774457 0.132309 -0.106354
0.654156 0.317057 0.420715
0.414363 0.622630 0.036686
-0.181308 -0.363294 0.749075
-0.178723 0.622630 0.614033
0.141283 0.545990 0.273204
-0.171530 -0.159708 -0.259408
-0.562848 0.622630 -0.317113
-0.275416 -0.018659 -0.136783
0.686695 0.038148 0.365259
0.429110 0.060404 0.645443
0.247385 0.597536 0.188514
0.279973 0.582236 -0.147191
0.745213 -0.542022 -0.237133
0.109435 -0.620749 0.352254
0.669116 -0.041515 -0.406631
-0.169372 -0.620749 -0.314362
-0.705842 -0.149332 0.307301
0.204815 0.526995 -0.242601
0.715218 -0.037480 0.307386
-0.258045 -0.620749 0.265545
-0.171187 0.460774 0.751991
-0.588900 0.325781 -0.504931
0.323530 0.410826 -0.712537
0.350524 -0.620749 -0.424556
-0.626382 0.015466 0.446596
-0.119910 0.466909 0.761054
0.754452 -0.109839 0.195499
-0.742987 -0.348707 0.202629
0.145091 0.622630 0.344478
0.182314 0.622630 -0.273508
-0.488523 -0.093570 0.595007
0.135848 -0.310024 -0.769509
0.160425 -0.620749 0.358465
-0.655287 0.448267 -0.414626
-0.731621 0.278281 -0.251648
-0.770648 -0.356992 0.026535
-0.528475 -0.605424 -0.568868
0.200392 0.622630 0.320102
-0.000659 -0.620749 0.592048
0.214899 -0.479005 0.742108
0.122858 -0.137527 -0.291361
-0.407318 -0.412986 -0.663570
0.779917 -0.534663 0.029057
-0.222512 -0.414136 0.737204
0.320580 0.622630 0.460134
0.488353 0.622630 -0.387164
0.756047 -0.549373 -0.199526
0.069367 -0.371063 -0.308042
0.307972 -0.591701 -0.718982
0.644880 0.021830 -0.443352
0.315240 0.545046 -0.001236
0.310799 -0.620749 -0.244817
0.276253 0.054814 -0.155169
-0.206527 -0.274402 -0.751374
0.282852 0.622630 0.365502
0.364692 0.464838 0.682765
-0.687596 0.589328 -0.356167
0.725770 -0.132956 -0.291476
0.074907 -0.257673 0.296993
-0.136658 0.003652 -0.767773
-0.370450 -0.620749 -0.542378
-0.550799 0.622630 -0.487204
0.636129 0.622630 -0.444974
-0.268830 0.011641 0.141343
0.122445 0.622630 0.349287
0.578876 -0.365019 -0.526679
-0.564021 0.078214 0.523206
-0.768739 0.617583 -0.070096
0.778086 -0.617906 0.061667
0.365598 0.622630 0.542992
0.771945 -0.513774 -0.121138
-0.155762 -0.197963 -0.764527
-0.259088 0.591965 -0.167926
-0.371149 -0.620749 -0.415052
-0.569835 -0.605490 -0.526265
-0.553310 0.622630 0.433789
-0.704133 -0.144200 -0.320991
-0.387269 -0.369466 -0.674650
-0.023957 0.219274 -0.313119
0.312399 -0.437882 0.031237
-0.016791 -0.549417 0.771122
-0.747652 -0.565736 0.186438
0.310056 -0.580951 -0.061639
0.769280 0.345078 -0.136822
-0.304800 0.259630 -0.020091
0.534879 0.382181 -0.571555
0.075639 -0.576044 0.296797
-0.639998 -0.583591 -0.436970
-0.335358 0.487101 0.693776
0.653978 0.385247 0.420965
0.101293 0.429558 -0.775381
0.470768 -0.620749 0.476686
-0.243830 -0.454955 -0.189717
0.711922 -0.042385 -0.324908
-0.092923 0.185040 -0.775204
0.387834 0.622630 -0.262871
-0.249456 0.577585 0.729442
0.084631 0.581642 0.767841
-0.239594 0.622630 -0.350088
-0.125139 0.259900 0.760165
-0.604791 -0.072690 0.477025
0.137632 0.622630 -0.652047
0.136698 -0.404676 -0.284907
-0.598456 -0.021451 -0.494238
0.424008 -0.325693 -0.658628
-0.242340 -0.139411 -0.191845
-0.433321 -0.620749 -0.370944
0.738760 -0.200434 0.249966
0.016216 -0.620749 -0.591284
-0.472739 0.622630 0.453249
-0.290477 -0.305540 -0.099588
-0.519141 -0.620749 -0.426866
-0.742138 -0.083181 -0.215140
0.312930 0.321632 -0.034728
-0.305282 -0.620749 -0.275247
-0.522988 -0.385908 0.564208
0.779995 -0.288659 0.027661
0.292625 -0.157915 -0.725339
-0.762865 -0.108444 0.109625
-0.678276 -0.191525 -0.373030
-0.046082 -0.432789 -0.311184
-0.302078 -0.413608 0.041647
-0.307405 0.556550 0.705754
-0.709572 0.458620 -0.307861
-0.572591 -0.000822 -0.523181
-0.184204 0.310568 -0.250534
-0.749319 -0.404180 -0.190214
0.461805 0.423958 0.622245
-0.000281 -0.501453 -0.781614
-0.314529 0.231762 0.702803
-0.586428 -0.620749 0.216051
-0.736974 -0.279496 0.223501
-0.666210 0.622630 0.104672
0.039890 -0.620749 0.356734
-0.302867 -0.465165 -0.042186
-0.279444 -0.200714 0.118579
-0.035592 0.359227 -0.312102
0.424873 -0.055555 -0.658014
0.697343 0.185601 0.345993
-0.278218 0.281246 -0.130773
-0.459735 0.413679 0.617037
0.779358 0.500549 0.039001
-0.663535 0.536468 -0.399701
0.134145 -0.144562 -0.286098
0.610197 -0.620749 -0.152067
0.134397 -0.542010 -0.769756
0.767659 0.244896 -0.146360
0.194262 0.316097 -0.757619
0.370474 -0.603881 0.679569
0.778810 -0.465844 0.048773
0.027060 -0.620749 0.611070
0.250103 -0.515082 -0.194198
0.613980 0.005678 -0.486902
-0.339486 -0.620749 -0.278169
-0.223215 -0.620749 0.261243
0.201073 -0.475182 -0.245312
-0.301533 0.584096 -0.057434
-0.558567 -0.593344 0.529309
0.657395 0.311936 0.416150
-0.740608 0.084502 -0.220452
-0.528159 -0.288382 0.559586
0.381189 0.067000 0.673647
-0.084610 -0.222625 0.291871
-0.043838 0.622630 -0.741167
0.739797 0.452677 0.246366
-0.220428 -0.620749 0.617522
-0.412626 0.622630 0.597799
-0.536967 -0.504559 0.551715
0.260655 -0.611264 0.728927
0.294173 0.140424 0.107175
-0.584068 -0.620749 -0.368631
0.307871 -0.377312 -0.069795
-0.096152 0.522746 -0.774655
-0.734477 -0.244874 -0.241734
0.312865 0.130837 0.025906
0.618513 -0.620749 0.295253
-0.155301 -0.620749 -0.437880
-0.360322 -0.465643 -0.689544
0.314859 0.576434 0.003116
0.330113 -0.396889 0.700246
-0.587763 -0.620749 0.007523
-0.170165 0.622630 -0.372230
0.128996 0.347300 0.278934
-0.481684 0.214474 -0.610683
-0.021554 -0.553582 0.303765
0.306879 -0.554633 0.063933
-0.031008 0.501892 -0.779889
-0.045366 -0.233364 -0.779082
-0.597633 -0.161864 -0.495158
0.182716 -0.317767 0.248601
-0.294536 -0.434375 -0.720649
0.127734 -0.052956 -0.289087
-0.250141 0.013439 0.729244
0.120227 -0.235624 -0.292588
-0.335804 -0.561006 0.693529
0.654108 -0.187550 0.420782
0.699554 0.274141 -0.351558
0.728046 0.622630 -0.192316
0.376519 0.390642 -0.685793
-0.009305 0.401045 -0.781108
-0.489260 0.201475 -0.603913
-0.079634 -0.620749 0.678169
-0.616723 -0.234375 0.460209
-0.666713 0.622448 -0.393951
0.269472 0.435608 -0.734929
0.076748 0.479040 -0.306064
0.112876 0.395013 -0.296015
0.455985 -0.600660 -0.635939
-0.632680 0.390796 0.437719
0.303299 -0.521291 -0.086859
0.075939 -0.617754 -0.306281
0.620713 -0.620749 -0.047346
-0.506988 0.517158 -0.588071
0.570242 -0.441101 -0.536340
0.273905 0.549719 0.723528
0.642396 0.622630 0.067399
0.001400 -0.620749 -0.643954
0.180308 0.226722 -0.259852
0.622485 -0.620749 0.450243
0.117901 -0.620749 0.665132
0.023291 0.225783 0.771286
-0.597585 0.622630 0.318216
0.281443 0.622630 -0.176650
-0.441736 0.622630 0.502626
-0.721391 0.596207 -0.279328
-0.137404 -0.172030 0.270625
0.314292 0.622630 0.643842
0.292441 0.473184 0.110889
-0.697323 -0.586199 0.327868
0.307153 0.622630 0.301948
0.772811 -0.173417 -0.116041
-0.431938 -0.620749 -0.097362
0.028643 -0.548947 0.770985
-0.074167 0.494527 -0.304234
0.675857 0.089695 0.384869
-0.027706 0.012571 -0.780074
0.472339 -0.316125 0.614771
-0.276112 0.431875 -0.135291
-0.606460 0.326161 0.474673
-0.304640 -0.050109 -0.021921
-0.473310 -0.620749 -0.391516
0.171488 0.184457 -0.266027
-0.706930 -0.486581 0.304676
0.266403 0.010727 0.726636
0.287763 -0.052163 0.120920
-0.508152 0.622630 -0.546898
-0.500377 0.109883 -0.593978
-0.147188 0.241606 -0.275628
-0.112404 -0.125004 -0.291847
-0.242716 -0.172955 -0.191308
0.167149 0.617076 0.754626
0.078076 0.317221 -0.777774
0.644042 -0.040166 -0.444533
0.723501 0.365122 0.287389
-0.769299 -0.552993 0.050558
0.311720 0.622630 -0.070437
-0.278643 0.622630 0.259733
0.726039 0.030285 -0.290826
-0.583965 0.422955 -0.510453
-0.441526 0.622630 0.375205
-0.770937 0.560579 -0.030955
0.355305 0.622630 0.449367
-0.063507 -0.215636 -0.778064
-0.657223 0.622630 0.274207
-0.702181 -0.460804 0.316141
-0.488544 0.622630 0.094489
-0.214268 0.622630 0.295465
0.173752 -0.419507 0.254877
-0.067885 -0.620749 -0.577532
-0.057562 -0.590413 -0.778397
-0.013160 0.511731 -0.314064
-0.213269 -0.048047 -0.749432
-0.250899 0.291039 -0.179620
0.557126 -0.620749 0.524940
0.765120 0.039804 -0.161305
-0.269183 0.054067 -0.150148
0.567472 0.354323 0.529875
0.028608 0.622630 -0.329937
-0.231644 -0.387810 0.196797
0.694752 0.105085 -0.360246
0.536351 -0.088725 -0.570240
-0.585698 -0.502526 0.498949
0.715366 -0.134828 -0.316594
-0.658212 0.622630 -0.316363
-0.571897 -0.189436 0.514392
0.761728 -0.088082 -0.179809
0.648207 -0.620749 -0.219733
-0.135141 -0.620749 -0.666360
0.104502 -0.620749 -0.661746
-0.307802 0.622630 -0.500396
0.157833 0.600779 -0.275052
-0.770381 -0.258950 0.031291
0.675585 0.622630 0.141527
-0.581883 -0.434722 0.503218
-0.755424 0.490009 -0.162983
0.561981 0.622630 0.033239
0.707603 -0.620749 -0.250309
0.300588 -0.565682 -0.096976
0.337583 0.099967 -0.706717
-0.303744 -0.142618 0.022601
-0.608325 0.046428 0.472044
-0.037112 0.186823 0.302404
0.720914 -0.620749 -0.253517
0.708475 0.152246 -0.333229
-0.460671 -0.620749 0.539318
-0.109683 -0.028202 0.762791
-0.255855 -0.568316 0.727107
-0.018674 0.170668 0.771017
-0.753345 -0.007076 0.165655
-0.273146 -0.620749 -0.546323
-0.392037 0.233917 -0.672015
-0.750543 -0.483831 -0.185966
0.352918 -0.136970 0.689272
-0.390754 0.579887 0.663159
-0.303434 0.234405 0.026147
0.732519 -0.620749 0.148277
0.214821 0.253170 -0.232595
0.494386 0.201084 -0.607742
-0.475807 -0.620749 0.312978
-0.066977 0.286354 0.768304
0.314869 -0.601248 -0.012567
0.683840 0.484640 0.370425
0.524859 0.551677 -0.580510
-0.272352 -0.620749 -0.464675
0.410584 0.401913 0.657401
-0.621716 -0.620749 -0.370430
-0.123127 0.572907 0.277282
-0.209130 0.323906 -0.750624
-0.770312 -0.470876 0.032511
0.077812 0.622630 -0.328424
-0.502520 -0.620749 -0.134615
0.728160 0.469528 0.276140
-0.589624 -0.620749 0.176392
0.201043 -0.203268 0.746100
0.646606 -0.620749 -0.041484
-0.307161 0.622630 -0.113880
-0.611781 -0.327866 0.467173
-0.286721 0.283652 0.102973
-0.681698 -0.471420 0.357274
-0.618135 -0.620749 -0.071034
0.358651 0.622630 0.123425
0.710748 0.357843 0.318177
-0.666620 0.321806 0.384555
-0.328975 0.120202 -0.706384
-0.557245 0.622630 -0.043910
0.287560 0.336688 0.121356
-0.315086 0.133558 0.702573
0.218725 -0.620749 0.282809
-0.756649 -0.554049 -0.155775
-0.301583 -0.209220 0.047301
0.748050 0.317477 0.217721
-0.262683 0.282649 0.153226
-0.238048 0.073833 -0.197974
0.607261 0.622630 0.156861
-0.459786 0.339021 -0.626565
0.293398 -0.590028 0.108836
-0.554738 0.180876 0.533594
0.006407 -0.536852 0.305914
0.767989 -0.259000 -0.144419
-0.490713 -0.142066 0.593050
0.337341 -0.356383 0.697252
0.765025 0.391731 -0.161863
0.269398 0.303014 0.725395
0.423938 0.622630 0.092851
0.715953 0.260989 0.305611
0.250342 0.493073 -0.741462
0.718350 0.622630 0.260936
0.169033 0.243022 -0.267746
0.011741 0.304743 0.305447
-0.751955 0.272244 0.171501
-0.218897 -0.029486 -0.219109
0.475611 0.311281 0.612449
0.287789 -0.620749 -0.636290
-0.339720 0.156273 -0.700930
0.344301 -0.480600 -0.703599
-0.299961 0.356478 0.054629
-0.577952 -0.220849 0.507617
0.630215 0.602076 -0.464021
0.744847 -0.437797 0.228838
0.462059 0.169327 0.622065
-0.220770 0.424103 -0.217235
-0.468257 0.398582 -0.620555
-0.739409 -0.328955 0.215048
-0.251539 -0.620749 0.334381
-0.724834 -0.458282 -0.271015
-0.688441 0.096459 -0.354638
-0.751382 0.298679 0.173489
-0.014128 -0.412345 -0.313979
-0.143981 -0.197990 -0.766528
-0.077414 -0.018088 -0.777283
-0.771120 0.593259 0.018122
-0.289067 0.104967 -0.104853
-0.284693 0.449914 -0.724727
-0.481937 -0.477975 -0.610457
0.095695 0.622630 -0.460974
0.264149 0.014748 -0.737134
-0.741610 0.260843 -0.216975
0.405888 0.284146 0.659996
-0.174226 -0.620749 0.485173
0.251583 0.301978 -0.192084
-0.269572 -0.286979 0.139751
-0.610810 -0.386151 -0.478107
-0.031998 -0.495971 0.770268
0.208020 0.346474 -0.239396
0.184453 0.124390 -0.760444
0.283898 -0.244649 0.129208
0.282053 0.332002 0.133167
-0.304394 0.156907 -0.024731
0.103756 0.531807 -0.298827
-0.376407 -0.065448 0.671089
-0.300491 -0.508039 0.052650
0.099221 0.235815 0.766168
0.486773 0.596456 -0.614094
-0.605416 0.557821 0.476144
0.297205 0.218246 -0.109600
0.073660 -0.620749 -0.746873
0.313223 -0.299672 -0.031381
-0.612320 -0.151419 0.466413
-0.365528 0.181252 -0.686666
-0.643427 -0.620749 0.048917
0.138011 -0.620749 -0.310512
-0.105142 -0.238123 -0.773128
0.051494 -0.286983 -0.311534
-0.437747 0.622630 0.306741
-0.772144 0.330569 -0.000101
0.128141 -0.451300 0.761254
-0.768606 -0.324523 -0.072463
-0.413859 -0.620749 -0.165911
-0.092995 0.306208 -0.299189
-0.736698 -0.380672 0.224459
0.737226 0.006503 0.254254
0.478972 -0.418847 -0.619629
-0.278677 0.290290 0.120224
-0.034681 0.053365 -0.312181
0.688599 0.330841 -0.371379
-0.114127 0.622630 -0.295991
0.605682 -0.215907 -0.496683
0.344527 -0.620749 -0.280296
0.313263 -0.326822 0.021357
-0.296326 -0.024269 0.068194
0.174994 0.495855 -0.263572
-0.199613 -0.491865 -0.238392
-0.228817 -0.460225 -0.209189
-0.089519 0.566975 -0.775782
0.632492 -0.434503 -0.460812
-0.629265 -0.145084 0.442532
0.687815 -0.271573 0.363233
-0.315974 0.622630 -0.006689
0.195667 -0.620749 0.425281
-0.515261 -0.620749 0.019026
-0.629172 -0.320334 0.442664
0.755568 -0.365612 0.191624
-0.171377 0.163438 -0.259516
-0.662762 0.622630 -0.248658
0.778627 -0.408258 -0.061595
-0.638062 0.501205 0.430133
0.591185 0.622630 0.195576
0.684278 -0.157859 0.369632
0.279400 -0.556381 -0.730817
0.446317 -0.620749 -0.306665
-0.266347 -0.134990 0.722761
-0.289600 0.362071 0.713129
-0.024484 0.396397 0.770690
0.054136 0.563781 0.769554
0.766871 -0.606573 0.141434
0.058680 0.001079 0.301340
-0.502065 -0.620749 0.372296
0.128884 0.327628 -0.288551
-0.285324 0.470997 0.105971
-0.236287 -0.620749 -0.628131
-0.474027 -0.620749 -0.183531
-0.077011 0.622630 -0.575510
-0.767672 0.197487 0.079523
-0.320698 -0.620749 -0.276270
-0.105627 -0.620749 0.762271
-0.466291 0.194270 -0.621949
0.301463 -0.620749 0.213058
0.239770 -0.017226 0.734943
0.544106 -0.620749 -0.334630
-0.063832 0.622630 0.484611
0.019822 0.583215 -0.314305
-0.738486 -0.554884 0.218252
-0.664351 -0.620749 -0.116865
0.744253 -0.209843 0.230901
-0.745792 -0.006164 -0.202458
0.363279 0.064241 -0.693110
0.256468 0.622630 -0.387705
0.231239 0.231016 -0.216177
0.094541 0.169554 -0.776528
0.071927 0.432853 0.297791
0.196614 -0.184141 -0.756941
-0.663876 0.622630 0.304357
0.173375 0.408024 -0.763133
0.309720 -0.518204 0.053331
0.049759 -0.054079 -0.779364
-0.290291 -0.043200 0.090718
-0.541460 0.408325 -0.557265
0.764653 0.342393 0.154489
-0.217135 -0.620749 -0.442493
0.251774 -0.620749 0.359167
0.746650 -0.139645 -0.232145
-0.751276 0.184655 -0.183422
0.222035 0.350471 0.215816
0.552022 0.559526 0.546671
-0.076285 0.304583 -0.777346
-0.213865 -0.616914 0.739695
-0.277843 -0.620749 0.339492
0.588263 -0.537056 0.506609
-0.729151 -0.179744 -0.260220
-0.621272 0.461805 -0.463362
-0.645977 -0.600661 0.418980
-0.757192 0.499401 0.143017
-0.126655 -0.576634 -0.769472
0.069245 -0.081787 -0.778270
-0.025294 0.330742 0.770645
0.744462 -0.262960 0.230176
0.511097 0.514659 0.583244
0.129333 -0.172504 -0.288341
0.465168 0.622630 0.031950
-0.549447 -0.478646 -0.549079
0.772173 0.132575 -0.119794
-0.471311 -0.620749 0.522748
0.110583 -0.620749 -0.491296
-0.389330 -0.510469 0.663946
-0.408194 0.394166 -0.663085
-0.171911 0.144597 -0.259142
0.160053 -0.263036 -0.765397
0.542784 0.582005 -0.564491
0.092684 -0.015076 -0.776843
-0.243636 -0.620749 0.366204
-0.618878 -0.620749 -0.412671
-0.748355 -0.217750 0.183998
-0.368234 0.622630 0.085856
-0.702544 -0.050614 -0.324828
-0.468287 0.622630 -0.347868
0.272094 -0.620749 -0.257392
0.453324 0.520450 0.628263
0.028066 -0.312473 -0.780582
0.705475 0.586530 -0.340471
-0.754763 -0.476390 -0.166875
-0.113050 0.506137 -0.771784
0.210139 -0.620749 -0.586082
0.282917 -0.274738 -0.140877
-0.299198 0.279812 0.057476
-0.158475 -0.204658 0.754501
-0.081857 -0.562223 -0.302174
-0.089252 -0.620749 -0.374285
-0.026051 0.280914 -0.780167
0.290953 -0.454029 -0.123645
0.777059 -0.568678 -0.089515
0.310194 0.149439 -0.061124
0.779094 0.258242 -0.053276
0.500335 0.622630 0.445577
0.245155 -0.182661 0.733392
0.297969 0.105097 0.097184
-0.745772 -0.395608 -0.202527
-0.444087 0.622630 -0.446267
0.285477 -0.386033 -0.135387
-0.772110 0.206741 0.000501
-0.731856 -0.446441 -0.250832
-0.224150 0.622630 -0.543305
0.777302 -0.482085 -0.085189
-0.189470 -0.620749 0.656539
0.018500 0.037555 -0.781120
0.482617 0.541809 0.607478
0.216796 -0.124737 -0.230620
0.301017 0.620183 -0.095374
-0.185088 0.099015 0.240350
-0.301881 0.287907 -0.053453
0.364736 -0.362316 0.682740
0.081258 0.599464 0.295291
0.083998 -0.341926 -0.304121
-0.492829 -0.230938 -0.600723
-0.681613 -0.327644 -0.366992
-0.100024 0.583022 0.287741
-0.144887 -0.620749 0.300482
-0.332511 0.622630 -0.146221
0.359313 -0.605003 -0.695302
-0.038763 -0.548681 0.302260
0.779687 -0.579246 -0.042718
0.424204 -0.620749 0.070191
0.746307 0.622630 -0.163702
0.041784 -0.131395 0.770247
0.332205 -0.448357 0.699380
0.579007 0.416589 0.516967
-0.019554 -0.590650 0.770967
0.262878 0.344811 0.166388
0.742026 -0.443471 0.238632
0.311928 0.592862 -0.046182
-0.181417 -0.573605 0.749043
0.592997 0.055311 -0.510876
-0.256442 0.622630 0.334702
-0.407363 0.106671 0.653980
-0.570539 -0.620749 -0.331977
-0.636505 -0.408224 0.432329
0.077721 0.593557 0.296239
-0.340890 -0.033339 -0.700283
0.086199 -0.620749 -0.761156
0.638814 -0.620749 -0.212278
0.501083 -0.037629 0.592193
0.275075 0.471866 0.148130
0.238571 0.250274 0.199280
0.099507 0.586642 0.290401
-0.741990 0.448509 0.206091
0.742658 0.318168 -0.246000
-0.572113 -0.074678 0.514150
-0.729266 -0.411368 0.250256
-0.071535 -0.620749 0.555123
-0.287460 -0.243146 0.101285
-0.753011 -0.035920 -0.177189
0.767687 0.546879 -0.146195
-0.358072 -0.620749 0.134876
-0.750233 -0.308560 0.177478
0.541050 0.180416 0.556476
-0.477101 -0.620749 0.411739
0.636569 0.010174 0.445501
0.163065 0.348049 -0.271925
-0.233247 0.622630 0.458855
0.443908 -0.603805 0.634944
-0.389562 -0.620749 0.075911
-0.272367 -0.565371 0.133756
0.225464 -0.466357 0.212387
-0.656470 -0.327064 0.402921
-0.575484 0.002194 -0.519943
0.442043 -0.019093 0.636267
-0.301990 -0.157834 0.042642
-0.702253 -0.231082 -0.325531
0.279277 0.341468 -0.148683
-0.421647 0.297896 0.644061
0.149753 -0.048126 0.269255
0.676241 0.270669 0.384174
0.218125 -0.194183 0.219727
-0.192050 -0.139512 -0.755545
-0.287914 -0.150084 -0.723392
0.017739 0.569830 -0.314487
0.298368 0.242574 -0.105260
0.618641 -0.620749 0.398008
0.575401 -0.268963 -0.530566
-0.289912 0.392364 0.713000
0.507433 0.608831 -0.596083
0.421214 -0.620749 -0.312041
0.155743 0.488210 0.266462
0.219118 0.470119 0.740893
0.644703 0.622630 -0.063550
-0.393450 0.622630 0.245602
-0.004999 0.085507 0.305213
-0.630657 -0.620749 -0.121534
0.294151 -0.302432 -0.116786
-0.344172 -0.269119 0.688905
-0.764853 0.419119 -0.107489
0.086186 0.415859 -0.303535
0.563399 -0.620749 -0.315898
-0.368580 -0.240850 -0.684979
-0.728714 0.556066 0.252083
-0.320066 0.425831 -0.710075
-0.141688 0.622630 0.394653
-0.667370 -0.535234 0.383198
0.615635 0.449791 -0.484570
0.689797 0.622630 -0.158976
-0.770299 -0.568265 0.032750
0.278323 0.411571 -0.731263
0.692696 -0.005648 0.354402
-0.262129 0.342205 -0.734073
0.606611 0.149869 -0.495642
0.597411 0.569294 -0.505938
-0.304847 0.154092 -0.019555
-0.166748 0.316830 0.753096
-0.623958 0.622630 -0.052734
0.569154 -0.586127 -0.537557
0.204533 -0.086422 -0.242883
-0.224029 -0.373960 -0.213976
0.306186 0.146577 -0.076083
-0.334280 0.118771 0.694371
-0.241787 -0.512534 -0.741216
0.239309 -0.570585 -0.208107
-0.176743 -0.620749 -0.405176
-0.696564 -0.170559 -0.339265
0.631068 -0.248288 -0.462818
0.408728 0.622630 0.431448
0.780209 -0.462280 -0.033412
-0.131766 -0.440954 0.273254
0.083257 -0.077320 -0.777483
0.168060 -0.620749 -0.494377
0.659094 0.347033 -0.423320
-0.521851 -0.620749 -0.453970
0.168432 0.622630 -0.402504
-0.264125 -0.084187 0.151167
0.781053 0.402196 0.008832
0.291651 0.261944 0.716178
-0.738646 0.077294 -0.227261
-0.238120 0.622630 0.599982
0.333921 0.622630 0.389187
0.741896 -0.620749 0.176825
-0.471060 -0.268479 -0.618566
-0.571348 0.089601 0.515007
-0.209625 -0.116047 0.218816
-0.125016 0.087997 -0.769751
-0.186026 -0.220308 0.239694
-0.771974 0.228790 0.002921
0.722078 0.164712 0.290824
0.094494 -0.403353 0.766971
-0.741701 0.622630 -0.157051
-0.322383 0.622630 0.014475
-0.705921 -0.024947 -0.316676
0.588557 -0.620749 -0.179228
-0.212908 0.622630 -0.478075
0.310971 0.344201 -0.717740
0.039820 -0.366335 0.770358
0.198751 0.619720 -0.246937
-0.431189 -0.182396 0.637291
-0.679724 0.101046 -0.370410
-0.526303 -0.405824 0.561245
-0.700781 -0.609691 -0.329084
-0.289122 0.043659 -0.104645
0.185860 0.002605 0.246399
0.553584 0.301127 -0.554840
-0.736700 -0.407560 0.224453
-0.711794 0.241389 -0.302497
-0.275580 0.528231 -0.136432
-0.336677 0.622630 -0.025655
0.693931 0.622630 -0.199410
-0.019353 -0.536739 0.770979
-0.360966 -0.620749 -0.300769
0.205486 -0.620749 -0.296956
-0.261825 -0.227833 -0.734199
-0.603310 0.539799 0.479112
0.041657 0.303825 0.770255
-0.615277 -0.231105 0.462246
0.149792 0.190576 0.269237
0.477370 0.384596 -0.620765
0.776467 0.069928 0.084956
0.087491 0.430967 0.767681
0.526745 -0.286462 -0.578825
0.747181 0.622548 0.220736
-0.137765 0.622630 -0.661421
-0.113853 -0.620749 -0.524624
0.584980 0.514084 -0.519847
0.504819 0.622630 0.160038
0.288803 0.571205 0.717357
-0.162565 -0.134888 0.256121
-0.256489 -0.379120 -0.171637
-0.741706 0.617343 0.207076
0.634939 0.622630 0.062742
0.435447 0.124677 0.640947
0.247353 -0.620749 -0.661950
-0.305996 -0.296034 -0.003138
-0.736119 -0.465139 0.226468
-0.149605 -0.543404 0.264936
-0.143659 0.622630 -0.669992
-0.211180 -0.620749 -0.585359
-0.736203 0.455546 0.226177
0.243693 -0.450063 0.193787
-0.088199 0.488360 -0.776006
0.313038 0.622630 0.266441
-0.559783 -0.620749 -0.398360
-0.269903 -0.280961 0.139041
0.048272 -0.620749 -0.461513
-0.044721 -0.620749 0.588989
-0.331925 -0.161651 0.695597
-0.127791 0.597306 -0.284672
-0.540111 -0.298492 -0.558470
0.290217 -0.202370 0.115658
0.188358 0.545321 0.244650
-0.717937 -0.053764 -0.287667
-0.104474 -0.067508 0.763677
-0.014823 -0.515143 -0.780798
-0.091430 0.622630 -0.327450
0.778675 0.480672 0.051175
-0.483467 -0.157196 -0.609090
0.507571 0.408337 -0.595959
-0.097839 0.114658 0.764804
0.113351 -0.142202 0.763767
0.615952 -0.465632 0.474557
-0.441097 0.591154 0.630261
-0.770911 -0.494411 -0.031413
-0.337251 0.622630 -0.543707
-0.037804 0.372178 -0.311908
0.306901 0.148283 0.063850
-0.148107 0.622630 0.310154
-0.661374 0.092496 -0.403611
0.581922 -0.568553 -0.523269
0.104129 -0.620749 -0.537875
-0.298396 -0.583583 -0.070033
0.414847 -0.620749 -0.143902
-0.087083 -0.478523 -0.776196
0.082650 -0.074700 -0.304483
-0.260027 0.622630 0.721649
0.640001 0.359057 0.440664
0.266158 -0.615275 -0.171268
0.677224 0.325091 -0.391961
0.170607 -0.437857 0.257080
-0.260456 -0.467563 -0.165971
0.004241 0.622630 0.465430
-0.067341 0.475921 0.296499
-0.752583 -0.162433 -0.178884
0.780914 -0.582193 0.011304
0.554824 0.622630 0.351372
-0.030933 0.533764 -0.779893
-0.014335 0.622630 0.388990
0.062087 0.622630 0.407888
-0.226332 -0.185561 0.736104
0.580816 -0.443179 0.514943
0.563672 -0.154764 -0.543691
0.726858 -0.249721 0.279284
-0.200629 -0.002379 -0.237377
-0.717633 -0.605823 -0.288399
0.662302 -0.458167 0.409233
-0.452948 -0.338076 -0.631417
0.780095 -0.301838 -0.035448
0.178177 -0.153102 0.251779
0.154025 0.096961 0.267263
0.307566 -0.296522 -0.070931
-0.188339 -0.620749 0.720314
-0.027941 -0.620749 -0.367679
0.696345 0.541750 -0.357364
0.618472 0.622630 0.354390
0.127257 0.622630 0.417306
-0.064217 -0.235016 0.297336
-0.555830 0.250558 0.532371
-0.620944 0.128706 0.454260
-0.732501 -0.484789 -0.248592
0.248910 -0.620749 0.468406
0.308608 0.504383 0.057479
-0.732358 -0.620749 0.114793
0.172476 -0.009748 0.753721
0.540539 -0.255695 0.556933
0.719808 -0.147973 0.296305
-0.742318 0.450231 -0.214515
-0.270777 -0.472950 -0.146731
0.642592 0.126849 -0.446577
0.277052 -0.557296 0.722225
-0.246165 0.087524 0.730390
-0.429883 0.622630 0.461174
0.399914 -0.620749 -0.177053
0.109610 -0.211589 -0.773967
-0.103180 -0.620749 -0.486773
-0.764350 -0.265481 -0.110449
-0.333255 -0.019813 -0.704503
0.448825 -0.317658 0.631455
-0.257318 0.437103 -0.170454
-0.261905 0.202224 -0.734166
0.104696 0.622630 -0.521570
0.070938 -0.297371 0.768610
-0.444874 -0.093467 0.627581
0.184090 -0.300258 -0.257203
-0.652271 0.041551 -0.419673
-0.460714 0.079647 -0.625907
-0.247335 0.622630 0.383099
0.291481 0.291400 -0.725813
0.748419 -0.521598 -0.226006
-0.179311 -0.620749 -0.683538
0.725758 0.558001 0.281939
-0.187183 0.380481 0.747382
-0.233943 0.007097 0.733911
0.101792 -0.412432 -0.775296
-0.635212 0.622630 -0.307582
0.568597 -0.620749 -0.088722
-0.637653 -0.620749 0.383362
0.315630 -0.197530 0.706245
0.769390 0.209839 -0.136175
-0.488446 0.398808 0.595076
0.675669 0.009618 -0.394774
0.312547 0.465620 0.029547
-0.757818 -0.090943 -0.148896
-0.731060 0.106143 0.244028
0.256179 0.516178 0.730216
0.430815 -0.453388 -0.653799
-0.365304 -0.197429 0.677225
0.764707 -0.010512 -0.163734
-0.667562 -0.577804 0.382851
-0.064684 0.607747 -0.777997
-0.203813 -0.168225 0.742591
-0.423823 0.622630 0.549129
0.528282 -0.180340 0.567886
-0.124095 -0.452095 0.760343
-0.097429 -0.170635 -0.774438
-0.251649 -0.620749 -0.270504
-0.540859 -0.620749 0.454095
0.001954 0.211061 0.305822
-0.584177 0.197379 -0.510216
-0.305928 0.293003 -0.007195
0.474216 0.342899 0.613439
0.166743 0.622630 0.475060
-0.132875 0.453324 0.758851
-0.215525 0.622630 -0.555983
0.259774 0.007214 0.170821
0.301535 0.366541 0.083875
0.655631 -0.322303 0.418636
-0.148076 0.622630 -0.626776
0.053408 -0.620749 0.681632
0.715498 0.622630 -0.118648
0.388844 -0.483883 0.669416
0.200772 -0.172737 -0.755743
-0.023532 0.477506 -0.780309
0.765484 0.105101 -0.159164
-0.152627 0.160231 -0.765060
0.666066 0.622630 0.246286
0.692861 -0.181005 0.354103
0.133730 0.206472 -0.286291
0.315204 -0.575972 -0.000829
0.307297 0.141604 0.062371
0.644077 0.121569 -0.444484
0.292607 -0.362925 -0.725346
-0.239323 -0.083275 -0.196153
0.397722 0.010219 -0.674074
0.266992 -0.306997 0.160513
-0.450895 0.485922 0.623309
0.193412 -0.620749 -0.728510
0.551966 0.074973 0.546721
-0.378649 0.622630 0.449654
0.344936 0.213032 -0.703248
0.422056 -0.434547 -0.660013
-0.151608 -0.620749 0.294851
-0.040492 0.276389 0.769791
0.776581 -0.212034 -0.093849
-0.728998 -0.528559 0.251187
-0.470167 -0.620749 0.489687
-0.124575 -0.620749 0.387239
-0.714259 0.464835 -0.296546
0.565942 0.478160 0.531587
-0.077594 -0.153463 -0.777272
0.253737 0.519926 -0.740484
-0.357211 -0.397659 -0.691262
-0.314341 -0.138553 0.702881
0.546403 -0.448565 -0.561257
-0.054824 0.590323 -0.778551
-0.717375 -0.126306 -0.289023
0.024607 -0.439055 0.304321
-0.468949 -0.365051 -0.620064
0.219454 0.420693 -0.750361
-0.697375 0.569259 0.327742
-0.503758 0.102836 -0.590957
0.656529 0.100838 -0.426935
0.586474 -0.406743 0.508612
0.180601 -0.430310 0.751990
0.717986 -0.620749 0.229832
0.166156 -0.372541 -0.269761
0.314299 -0.377171 -0.716361
-0.476124 0.622630 0.463936
-0.638667 0.622630 -0.032492
0.087782 0.383042 0.767664
-0.091387 0.622630 0.439230
-0.168101 -0.541142 -0.762430
0.289902 0.220837 0.116334
0.774881 0.475301 0.094290
0.424023 0.622630 0.137480
-0.064198 -0.344126 -0.306905
-0.575037 0.508272 0.510878
0.042193 -0.314044 -0.312347
-0.524664 -0.620749 -0.148116
0.376824 -0.303153 0.676059
0.274142 0.164569 -0.159696
-0.171508 -0.370542 0.249859
0.708723 -0.470251 -0.332631
-0.692679 -0.620749 0.161421
-0.029895 -0.031334 0.303035
-0.404394 -0.620749 0.584779
-0.061461 0.622630 -0.465580
0.684021 -0.512967 -0.379662
0.264830 0.040282 -0.736852
0.764020 0.125042 -0.167782
0.485863 0.358273 -0.614739
-0.376859 0.050556 0.670839
-0.290161 0.622630 0.323749
-0.735760 0.622630 -0.152084
0.577728 -0.620749 -0.243182
-0.676590 0.276361 0.366516
-0.427194 -0.620749 0.361061
-0.712995 0.096591 -0.299598
-0.728083 -0.406932 0.253607
-0.059372 0.288921 0.768731
-0.214389 -0.620749 -0.384591
0.778983 0.519165 0.045688
-0.440030 0.622630 -0.450888
0.726741 0.622630 0.234019
-0.153069 -0.266500 -0.272335
-0.211960 -0.002965 -0.226045
0.067273 -0.493575 -0.778381
-0.555381 0.346699 -0.542438
0.518554 -0.071114 -0.586145
-0.761746 -0.134293 -0.125778
-0.469211 0.622630 0.500475
-0.356332 -0.180424 0.682184
0.759566 0.065073 -0.187312
0.301266 0.053209 0.084880
0.080325 -0.499426 0.295541
-0.269091 -0.308200 -0.150346
-0.041633 0.267301 0.302008
-0.608236 -0.560437 -0.481735
0.626810 -0.124341 0.459255
0.681972 -0.533410 -0.383369
-0.615171 -0.423149 -0.471960
0.421282 -0.045586 0.650998
0.694956 0.622630 -0.337962
0.383897 0.479639 0.672150
-0.636603 -0.109636 -0.441755
0.761283 0.622630 -0.167131
-0.163324 -0.302956 -0.265155
0.765315 0.039676 -0.160161
-0.359874 0.622630 0.593061
-0.109402 -0.489638 0.762839
0.592582 -0.620749 0.306712
-0.407844 0.622630 -0.024772
-0.279975 0.196049 -0.726681
-0.771647 -0.211706 0.008740
0.627168 0.563525 -0.468316
-0.609868 0.122338 0.469869
-0.305504 -0.188868 0.002477
-0.755967 -0.092244 0.150222
-0.679787 -0.556191 0.360731
0.461801 0.416385 0.622248
-0.598637 -0.619334 0.484470
-0.011750 0.446072 -0.314188
-0.559572 0.234599 -0.537749
0.280136 0.141805 0.137277
-0.166851 -0.472957 -0.762643
0.171378 -0.207000 0.256540
0.776827 0.137207 0.082838
0.704541 0.198196 -0.342534
0.443125 -0.423106 -0.645064
0.746946 0.152188 -0.231118
0.562901 0.413086 -0.544555
-0.664745 -0.620749 -0.375157
0.310529 -0.507809 -0.059873
0.192671 -0.620749 -0.411627
-0.303194 0.110630 0.028881
-0.199705 0.622630 -0.601336
0.163601 0.614334 0.261985
-0.089611 0.153182 -0.775766
0.776797 -0.545578 0.083015
-0.205929 -0.317364 -0.232076
0.765269 0.079264 0.150867
-0.298782 -0.620749 -0.295344
0.707384 -0.370603 -0.335864
0.140138 0.555160 0.273738
0.124158 0.230666 0.761931
0.136615 -0.401119 0.275381
-0.245367 -0.589313 0.177957
0.025738 -0.063195 0.304222
0.350329 -0.285654 0.690703
-0.607522 -0.620749 0.124066
-0.008293 -0.477801 -0.781164
0.328861 0.622630 0.013701
0.140569 -0.167338 0.759143
0.304205 0.411245 0.073910
-0.305108 -0.106310 0.007009
0.499473 -0.620749 -0.545663
-0.620347 0.182557 0.455101
0.778825 0.238224 0.048506
0.316066 0.538663 -0.715629
0.010147 -0.315450 -0.315151
-0.712039 0.042077 0.292341
0.225389 0.506026 -0.748651
0.372641 -0.620749 0.097843
-0.266072 0.622630 0.314036
-0.575178 -0.498788 -0.520286
-0.298055 0.616342 0.061742
-0.154108 0.040773 -0.764808
0.566467 -0.620749 -0.265055
-0.310139 -0.288690 -0.714186
-0.752260 -0.465226 -0.180007
-0.102694 -0.274726 0.763979
-0.206503 0.622630 0.680308
-0.702327 -0.051418 -0.325352
0.624362 0.622630 -0.055368
-0.289049 -0.297602 0.095354
0.329736 0.622630 -0.408737
0.339517 0.622630 0.157914
0.748763 0.451539 0.215245
-0.184527 0.472312 0.240743
0.295660 0.622630 0.535457
-0.404321 0.622630 -0.210387
0.141316 -0.620749 -0.582968
0.315373 -0.180637 -0.006807
-0.136622 -0.620749 0.346239
0.298188 -0.110810 -0.105930
0.160543 0.004260 -0.765314
0.703200 -0.616437 -0.344960
-0.271941 -0.620749 -0.374600
0.192193 0.171227 -0.758215
-0.167508 -0.432136 -0.762531
-0.770084 -0.488855 -0.046150
0.336154 0.622630 -0.039822
-0.108391 0.241757 -0.772576
-0.291173 0.524419 0.087427
-0.434026 -0.243576 -0.644843
-0.637935 -0.003444 -0.439877
0.746821 0.384818 -0.231552
-0.467627 -0.618605 -0.621002
-0.288014 0.275475 -0.723351
0.710931 0.188865 -0.327300
0.274165 -0.213794 0.150081
-0.760161 0.061872 0.125542
-0.597100 0.538478 -0.495755
0.597881 0.392259 0.495847
0.040353 -0.419978 -0.312508
-0.240583 0.622630 0.447501
0.263429 -0.570900 -0.175165
0.333233 -0.264682 -0.708518
-0.240969 0.116782 -0.193802
0.235003 0.622630 -0.707224
-0.177279 -0.559444 -0.255383
0.523134 -0.152794 0.572487
-0.727489 0.248402 -0.264606
0.314144 0.133126 -0.020852
-0.222071 0.622630 0.711380
0.259991 0.622630 -0.296829
0.016494 -0.471230 0.305031
-0.768234 0.334715 -0.079077
-0.695943 0.467471 0.331201
0.657739 -0.005068 -0.425230
-0.380591 0.120733 -0.678341
-0.465916 -0.005747 0.612651
0.746065 -0.271303 -0.234174
0.160281 0.622630 0.700641
-0.252490 0.049862 -0.177349
-0.733351 0.220081 0.236076
0.655010 -0.620749 -0.425529
0.578274 0.607902 -0.527351
0.200794 0.622630 -0.637289
0.089264 0.622630 0.505850
0.380687 -0.573034 -0.683489
-0.294482 -0.494424 0.075079
-0.246707 -0.104332 -0.185608
-0.693697 -0.077137 -0.345128
-0.181975 0.284857 0.748883
0.639087 -0.620749 0.022006
0.075926 0.419545 -0.306284
-0.643163 0.373659 -0.432510
0.261301 0.474012 -0.178205
-0.512591 -0.315248 -0.583064
0.222984 -0.039158 -0.224432
0.300700 0.417472 0.086993
-0.419034 -0.066661 0.645915
0.494361 -0.477265 -0.607764
-0.769161 -0.399831 0.053009
0.778531 -0.224337 -0.063297
0.426645 -0.147591 0.647192
0.518487 0.622630 0.005004
0.261476 0.033611 -0.177955
0.233829 0.307278 -0.746220
-0.536944 -0.165432 0.551736
-0.352028 -0.060612 0.684563
0.777190 -0.258515 0.077622
0.729820 -0.120027 -0.281699
-0.667449 -0.378360 -0.392621
-0.299406 -0.469184 0.056700
-0.675314 0.317866 -0.378390
0.229088 0.058894 0.738021
0.227789 -0.448426 0.210062
0.273686 -0.535184 0.723619
0.268998 0.066470 -0.735126
-0.485113 -0.188716 0.598055
-0.754125 0.192214 0.161066
0.779895 0.530940 -0.039006
-0.643591 -0.620749 -0.192203
-0.299312 -0.296824 0.057053
-0.143522 -0.446566 0.267772
0.401956 0.242456 0.662169
-0.272731 -0.528542 -0.142540
-0.166880 0.622630 -0.494936
-0.260702 -0.616454 -0.165621
0.678171 0.071218 -0.390248
-0.515578 -0.439540 0.570829
0.177204 -0.227614 0.252460
-0.151048 -0.570852 -0.273750
-0.179831 -0.345537 -0.759065
-0.685751 -0.462950 -0.359504
0.498647 -0.592357 -0.603935
-0.365764 -0.620749 -0.147112
0.434951 0.622630 0.347159
-0.759091 -0.317347 -0.141404
-0.671904 0.587894 -0.384560
-0.385250 0.622630 0.299297
-0.769315 0.322638 -0.059837
0.014822 -0.051555 0.771762
0.386614 0.608684 -0.680213
0.099770 0.335933 -0.775639
-0.316593 0.622630 -0.232692
0.277928 -0.150895 0.142011
-0.359273 0.254863 -0.690123
0.552424 0.622630 -0.197305
0.192936 -0.537646 -0.758001
0.748378 -0.226718 0.216583
0.686773 0.119081 -0.374683
-0.349211 -0.421349 0.686119
0.314147 -0.078732 -0.020817
-0.474766 0.164307 0.606371
-0.501085 -0.609890 0.583781
-0.082252 0.605283 -0.302068
0.290911 -0.495818 0.114169
-0.221990 -0.603366 -0.746919
-0.162828 0.416173 -0.265502
-0.424194 -0.182279 -0.651819
-0.096208 -0.094387 0.765081
-0.365062 -0.164425 0.677359
0.062957 0.006882 -0.309760
0.137107 0.622630 -0.329984
-0.121840 0.622630 -0.726241
0.293100 -0.571908 0.715577
-0.106415 0.622630 0.756819
0.488728 0.622630 0.063523
-0.405110 -0.620749 0.045829
-0.745361 0.301205 -0.203952
0.777004 0.238138 0.080922
-0.660127 0.252264 0.396304
0.306367 0.035226 0.710082
0.420633 -0.600411 -0.661023
0.437071 -0.620749 0.132365
-0.089621 -0.454541 0.290529
-0.577765 -0.466379 -0.517391
0.510307 -0.620749 -0.317683
0.122607 0.271942 0.281913
0.488624 0.622630 -0.244552
0.279558 0.044489 -0.148082
-0.273292 0.432035 -0.141337
0.143254 -0.569319 0.758686
0.427210 -0.492886 0.646792
0.011890 0.587090 0.771926
0.746175 -0.344110 0.224229
0.362601 0.622630 -0.527620
0.461712 -0.020427 -0.631876
0.428571 -0.620749 -0.633134
-0.034623 -0.324311 0.302622
-0.017621 -0.142851 0.304109
-0.033416 -0.434764 -0.312292
0.357459 -0.620749 0.246957
-0.231991 0.622630 0.494284
0.298421 0.048455 -0.105061
-0.482976 -0.356148 -0.609529
-0.251983 0.622630 -0.327394
0.210678 -0.558119 0.743325
-0.575171 0.523298 0.510729
0.170879 0.622630 -0.394185
0.193749 0.042664 -0.250440
-0.185976 -0.026999 -0.249294
0.187070 0.564614 0.750126
-0.685721 0.014863 0.349995
-0.260769 -0.218776 0.155960
0.558079 -0.016590 0.540385
0.199031 -0.507447 0.237177
0.334165 0.622630 -0.043813
-0.392034 -0.620749 -0.382260
0.202351 -0.620749 0.653134
0.520253 0.540397 0.575062
0.610609 0.182337 -0.491169
0.580650 -0.620749 -0.162392
-0.265682 0.071920 0.148092
-0.765523 0.074447 0.093983
-0.749200 0.143555 -0.190629
-0.550100 0.036820 0.538783
-0.333345 -0.285677 0.694888
0.517386 0.442069 -0.587188
-0.202319 0.392016 -0.752586
-0.269656 0.576032 0.139570
0.653911 0.268584 0.421061
0.523902 0.622630 -0.389194
0.696012 -0.092588 -0.357967
-0.516467 -0.620749 0.268995
0.455984 0.261555 0.626375
0.127272 0.304623 0.761402
-0.705383 -0.468213 -0.317974
-0.128279 0.126086 0.759632
-0.662193 -0.270277 0.392565
0.272302 -0.568303 0.152929
-0.314404 -0.573451 0.702855
0.439032 -0.309903 -0.647968
0.126270 -0.596910 -0.289770
-0.582314 -0.620749 -0.202146
0.765945 -0.187467 0.146888
-0.457415 -0.620749 0.108936
-0.364961 -0.620749 -0.047157
-0.743411 -0.153744 0.201159
0.028861 -0.079114 0.303949
0.732796 -0.152525 -0.274514
-0.297114 -0.547005 0.065253
-0.755477 -0.356319 0.153107
0.142149 0.622630 -0.298088
0.378933 -0.245311 -0.684459
0.642109 -0.049972 -0.447258
0.311772 -0.036933 0.038397
0.300698 0.203475 0.086999
-0.264779 -0.002707 -0.159593
0.726819 0.622630 -0.226360
0.468907 -0.620749 0.343572
-0.754381 -0.602663 -0.169125
-0.320011 -0.620749 -0.526561
-0.025822 -0.620749 0.435803
0.669320 0.199308 -0.406262
0.133042 0.622630 0.597631
-0.175430 0.622630 -0.390884
-0.302044 0.123798 -0.051591
-0.734830 -0.253768 -0.240508
-0.530940 0.622630 0.338616
0.501800 0.172451 0.591552
0.310246 0.056646 0.051366
0.629174 0.595324 0.455923
-0.430024 0.289101 -0.647682
0.081822 0.393941 -0.777564
-0.630297 -0.039053 0.441078
-0.131985 0.031465 0.273152
0.426907 -0.620749 0.623742
0.460296 0.622630 0.226153
0.413085 -0.505356 -0.665583
-0.747891 0.058463 0.185608
-0.334600 0.392984 -0.703759
-0.425712 0.169145 0.641177
-0.141030 -0.193833 -0.278499
-0.488863 0.591166 -0.604268
-0.567451 -0.620749 0.345836
0.126699 -0.051288 -0.771064
0.296103 0.409038 0.103035
-0.502145 0.622630 0.525662
0.096578 -0.568267 0.766617
-0.772311 0.054300 -0.006485
-0.750803 -0.430580 0.175501
0.417699 0.622630 0.112538
0.779804 0.508818 -0.040628
