5.058315	25.673019	-4.636820	0.334660	0.891007	-0.306774
-7.051851	23.601768	-4.635575	-0.818640	0.200589	-0.538138
7.051851	23.601768	-4.635575	0.818640	0.200589	-0.538138
-4.543467	25.831650	-4.635502	-0.231189	0.943883	-0.235872
4.543467	25.831650	-4.635502	0.231189	0.943883	-0.235872
-3.865901	25.951788	-4.635097	-0.114367	0.983930	-0.137123
3.865901	25.951788	-4.635097	0.114367	0.983930	-0.137123
-6.654755	24.480524	-4.633976	-0.713745	0.493508	-0.497009
6.654755	24.480524	-4.633976	0.713745	0.493508	-0.497009
-3.658198	25.972849	-4.632435	-0.083191	0.990950	-0.105346
3.658198	25.972849	-4.632435	0.083191	0.990950	-0.105346
-6.527152	24.652691	-4.632042	-0.680607	0.550897	-0.482998
6.527152	24.652691	-4.632042	0.680607	0.550897	-0.482998
-5.733094	25.345495	-4.632003	-0.484979	0.781832	-0.391835
5.733094	25.345495	-4.632003	0.484979	0.781832	-0.391835
-3.089165	25.999245	-4.631635	-0.012450	0.999748	-0.018667
3.089165	25.999245	-4.631635	0.012450	0.999748	-0.018667
-5.143755	25.641787	-4.631458	-0.352153	0.880596	-0.317080
5.143755	25.641787	-4.631458	0.352153	0.880596	-0.317080
-6.169569	25.024012	-4.631169	-0.590312	0.674671	-0.443116
6.169569	25.024012	-4.631169	0.590312	0.674671	-0.443116
-3.209551	25.996979	-4.631138	-0.025556	0.998993	-0.036875
3.209551	25.996979	-4.631138	0.025556	0.998993	-0.036875
-4.457733	25.853170	-4.629860	-0.214331	0.951057	-0.222607
4.457733	25.853170	-4.629860	0.214331	0.951057	-0.222607
-6.054144	25.121321	-4.629456	-0.561704	0.707107	-0.429521
6.054144	25.121321	-4.629456	0.561704	0.707107	-0.429521
-5.525435	25.466005	-4.629402	-0.436522	0.822002	-0.365733
5.525435	25.466005	-4.629402	0.436522	0.822002	-0.365733
-2.969775	26.000000	-4.629302	-0.000000	1.000000	-0.000000
2.969775	26.000000	-4.629302	0.000000	1.000000	-0.000000
-4.075589	25.924784	-4.629082	-0.147044	0.974928	-0.167014
4.075589	25.924784	-4.629082	0.147044	0.974928	-0.167014
-6.281909	24.922626	-4.628542	-0.618008	0.640876	-0.455351
6.281909	24.922626	-4.628542	0.618008	0.640876	-0.455351
-7.039950	23.667562	-4.627752	-0.814673	0.222521	-0.535530
7.039950	23.667562	-4.627752	0.814673	0.222521	-0.535530
-3.330849	25.993204	-4.627748	-0.039297	0.997735	-0.054597
3.330849	25.993204	-4.627748	0.039297	0.997735	-0.054597
-6.773144	24.301651	-4.627332	-0.743930	0.433884	-0.508244
6.773144	24.301651	-4.627332	0.743930	0.433884	-0.508244
-6.902000	24.054125	-4.625685	-0.777726	0.351375	-0.521228
6.902000	24.054125	-4.625685	0.777726	0.351375	-0.521228
-5.228962	25.609224	-4.624465	-0.369677	0.869741	-0.326940
5.228962	25.609224	-4.624465	0.369677	0.869741	-0.326940
-5.935876	25.214357	-4.623432	-0.532264	0.738119	-0.414578
5.935876	25.214357	-4.623432	0.532264	0.738119	-0.414578
-4.372142	25.873253	-4.622723	-0.197621	0.957751	-0.208948
4.372142	25.873253	-4.622723	0.197621	0.957751	-0.208948
-6.390928	24.817369	-4.621560	-0.644714	0.605790	-0.466221
6.390928	24.817369	-4.621560	0.644714	0.605790	-0.466221
-3.452973	25.987923	-4.621406	-0.053653	0.995974	-0.071809
3.452973	25.987923	-4.621406	0.053653	0.995974	-0.071809
-7.026818	23.733021	-4.619119	-0.810296	0.244340	-0.532652
7.026818	23.733021	-4.619119	0.810296	0.244340	-0.532652
-3.782386	25.963064	-4.618023	-0.099123	0.987688	-0.121022
3.782386	25.963064	-4.618023	0.099123	0.987688	-0.121022
-5.313887	25.575346	-4.615829	-0.387215	0.858449	-0.336348
5.313887	25.575346	-4.615829	0.387215	0.858449	-0.336348
-3.991136	25.939026	-4.615453	-0.131205	0.979675	-0.151728
3.991136	25.939026	-4.615453	0.131205	0.979675	-0.151728
-5.608871	25.427052	-4.614857	-0.453896	0.809017	-0.373456
5.608871	25.427052	-4.614857	0.453896	0.809017	-0.373456
-6.626954	24.538698	-4.614618	-0.704478	0.512899	-0.490556
6.626954	24.538698	-4.614618	0.704478	0.512899	-0.490556
-4.286741	25.891888	-4.614114	-0.181075	0.963963	-0.194904
4.286741	25.891888	-4.614114	0.181075	0.963963	-0.194904
-5.815009	25.302935	-4.613140	-0.502073	0.767645	-0.398302
5.815009	25.302935	-4.613140	0.502073	0.767645	-0.398302
-6.881765	24.116880	-4.612123	-0.770981	0.372294	-0.516707
6.881765	24.116880	-4.612123	0.770981	0.372294	-0.516707
-3.575833	25.981136	-4.612057	-0.068604	0.993712	-0.088485
3.575833	25.981136	-4.612057	0.068604	0.993712	-0.088485
-6.748466	24.361971	-4.610472	-0.735705	0.453990	-0.502625
6.748466	24.361971	-4.610472	0.735705	0.453990	-0.502625
-6.496396	24.708454	-4.610216	-0.670355	0.569484	-0.475722
6.496396	24.708454	-4.610216	0.670355	0.569484	-0.475722
-7.012462	23.798111	-4.609682	-0.805510	0.266037	-0.529507
7.012462	23.798111	-4.609682	0.805510	0.266037	-0.529507
-7.144132	23.000000	-4.605581	-0.840486	0.000000	-0.541833
7.144132	23.000000	-4.605581	0.840486	0.000000	-0.541833
-5.398480	25.540173	-4.605539	-0.404753	0.846724	-0.345302
5.398480	25.540173	-4.605539	0.404753	0.846724	-0.345302
-7.143497	23.067314	-4.605172	-0.840275	0.022438	-0.541697
7.143497	23.067314	-4.605172	0.840275	0.022438	-0.541697
-4.201573	25.909069	-4.604056	-0.164706	0.969690	-0.180483
4.201573	25.909069	-4.604056	0.164706	0.969690	-0.180483
-7.141593	23.134594	-4.603944	-0.839640	0.044865	-0.541287
7.141593	23.134594	-4.603944	0.839640	0.044865	-0.541287
-3.130321	25.999245	-4.603920	-0.012616	0.999748	-0.018555
3.130321	25.999245	-4.603920	0.012616	0.999748	-0.018555
-6.132802	25.073189	-4.603570	-0.578056	0.691063	-0.433916
6.132802	25.073189	-4.603570	0.578056	0.691063	-0.433916
-3.010914	26.000000	-4.602651	-0.000000	1.000000	-0.000000
3.010914	26.000000	-4.602651	0.000000	1.000000	-0.000000
-6.246711	24.973816	-4.602609	-0.606275	0.657939	-0.446707
6.246711	24.973816	-4.602609	0.606275	0.657939	-0.446707
-3.250697	25.996979	-4.602350	-0.025883	0.998993	-0.036646
3.250697	25.996979	-4.602350	0.025883	0.998993	-0.036646
-7.138421	23.201807	-4.601899	-0.838582	0.067269	-0.540606
7.138421	23.201807	-4.601899	0.838582	0.067269	-0.540606
-3.907057	25.951788	-4.600460	-0.115585	0.983930	-0.136098
3.907057	25.951788	-4.600460	0.115585	0.983930	-0.136098
-4.842268	25.758583	-4.600270	-0.284940	0.919528	-0.270699
4.842268	25.758583	-4.600270	0.284940	0.919528	-0.270699
-6.015910	25.168385	-4.600218	-0.548959	0.722795	-0.419776
6.015910	25.168385	-4.600218	0.548959	0.722795	-0.419776
-4.756371	25.784346	-4.600006	-0.267614	0.928115	-0.258816
4.756371	25.784346	-4.600006	0.267614	0.928115	-0.258816
-3.699337	25.972849	-4.599648	-0.084127	0.990950	-0.104601
3.699337	25.972849	-4.599648	0.084127	0.990950	-0.104601
-6.996889	23.862799	-4.599445	-0.800319	0.287599	-0.526095
6.996889	23.862799	-4.599445	0.800319	0.287599	-0.526095
-7.133981	23.268917	-4.599037	-0.837103	0.089639	-0.539652
7.133981	23.268917	-4.599037	0.837103	0.089639	-0.539652
-4.928111	25.731432	-4.598960	-0.302353	0.910478	-0.282159
4.928111	25.731432	-4.598960	0.302353	0.910478	-0.282159
-5.691791	25.386873	-4.598632	-0.471212	0.795625	-0.380711
5.691791	25.386873	-4.598632	0.471212	0.795625	-0.380711
-4.670465	25.808704	-4.598185	-0.250390	0.936235	-0.246514
4.670465	25.808704	-4.598185	0.250390	0.936235	-0.246514
-3.371960	25.993204	-4.597878	-0.039782	0.997735	-0.054245
3.371960	25.993204	-4.597878	0.039782	0.997735	-0.054245
-6.860365	24.179075	-4.597781	-0.763847	0.393025	-0.511926
6.860365	24.179075	-4.597781	0.763847	0.393025	-0.511926
-6.357397	24.870470	-4.597312	-0.633537	0.623490	-0.458139
6.357397	24.870470	-4.597312	0.633537	0.623490	-0.458139
-5.013850	25.702906	-4.596060	-0.319838	0.900969	-0.293187
5.013850	25.702906	-4.596060	0.319838	0.900969	-0.293187
-7.128278	23.335894	-4.595360	-0.835201	0.111964	-0.538426
7.128278	23.335894	-4.595360	0.835201	0.111964	-0.538426
-4.584599	25.831650	-4.594825	-0.233282	0.943883	-0.233803
4.584599	25.831650	-4.594825	0.233282	0.943883	-0.233803
-6.598089	24.596096	-4.594518	-0.694856	0.532032	-0.483856
6.598089	24.596096	-4.594518	0.694856	0.532032	-0.483856
-5.482692	25.503719	-4.593590	-0.422274	0.834573	-0.353796
5.482692	25.503719	-4.593590	0.422274	0.834573	-0.353796
-6.722677	24.421606	-4.592853	-0.727108	0.473869	-0.496752
6.722677	24.421606	-4.592853	0.727108	0.473869	-0.496752
-5.896276	25.259214	-4.592587	-0.519064	0.753071	-0.404297
5.896276	25.259214	-4.592587	0.519064	0.753071	-0.404297
-4.116683	25.924784	-4.592576	-0.148527	0.974928	-0.165697
4.116683	25.924784	-4.592576	0.148527	0.974928	-0.165697
-5.099439	25.673019	-4.591555	-0.337381	0.891007	-0.303779
5.099439	25.673019	-4.591555	0.337381	0.891007	-0.303779
-7.121312	23.402700	-4.590870	-0.832880	0.134233	-0.536929
7.121312	23.402700	-4.590870	0.832880	0.134233	-0.536929
-3.494023	25.987923	-4.590449	-0.054291	0.995974	-0.071328
3.494023	25.987923	-4.590449	0.054291	0.995974	-0.071328
-4.498818	25.853170	-4.589948	-0.216306	0.951057	-0.220688
4.498818	25.853170	-4.589948	0.216306	0.951057	-0.220688
-6.980107	23.927052	-4.588414	-0.794725	0.309017	-0.522417
6.980107	23.927052	-4.588414	0.794725	0.309017	-0.522417
-6.464628	24.763355	-4.587671	-0.659765	0.587785	-0.468207
6.464628	24.763355	-4.587671	0.659765	0.587785	-0.468207
-7.113089	23.469303	-4.585568	-0.830138	0.156434	-0.535162
7.113089	23.469303	-4.585568	0.830138	0.156434	-0.535162
-5.184828	25.641787	-4.585432	-0.354965	0.880596	-0.313929
5.184828	25.641787	-4.585432	0.354965	0.880596	-0.313929
-3.823393	25.963064	-4.584130	-0.100198	0.987688	-0.120134
3.823393	25.963064	-4.584130	0.100198	0.987688	-0.120134
-4.413167	25.873253	-4.583574	-0.199476	0.957751	-0.207178
4.413167	25.873253	-4.583574	0.199476	0.957751	-0.207178
-6.837811	24.240675	-4.582665	-0.756329	0.413559	-0.506888
6.837811	24.240675	-4.582665	0.756329	0.413559	-0.506888
-5.774148	25.345495	-4.580724	-0.488452	0.781832	-0.387497
5.774148	25.345495	-4.580724	0.488452	0.781832	-0.387497
-3.616794	25.981136	-4.580006	-0.069390	0.993712	-0.087870
3.616794	25.981136	-4.580006	0.069390	0.993712	-0.087870
-5.566474	25.466005	-4.579975	-0.439764	0.822002	-0.361829
5.566474	25.466005	-4.579975	0.439764	0.822002	-0.361829
-4.032112	25.939026	-4.579700	-0.132552	0.979675	-0.150553
4.032112	25.939026	-4.579700	0.132552	0.979675	-0.150553
-7.103611	23.535671	-4.579459	-0.826979	0.178557	-0.533126
7.103611	23.535671	-4.579459	0.826979	0.178557	-0.533126
-5.269969	25.609224	-4.577680	-0.372576	0.869741	-0.323632
5.269969	25.609224	-4.577680	0.372576	0.869741	-0.323632
-6.962125	23.990837	-4.576593	-0.788731	0.330279	-0.518477
6.962125	23.990837	-4.576593	0.788731	0.330279	-0.518477
-6.210598	25.024012	-4.576000	-0.594238	0.674671	-0.437837
6.210598	25.024012	-4.576000	0.594238	0.674671	-0.437837
-3.171227	25.999245	-4.575839	-0.012781	0.999748	-0.018442
3.171227	25.999245	-4.575839	0.012781	0.999748	-0.018442
-4.327693	25.891888	-4.575726	-0.182805	0.963963	-0.193282
4.327693	25.891888	-4.575726	0.182805	0.963963	-0.193282
-3.051814	26.000000	-4.575634	-0.000000	1.000000	-0.000000
3.051814	26.000000	-4.575634	0.000000	1.000000	-0.000000
-6.095163	25.121321	-4.575316	-0.565510	0.707107	-0.424498
6.095163	25.121321	-4.575316	0.565510	0.707107	-0.424498
-6.695790	24.480524	-4.574484	-0.718146	0.493508	-0.490629
6.695790	24.480524	-4.574484	0.718146	0.493508	-0.490629
-6.568174	24.652691	-4.573687	-0.684884	0.550897	-0.476913
6.568174	24.652691	-4.573687	0.684884	0.550897	-0.476913
-3.291585	25.996979	-4.573196	-0.026209	0.998993	-0.036414
3.291585	25.996979	-4.573196	0.026209	0.998993	-0.036414
-7.092885	23.601768	-4.572544	-0.823404	0.200589	-0.530821
7.092885	23.601768	-4.572544	0.823404	0.200589	-0.530821
-6.322910	24.922626	-4.572373	-0.622041	0.640876	-0.449825
6.322910	24.922626	-4.572373	0.622041	0.640876	-0.449825
-5.976845	25.214357	-4.570347	-0.535938	0.738119	-0.409818
5.976845	25.214357	-4.570347	0.535938	0.738119	-0.409818
-5.354813	25.575346	-4.568286	-0.390197	0.858449	-0.332884
5.354813	25.575346	-4.568286	0.390197	0.858449	-0.332884
-3.412804	25.993204	-4.567644	-0.040264	0.997735	-0.053888
3.412804	25.993204	-4.567644	0.040264	0.997735	-0.053888
-6.814115	24.301651	-4.566784	-0.748430	0.433884	-0.501594
6.814115	24.301651	-4.566784	0.748430	0.433884	-0.501594
-3.740184	25.972849	-4.566497	-0.085055	0.990950	-0.103847
3.740184	25.972849	-4.566497	0.085055	0.990950	-0.103847
-4.242439	25.909069	-4.566428	-0.166308	0.969690	-0.179008
4.242439	25.909069	-4.566428	0.166308	0.969690	-0.179008
-3.947902	25.951788	-4.565456	-0.116793	0.983930	-0.135063
3.947902	25.951788	-4.565456	0.116793	0.983930	-0.135063
-7.080914	23.667562	-4.564826	-0.819413	0.222521	-0.528248
7.080914	23.667562	-4.564826	0.819413	0.222521	-0.528248
-5.649776	25.427052	-4.564687	-0.457207	0.809017	-0.369396
5.649776	25.427052	-4.564687	0.457207	0.809017	-0.369396
-6.431862	24.817369	-4.564419	-0.648844	0.605790	-0.460457
6.431862	24.817369	-4.564419	0.648844	0.605790	-0.460457
-6.942952	24.054125	-4.563989	-0.782340	0.351375	-0.514276
6.942952	24.054125	-4.563989	0.782340	0.351375	-0.514276
-5.855891	25.302935	-4.561132	-0.505602	0.767645	-0.393812
5.855891	25.302935	-4.561132	0.505602	0.767645	-0.393812
-3.534795	25.987923	-4.559127	-0.054925	0.995974	-0.070841
3.534795	25.987923	-4.559127	0.054925	0.995974	-0.070841
-4.797178	25.784346	-4.557433	-0.269910	0.928115	-0.256420
4.797178	25.784346	-4.557433	0.269910	0.928115	-0.256420
-5.439311	25.540173	-4.557244	-0.407814	0.846724	-0.341681
5.439311	25.540173	-4.557244	0.407814	0.846724	-0.341681
-4.883074	25.758583	-4.556932	-0.287341	0.919528	-0.268149
4.883074	25.758583	-4.556932	0.287341	0.919528	-0.268149
-4.711260	25.808704	-4.556378	-0.252577	0.936235	-0.244273
4.711260	25.808704	-4.556378	0.252577	0.936235	-0.244273
-7.067706	23.733021	-4.556311	-0.815011	0.244340	-0.525410
7.067706	23.733021	-4.556311	0.815011	0.244340	-0.525410
-4.157449	25.924784	-4.555705	-0.149998	0.974928	-0.164366
4.157449	25.924784	-4.555705	0.149998	0.974928	-0.164366
-6.667818	24.538698	-4.555374	-0.708822	0.512899	-0.484259
6.667818	24.538698	-4.555374	0.708822	0.512899	-0.484259
-4.968902	25.731432	-4.554857	-0.304855	0.910478	-0.279453
4.968902	25.731432	-4.554857	0.304855	0.910478	-0.279453
-4.625367	25.831650	-4.553784	-0.235357	0.943883	-0.231714
4.625367	25.831650	-4.553784	0.235357	0.943883	-0.231714
-6.537225	24.708454	-4.552136	-0.674568	0.569484	-0.469729
6.537225	24.708454	-4.552136	0.674568	0.569484	-0.469729
-5.054612	25.702906	-4.551193	-0.322438	0.900969	-0.290325
5.054612	25.702906	-4.551193	0.322438	0.900969	-0.290325
-6.922596	24.116880	-4.550608	-0.775555	0.372294	-0.509816
6.922596	24.116880	-4.550608	0.775555	0.372294	-0.509816
-6.789288	24.361971	-4.550145	-0.740155	0.453990	-0.496048
6.789288	24.361971	-4.550145	0.740155	0.453990	-0.496048
-3.864096	25.963064	-4.549873	-0.101264	0.987688	-0.119236
3.864096	25.963064	-4.549873	0.101264	0.987688	-0.119236
-4.539546	25.853170	-4.549671	-0.218264	0.951057	-0.218751
4.539546	25.853170	-4.549671	0.218264	0.951057	-0.218751
-6.173587	25.073189	-4.548730	-0.581900	0.691063	-0.428747
6.173587	25.073189	-4.548730	0.581900	0.691063	-0.428747
-3.092472	26.000000	-4.548254	-0.000000	1.000000	-0.000000
3.092472	26.000000	-4.548254	0.000000	1.000000	-0.000000
-5.732549	25.386873	-4.547723	-0.474586	0.795625	-0.376497
5.732549	25.386873	-4.547723	0.474586	0.795625	-0.376497
-3.657469	25.981136	-4.547590	-0.070170	0.993712	-0.087248
3.657469	25.981136	-4.547590	0.070170	0.993712	-0.087248
-3.211882	25.999245	-4.547395	-0.012945	0.999748	-0.018327
3.211882	25.999245	-4.547395	0.012945	0.999748	-0.018327
-7.053266	23.798111	-4.547003	-0.810197	0.266037	-0.522307
7.053266	23.798111	-4.547003	0.810197	0.266037	-0.522307
-6.287482	24.973816	-4.546754	-0.610232	0.657939	-0.441286
6.287482	24.973816	-4.546754	0.610232	0.657939	-0.441286
-6.056669	25.168385	-4.546421	-0.552678	0.722795	-0.414866
6.056669	25.168385	-4.546421	0.552678	0.722795	-0.414866
-5.140157	25.673019	-4.545926	-0.340075	0.891007	-0.300760
5.140157	25.673019	-4.545926	0.340075	0.891007	-0.300760
-5.523414	25.503719	-4.544545	-0.425411	0.834573	-0.350019
5.523414	25.503719	-4.544545	0.425411	0.834573	-0.350019
-4.453842	25.873253	-4.544061	-0.201314	0.957751	-0.205392
4.453842	25.873253	-4.544061	0.201314	0.957751	-0.205392
-3.332212	25.996979	-4.543679	-0.026532	0.998993	-0.036179
3.332212	25.996979	-4.543679	0.026532	0.998993	-0.036179
-4.072766	25.939026	-4.543583	-0.133888	0.979675	-0.149366
4.072766	25.939026	-4.543583	0.133888	0.979675	-0.149366
-7.184894	23.000000	-4.541728	-0.845282	0.000000	-0.534321
7.184894	23.000000	-4.541728	0.845282	0.000000	-0.534321
-7.184256	23.067314	-4.541325	-0.845069	0.022438	-0.534186
7.184256	23.067314	-4.541325	0.845069	0.022438	-0.534186
-6.398117	24.870470	-4.540472	-0.637595	0.623490	-0.452474
6.398117	24.870470	-4.540472	0.637595	0.623490	-0.452474
-7.182341	23.134594	-4.540114	-0.844431	0.044865	-0.533783
7.182341	23.134594	-4.540114	0.844431	0.044865	-0.533783
-5.936972	25.259214	-4.539856	-0.522646	0.753071	-0.399655
5.936972	25.259214	-4.539856	0.522646	0.753071	-0.399655
-5.225488	25.641787	-4.539042	-0.357749	0.880596	-0.310753
5.225488	25.641787	-4.539042	0.357749	0.880596	-0.310753
-7.179150	23.201807	-4.538097	-0.843367	0.067269	-0.533111
7.179150	23.201807	-4.538097	0.843367	0.067269	-0.533111
-3.453376	25.993204	-4.537047	-0.040742	0.997735	-0.053527
3.453376	25.993204	-4.537047	0.040742	0.997735	-0.053527
-4.368301	25.891888	-4.536975	-0.184520	0.963963	-0.191645
4.368301	25.891888	-4.536975	0.184520	0.963963	-0.191645
-7.037602	23.862799	-4.536905	-0.804976	0.287599	-0.518941
7.037602	23.862799	-4.536905	0.804976	0.287599	-0.518941
-6.901069	24.179075	-4.536458	-0.768379	0.393025	-0.505099
6.901069	24.179075	-4.536458	0.768379	0.393025	-0.505099
-6.638774	24.596096	-4.535532	-0.699141	0.532032	-0.477645
6.638774	24.596096	-4.535532	0.699141	0.532032	-0.477645
-7.174685	23.268917	-4.535275	-0.841879	0.089639	-0.532170
7.174685	23.268917	-4.535275	0.841879	0.089639	-0.532170
-3.780733	25.972849	-4.532982	-0.085978	0.990950	-0.103085
3.780733	25.972849	-4.532982	0.085978	0.990950	-0.103085
-6.763342	24.421606	-4.532757	-0.731506	0.473869	-0.490252
6.763342	24.421606	-4.532757	0.731506	0.473869	-0.490252
-7.168950	23.335894	-4.531649	-0.839967	0.111964	-0.530961
7.168950	23.335894	-4.531649	0.839967	0.111964	-0.530961
-5.310557	25.609224	-4.530531	-0.375445	0.869741	-0.320299
5.310557	25.609224	-4.530531	0.375445	0.869741	-0.320299
-5.607071	25.466005	-4.530183	-0.442972	0.822002	-0.357895
5.607071	25.466005	-4.530183	0.442972	0.822002	-0.357895
-3.988434	25.951788	-4.530090	-0.117992	0.983930	-0.134016
3.988434	25.951788	-4.530090	0.117992	0.983930	-0.134016
-6.505257	24.763355	-4.529875	-0.663912	0.587785	-0.462309
6.505257	24.763355	-4.529875	0.663912	0.587785	-0.462309
-5.814743	25.345495	-4.529082	-0.491886	0.781832	-0.383128
5.814743	25.345495	-4.529082	0.491886	0.781832	-0.383128
-4.282968	25.909069	-4.528437	-0.167896	0.969690	-0.177519
4.282968	25.909069	-4.528437	0.167896	0.969690	-0.177519
-3.575286	25.987923	-4.527443	-0.055554	0.995974	-0.070349
3.575286	25.987923	-4.527443	0.055554	0.995974	-0.070349
-7.161944	23.402700	-4.527221	-0.837632	0.134233	-0.529485
7.161944	23.402700	-4.527221	0.837632	0.134233	-0.529485
-7.020723	23.927052	-4.526023	-0.799350	0.309017	-0.515314
7.020723	23.927052	-4.526023	0.799350	0.309017	-0.515314
-7.153674	23.469303	-4.521993	-0.834875	0.156434	-0.527743
7.153674	23.469303	-4.521993	0.834875	0.156434	-0.527743
-6.878381	24.240675	-4.521544	-0.760817	0.413559	-0.500127
6.878381	24.240675	-4.521544	0.760817	0.413559	-0.500127
-6.135697	25.121321	-4.520813	-0.569270	0.707107	-0.419441
6.135697	25.121321	-4.520813	0.569270	0.707107	-0.419441
-3.132884	26.000000	-4.520513	-0.000000	1.000000	-0.000000
3.132884	26.000000	-4.520513	0.000000	1.000000	-0.000000
-6.251133	25.024012	-4.520469	-0.598116	0.674671	-0.432524
6.251133	25.024012	-4.520469	0.598116	0.674671	-0.432524
-5.395314	25.575346	-4.520382	-0.393148	0.858449	-0.329393
5.395314	25.575346	-4.520382	0.393148	0.858449	-0.329393
-3.252282	25.999245	-4.518589	-0.013108	0.999748	-0.018211
3.252282	25.999245	-4.518589	0.013108	0.999748	-0.018211
-4.197886	25.924784	-4.518472	-0.151456	0.974928	-0.163023
4.197886	25.924784	-4.518472	0.151456	0.974928	-0.163023
-6.017340	25.214357	-4.516899	-0.539569	0.738119	-0.405026
6.017340	25.214357	-4.516899	0.539569	0.738119	-0.405026
-7.144142	23.535671	-4.515968	-0.831698	0.178557	-0.525734
7.144142	23.535671	-4.515968	0.831698	0.178557	-0.525734
-6.363409	24.922626	-4.515841	-0.626026	0.640876	-0.444264
6.363409	24.922626	-4.515841	0.626026	0.640876	-0.444264
-3.904491	25.963064	-4.515255	-0.102323	0.987688	-0.118329
3.904491	25.963064	-4.515255	0.102323	0.987688	-0.118329
-6.608675	24.652691	-4.514968	-0.689108	0.550897	-0.470790
6.608675	24.652691	-4.514968	0.689108	0.550897	-0.470790
-3.697852	25.981136	-4.514813	-0.070945	0.993712	-0.086619
3.697852	25.981136	-4.514813	0.070945	0.993712	-0.086619
-6.736292	24.480524	-4.514628	-0.722490	0.493508	-0.484209
6.736292	24.480524	-4.514628	0.722490	0.493508	-0.484209
-4.837604	25.784346	-4.514499	-0.272184	0.928115	-0.254005
4.837604	25.784346	-4.514499	0.272184	0.928115	-0.254005
-7.002636	23.990837	-4.514363	-0.793321	0.330279	-0.511427
7.002636	23.990837	-4.514363	0.793321	0.330279	-0.511427
-4.751680	25.808704	-4.514209	-0.254744	0.936235	-0.242012
4.751680	25.808704	-4.514209	0.254744	0.936235	-0.242012
-5.690233	25.427052	-4.514153	-0.460481	0.809017	-0.365307
5.690233	25.427052	-4.514153	0.460481	0.809017	-0.365307
-3.372574	25.996979	-4.513801	-0.026854	0.998993	-0.035941
3.372574	25.996979	-4.513801	0.026854	0.998993	-0.035941
-4.923493	25.758583	-4.513232	-0.289719	0.919528	-0.265578
4.923493	25.758583	-4.513232	0.289719	0.919528	-0.265578
-4.665768	25.831650	-4.512381	-0.237412	0.943883	-0.229608
4.665768	25.831650	-4.512381	0.237412	0.943883	-0.229608
-5.009298	25.731432	-4.510392	-0.307334	0.910478	-0.276725
5.009298	25.731432	-4.510392	0.307334	0.910478	-0.276725
-7.133354	23.601768	-4.509149	-0.828102	0.200589	-0.523461
7.133354	23.601768	-4.509149	0.828102	0.200589	-0.523461
-4.579913	25.853170	-4.509033	-0.220205	0.951057	-0.216797
4.579913	25.853170	-4.509033	0.220205	0.951057	-0.216797
-5.896308	25.302935	-4.508762	-0.509092	0.767645	-0.389290
5.896308	25.302935	-4.508762	0.509092	0.767645	-0.389290
-5.479710	25.540173	-4.508587	-0.410843	0.846724	-0.338033
5.479710	25.540173	-4.508587	0.410843	0.846724	-0.338033
-4.113098	25.939026	-4.507105	-0.135214	0.979675	-0.148167
4.113098	25.939026	-4.507105	0.135214	0.979675	-0.148167
-6.472286	24.817369	-4.506916	-0.652921	0.605790	-0.454656
6.472286	24.817369	-4.506916	0.652921	0.605790	-0.454656
-3.493674	25.993204	-4.506090	-0.041218	0.997735	-0.053162
3.493674	25.993204	-4.506090	0.041218	0.997735	-0.053162
-5.094972	25.702906	-4.505965	-0.325013	0.900969	-0.287440
5.094972	25.702906	-4.505965	0.325013	0.900969	-0.287440
-6.854544	24.301651	-4.505874	-0.752871	0.433884	-0.494904
6.854544	24.301651	-4.505874	0.752871	0.433884	-0.494904
-4.494163	25.873253	-4.504187	-0.203137	0.957751	-0.203590
4.494163	25.873253	-4.504187	0.203137	0.957751	-0.203590
-6.983351	24.054125	-4.501931	-0.786892	0.351375	-0.507283
6.983351	24.054125	-4.501931	0.786892	0.351375	-0.507283
-7.121315	23.667562	-4.501539	-0.824089	0.222521	-0.520924
7.121315	23.667562	-4.501539	0.824089	0.222521	-0.520924
-5.180467	25.673019	-4.499935	-0.342742	0.891007	-0.297717
5.180467	25.673019	-4.499935	0.342742	0.891007	-0.297717
-3.820981	25.972849	-4.499107	-0.086893	0.990950	-0.102314
3.820981	25.972849	-4.499107	0.086893	0.990950	-0.102314
-4.408562	25.891888	-4.497864	-0.186221	0.963963	-0.189993
4.408562	25.891888	-4.497864	0.186221	0.963963	-0.189993
-5.772851	25.386873	-4.496453	-0.477923	0.795625	-0.372252
5.772851	25.386873	-4.496453	0.477923	0.795625	-0.372252
-6.708151	24.538698	-4.495768	-0.713109	0.512899	-0.477922
6.708151	24.538698	-4.495768	0.713109	0.512899	-0.477922
-3.615494	25.987923	-4.495400	-0.056179	0.995974	-0.069851
3.615494	25.987923	-4.495400	0.056179	0.995974	-0.069851
-5.563696	25.503719	-4.495139	-0.428513	0.834573	-0.346214
5.563696	25.503719	-4.495139	0.428513	0.834573	-0.346214
-4.028648	25.951788	-4.494365	-0.119182	0.983930	-0.132960
4.028648	25.951788	-4.494365	0.119182	0.983930	-0.132960
-6.577535	24.708454	-4.493694	-0.678728	0.569484	-0.463699
6.577535	24.708454	-4.493694	0.678728	0.569484	-0.463699
-6.213881	25.073189	-4.493529	-0.585698	0.691063	-0.423544
6.213881	25.073189	-4.493529	0.585698	0.691063	-0.423544
-7.108032	23.733021	-4.493142	-0.819661	0.244340	-0.518125
7.108032	23.733021	-4.493142	0.819661	0.244340	-0.518125
-3.173048	26.000000	-4.492413	-0.000000	1.000000	-0.000000
3.173048	26.000000	-4.492413	0.000000	1.000000	-0.000000
-5.265734	25.641787	-4.492291	-0.360504	0.880596	-0.307552
5.265734	25.641787	-4.492291	0.360504	0.880596	-0.307552
-6.096947	25.168385	-4.492262	-0.556354	0.722795	-0.409924
6.096947	25.168385	-4.492262	0.556354	0.722795	-0.409924
-6.327754	24.973816	-4.490538	-0.614141	0.657939	-0.435830
6.327754	24.973816	-4.490538	0.614141	0.657939	-0.435830
-4.323155	25.909069	-4.490087	-0.169472	0.969690	-0.176016
4.323155	25.909069	-4.490087	0.169472	0.969690	-0.176016
-6.829570	24.361971	-4.489457	-0.744546	0.453990	-0.489432
6.829570	24.361971	-4.489457	0.744546	0.453990	-0.489432
-3.292423	25.999245	-4.489425	-0.013270	0.999748	-0.018094
3.292423	25.999245	-4.489425	0.013270	0.999748	-0.018094
-6.962877	24.116880	-4.488732	-0.780068	0.372294	-0.502883
6.962877	24.116880	-4.488732	0.780068	0.372294	-0.502883
-5.977196	25.259214	-4.486764	-0.526188	0.753071	-0.394981
5.977196	25.259214	-4.486764	0.526188	0.753071	-0.394981
-7.093510	23.798111	-4.483962	-0.814820	0.266037	-0.515066
7.093510	23.798111	-4.483962	0.814820	0.266037	-0.515066
-3.412668	25.996979	-4.483565	-0.027173	0.998993	-0.035700
3.412668	25.996979	-4.483565	0.027173	0.998993	-0.035700
-6.438328	24.870470	-4.483270	-0.641602	0.623490	-0.446774
6.438328	24.870470	-4.483270	0.641602	0.623490	-0.446774
-5.350723	25.609224	-4.483022	-0.378285	0.869741	-0.316940
5.350723	25.609224	-4.483022	0.378285	0.869741	-0.316940
-3.737942	25.981136	-4.481678	-0.071714	0.993712	-0.085983
3.737942	25.981136	-4.481678	0.071714	0.993712	-0.085983
-4.237988	25.924784	-4.480880	-0.152903	0.974928	-0.161667
4.237988	25.924784	-4.480880	0.152903	0.974928	-0.161667
-3.944577	25.963064	-4.480278	-0.103374	0.987688	-0.117412
3.944577	25.963064	-4.480278	0.103374	0.987688	-0.117412
-5.647222	25.466005	-4.480032	-0.446144	0.822002	-0.353933
5.647222	25.466005	-4.480032	0.446144	0.822002	-0.353933
-7.225086	23.000000	-4.477515	-0.850010	0.000000	-0.526766
7.225086	23.000000	-4.477515	0.850010	0.000000	-0.526766
-7.224444	23.067314	-4.477117	-0.849796	0.022438	-0.526634
7.224444	23.067314	-4.477117	0.849796	0.022438	-0.526634
-5.854876	25.345495	-4.477080	-0.495281	0.781832	-0.378729
5.854876	25.345495	-4.477080	0.495281	0.781832	-0.378729
-6.678932	24.596096	-4.476186	-0.703370	0.532032	-0.471395
6.678932	24.596096	-4.476186	0.703370	0.532032	-0.471395
-7.222518	23.134594	-4.475924	-0.849154	0.044865	-0.526236
7.222518	23.134594	-4.475924	0.849154	0.044865	-0.526236
-3.533694	25.993204	-4.474775	-0.041690	0.997735	-0.052793
3.533694	25.993204	-4.474775	0.041690	0.997735	-0.052793
-6.941225	24.179075	-4.474773	-0.772850	0.393025	-0.498231
6.941225	24.179075	-4.474773	0.772850	0.393025	-0.498231
-7.077757	23.862799	-4.474004	-0.809569	0.287599	-0.511746
7.077757	23.862799	-4.474004	0.809569	0.287599	-0.511746
-7.219309	23.201807	-4.473935	-0.848085	0.067269	-0.525573
7.219309	23.201807	-4.473935	0.848085	0.067269	-0.525573
-6.803471	24.421606	-4.472301	-0.735847	0.473869	-0.483713
6.803471	24.421606	-4.472301	0.735847	0.473869	-0.483713
-5.435386	25.575346	-4.472118	-0.396068	0.858449	-0.325877
5.435386	25.575346	-4.472118	0.396068	0.858449	-0.325877
-6.545370	24.763355	-4.471719	-0.668006	0.587785	-0.456374
6.545370	24.763355	-4.471719	0.668006	0.587785	-0.456374
-4.791723	25.808704	-4.471682	-0.256890	0.936235	-0.239732
4.791723	25.808704	-4.471682	0.256890	0.936235	-0.239732
-4.877646	25.784346	-4.471206	-0.274437	0.928115	-0.251569
4.877646	25.784346	-4.471206	0.274437	0.928115	-0.251569
-7.214820	23.268917	-4.471153	-0.846588	0.089639	-0.524646
7.214820	23.268917	-4.471153	0.846588	0.089639	-0.524646
-4.705798	25.831650	-4.470619	-0.239449	0.943883	-0.227483
4.705798	25.831650	-4.470619	0.239449	0.943883	-0.227483
-4.153103	25.939026	-4.470270	-0.136529	0.979675	-0.146956
4.153103	25.939026	-4.470270	0.136529	0.979675	-0.146956
-4.963520	25.758583	-4.469173	-0.292075	0.919528	-0.262985
4.963520	25.758583	-4.469173	0.292075	0.919528	-0.262985
-4.619916	25.853170	-4.468037	-0.222129	0.951057	-0.214826
4.619916	25.853170	-4.468037	0.222129	0.951057	-0.214826
-7.209052	23.335894	-4.467578	-0.844665	0.111964	-0.523454
7.209052	23.335894	-4.467578	0.844665	0.111964	-0.523454
-6.175744	25.121321	-4.465951	-0.572986	0.707107	-0.414351
6.175744	25.121321	-4.465951	0.572986	0.707107	-0.414351
-5.049297	25.731432	-4.465569	-0.309788	0.910478	-0.273975
5.049297	25.731432	-4.465569	0.309788	0.910478	-0.273975
-3.860926	25.972849	-4.464875	-0.087801	0.990950	-0.101536
3.860926	25.972849	-4.464875	0.087801	0.990950	-0.101536
-6.291173	25.024012	-4.464578	-0.601947	0.674671	-0.427176
6.291173	25.024012	-4.464578	0.601947	0.674671	-0.427176
-4.534126	25.873253	-4.463955	-0.204943	0.957751	-0.201771
4.534126	25.873253	-4.463955	0.204943	0.957751	-0.201771
-3.212959	26.000000	-4.463955	-0.000000	1.000000	-0.000000
3.212959	26.000000	-4.463955	0.000000	1.000000	-0.000000
-7.060781	23.927052	-4.463274	-0.803911	0.309017	-0.508169
7.060781	23.927052	-4.463274	0.803911	0.309017	-0.508169
-5.730238	25.427052	-4.463262	-0.463718	0.809017	-0.361188
5.730238	25.427052	-4.463262	0.463718	0.809017	-0.361188
-7.202007	23.402700	-4.463212	-0.842317	0.134233	-0.521999
7.202007	23.402700	-4.463212	0.842317	0.134233	-0.521999
-6.057356	25.214357	-4.463091	-0.543157	0.738119	-0.400201
6.057356	25.214357	-4.463091	0.543157	0.738119	-0.400201
-3.655414	25.987923	-4.462999	-0.056799	0.995974	-0.069348
3.655414	25.987923	-4.462999	0.056799	0.995974	-0.069348
-5.134928	25.702906	-4.460378	-0.327562	0.900969	-0.284532
5.134928	25.702906	-4.460378	0.327562	0.900969	-0.284532
-6.918405	24.240675	-4.460063	-0.765244	0.413559	-0.493327
6.918405	24.240675	-4.460063	0.765244	0.413559	-0.493327
-3.332303	25.999245	-4.459904	-0.013430	0.999748	-0.017975
3.332303	25.999245	-4.459904	0.013430	0.999748	-0.017975
-5.519674	25.540173	-4.459572	-0.413839	0.846724	-0.334358
5.519674	25.540173	-4.459572	0.413839	0.846724	-0.334358
-6.403402	24.922626	-4.458949	-0.629960	0.640876	-0.438667
6.403402	24.922626	-4.458949	0.629960	0.640876	-0.438667
-4.448472	25.891888	-4.458395	-0.187907	0.963963	-0.188326
4.448472	25.891888	-4.458395	0.187907	0.963963	-0.188326
-4.068543	25.951788	-4.458282	-0.120362	0.983930	-0.131892
4.068543	25.951788	-4.458282	0.120362	0.983930	-0.131892
-7.193691	23.469303	-4.458058	-0.839545	0.156434	-0.520281
7.193691	23.469303	-4.458058	0.839545	0.156434	-0.520281
-5.936257	25.302935	-4.456034	-0.512541	0.767645	-0.384738
5.936257	25.302935	-4.456034	0.512541	0.767645	-0.384738
-6.648651	24.652691	-4.455891	-0.693276	0.550897	-0.464630
6.648651	24.652691	-4.455891	0.693276	0.550897	-0.464630
-6.776260	24.480524	-4.454413	-0.726776	0.493508	-0.477751
6.776260	24.480524	-4.454413	0.726776	0.493508	-0.477751
-5.220366	25.673019	-4.453587	-0.345381	0.891007	-0.294651
5.220366	25.673019	-4.453587	0.345381	0.891007	-0.294651
-3.452491	25.996979	-4.452972	-0.027490	0.998993	-0.035456
3.452491	25.996979	-4.452972	0.027490	0.998993	-0.035456
-7.184106	23.535671	-4.452118	-0.836350	0.178557	-0.518301
7.184106	23.535671	-4.452118	0.836350	0.178557	-0.518301
-7.042591	23.990837	-4.451775	-0.797847	0.330279	-0.504337
7.042591	23.990837	-4.451775	0.797847	0.330279	-0.504337
-4.363000	25.909069	-4.451380	-0.171034	0.969690	-0.174498
4.363000	25.909069	-4.451380	0.171034	0.969690	-0.174498
-6.512196	24.817369	-4.449055	-0.656948	0.605790	-0.448819
6.512196	24.817369	-4.449055	0.656948	0.605790	-0.448819
-3.777736	25.981136	-4.448187	-0.072478	0.993712	-0.085341
3.777736	25.981136	-4.448187	0.072478	0.993712	-0.085341
-7.173257	23.601768	-4.445395	-0.832734	0.200589	-0.516060
7.173257	23.601768	-4.445395	0.832734	0.200589	-0.516060
-5.603537	25.503719	-4.445375	-0.431582	0.834573	-0.342381
5.603537	25.503719	-4.445375	0.431582	0.834573	-0.342381
-5.305561	25.641787	-4.445183	-0.363231	0.880596	-0.304327
5.305561	25.641787	-4.445183	0.363231	0.880596	-0.304327
-3.984350	25.963064	-4.444945	-0.104416	0.987688	-0.116486
3.984350	25.963064	-4.444945	0.104416	0.987688	-0.116486
-5.812696	25.386873	-4.444826	-0.481221	0.795625	-0.367978
5.812696	25.386873	-4.444826	0.481221	0.795625	-0.367978
-6.894429	24.301651	-4.444606	-0.757252	0.433884	-0.488175
6.894429	24.301651	-4.444606	0.757252	0.433884	-0.488175
-3.573434	25.993204	-4.443104	-0.042159	0.997735	-0.052419
3.573434	25.993204	-4.443104	0.042159	0.997735	-0.052419
-4.277754	25.924784	-4.442933	-0.154338	0.974928	-0.160298
4.277754	25.924784	-4.442933	0.154338	0.974928	-0.160298
-7.023196	24.054125	-4.439515	-0.791382	0.351375	-0.500250
7.023196	24.054125	-4.439515	0.791382	0.351375	-0.500250
-6.253681	25.073189	-4.437972	-0.589450	0.691063	-0.418308
6.253681	25.073189	-4.437972	0.589450	0.691063	-0.418308
-7.161151	23.667562	-4.437893	-0.828699	0.222521	-0.513559
7.161151	23.667562	-4.437893	0.828699	0.222521	-0.513559
-6.136741	25.168385	-4.437746	-0.559985	0.722795	-0.404950
6.136741	25.168385	-4.437746	0.559985	0.722795	-0.404950
-6.747952	24.538698	-4.435805	-0.717340	0.512899	-0.471548
6.747952	24.538698	-4.435805	0.717340	0.512899	-0.471548
-5.390464	25.609224	-4.435157	-0.381094	0.869741	-0.313556
5.390464	25.609224	-4.435157	0.381094	0.869741	-0.313556
-3.252615	26.000000	-4.435143	-0.000000	1.000000	-0.000000
3.252615	26.000000	-4.435143	0.000000	1.000000	-0.000000
-6.617323	24.708454	-4.434895	-0.682833	0.569484	-0.457631
6.617323	24.708454	-4.434895	0.682833	0.569484	-0.457631
-6.367524	24.973816	-4.433966	-0.618001	0.657939	-0.430339
6.367524	24.973816	-4.433966	0.618001	0.657939	-0.430339
-6.016945	25.259214	-4.433316	-0.529687	0.753071	-0.390276
6.016945	25.259214	-4.433316	0.529687	0.753071	-0.390276
-4.192778	25.939026	-4.433079	-0.137833	0.979675	-0.145733
4.192778	25.939026	-4.433079	0.137833	0.979675	-0.145733
-3.900565	25.972849	-4.430289	-0.088703	0.990950	-0.100749
3.900565	25.972849	-4.430289	0.088703	0.990950	-0.100749
-3.695044	25.987923	-4.430244	-0.057415	0.995974	-0.068839
3.695044	25.987923	-4.430244	0.057415	0.995974	-0.068839
-3.371918	25.999245	-4.430028	-0.013590	0.999748	-0.017854
3.371918	25.999245	-4.430028	0.013590	0.999748	-0.017854
-7.147793	23.733021	-4.429615	-0.824246	0.244340	-0.510800
7.147793	23.733021	-4.429615	0.824246	0.244340	-0.510800
-5.686924	25.466005	-4.429525	-0.449280	0.822002	-0.349943
5.686924	25.466005	-4.429525	0.449280	0.822002	-0.349943
-4.831385	25.808704	-4.428800	-0.259017	0.936235	-0.237433
4.831385	25.808704	-4.428800	0.259017	0.936235	-0.237433
-4.745454	25.831650	-4.428503	-0.241467	0.943883	-0.225339
4.745454	25.831650	-4.428503	0.241467	0.943883	-0.225339
-6.869309	24.361971	-4.428412	-0.748879	0.453990	-0.482777
6.869309	24.361971	-4.428412	0.748879	0.453990	-0.482777
-4.917301	25.784346	-4.427557	-0.276668	0.928115	-0.249113
4.917301	25.784346	-4.427557	0.276668	0.928115	-0.249113
-4.659553	25.853170	-4.426686	-0.224034	0.951057	-0.212838
4.659553	25.853170	-4.426686	0.224034	0.951057	-0.212838
-7.002605	24.116880	-4.426499	-0.784519	0.372294	-0.495911
7.002605	24.116880	-4.426499	0.784519	0.372294	-0.495911
-6.478029	24.870470	-4.425712	-0.645559	0.623490	-0.441038
6.478029	24.870470	-4.425712	0.645559	0.623490	-0.441038
-5.003153	25.758583	-4.424760	-0.294407	0.919528	-0.260372
5.003153	25.758583	-4.424760	0.294407	0.919528	-0.260372
-5.894544	25.345495	-4.424722	-0.498637	0.781832	-0.374300
5.894544	25.345495	-4.424722	0.498637	0.781832	-0.374300
-5.475027	25.575346	-4.423500	-0.398957	0.858449	-0.322334
5.475027	25.575346	-4.423500	0.398957	0.858449	-0.322334
-4.573730	25.873253	-4.423369	-0.206733	0.957751	-0.199937
4.573730	25.873253	-4.423369	0.206733	0.957751	-0.199937
-3.492039	25.996979	-4.422026	-0.027805	0.998993	-0.035210
3.492039	25.996979	-4.422026	0.027805	0.998993	-0.035210
-4.108114	25.951788	-4.421845	-0.121533	0.983930	-0.130814
4.108114	25.951788	-4.421845	0.121533	0.983930	-0.130814
-7.133190	23.798111	-4.420565	-0.819378	0.266037	-0.507783
7.133190	23.798111	-4.420565	0.819378	0.266037	-0.507783
-5.088894	25.731432	-4.420392	-0.312217	0.910478	-0.271203
5.088894	25.731432	-4.420392	0.312217	0.910478	-0.271203
-4.488030	25.891888	-4.418572	-0.189578	0.963963	-0.186644
4.488030	25.891888	-4.418572	0.189578	0.963963	-0.186644
-6.718560	24.596096	-4.416484	-0.707543	0.532032	-0.465107
6.718560	24.596096	-4.416484	0.707543	0.532032	-0.465107
-5.174476	25.702906	-4.414437	-0.330085	0.900969	-0.281601
5.174476	25.702906	-4.414437	0.330085	0.900969	-0.281601
-3.817229	25.981136	-4.414342	-0.073235	0.993712	-0.084691
3.817229	25.981136	-4.414342	0.073235	0.993712	-0.084691
-6.584963	24.763355	-4.413208	-0.672046	0.587785	-0.450402
6.584963	24.763355	-4.413208	0.672046	0.587785	-0.450402
-7.264703	23.000000	-4.412945	-0.854671	0.000000	-0.519170
7.264703	23.000000	-4.412945	0.854671	0.000000	-0.519170
-6.980829	24.179075	-4.412734	-0.777260	0.393025	-0.491323
6.980829	24.179075	-4.412734	0.777260	0.393025	-0.491323
-7.264058	23.067314	-4.412553	-0.854456	0.022438	-0.519039
7.264058	23.067314	-4.412553	0.854456	0.022438	-0.519039
-4.402499	25.909069	-4.412319	-0.172582	0.969690	-0.172967
4.402499	25.909069	-4.412319	0.172582	0.969690	-0.172967
-5.769788	25.427052	-4.412015	-0.466919	0.809017	-0.357041
5.769788	25.427052	-4.412015	0.466919	0.809017	-0.357041
-6.843059	24.421606	-4.411489	-0.740128	0.473869	-0.477136
6.843059	24.421606	-4.411489	0.740128	0.473869	-0.477136
-7.262122	23.134594	-4.411377	-0.853810	0.044865	-0.518647
7.262122	23.134594	-4.411377	0.853810	0.044865	-0.518647
-3.612890	25.993204	-4.411080	-0.042624	0.997735	-0.052041
3.612890	25.993204	-4.411080	0.042624	0.997735	-0.052041
-7.117349	23.862799	-4.410748	-0.814098	0.287599	-0.504511
7.117349	23.862799	-4.410748	0.814098	0.287599	-0.504511
-6.215300	25.121321	-4.410734	-0.576656	0.707107	-0.409228
6.215300	25.121321	-4.410734	0.576656	0.707107	-0.409228
-5.559199	25.540173	-4.410202	-0.416803	0.846724	-0.330656
5.559199	25.540173	-4.410202	0.416803	0.846724	-0.330656
-7.258895	23.201807	-4.409417	-0.852735	0.067269	-0.517994
7.258895	23.201807	-4.409417	0.852735	0.067269	-0.517994
-4.023806	25.963064	-4.409259	-0.105450	0.987688	-0.115551
4.023806	25.963064	-4.409259	0.105450	0.987688	-0.115551
-6.096892	25.214357	-4.408930	-0.546702	0.738119	-0.395344
6.096892	25.214357	-4.408930	0.546702	0.738119	-0.395344
-6.330712	25.024012	-4.408332	-0.605730	0.674671	-0.421795
6.330712	25.024012	-4.408332	0.605730	0.674671	-0.421795
-5.259850	25.673019	-4.406885	-0.347994	0.891007	-0.291561
5.259850	25.673019	-4.406885	0.347994	0.891007	-0.291561
-7.254381	23.268917	-4.406675	-0.851230	0.089639	-0.517080
7.254381	23.268917	-4.406675	0.851230	0.089639	-0.517080
-3.292012	26.000000	-4.405979	-0.000000	1.000000	-0.000000
3.292012	26.000000	-4.405979	0.000000	1.000000	-0.000000
-4.317181	25.924784	-4.404632	-0.155761	0.974928	-0.158916
4.317181	25.924784	-4.404632	0.155761	0.974928	-0.158916
-7.248581	23.335894	-4.403152	-0.849297	0.111964	-0.515906
7.248581	23.335894	-4.403152	0.849297	0.111964	-0.515906
-5.975735	25.302935	-4.402952	-0.515950	0.767645	-0.380154
5.975735	25.302935	-4.402952	0.515950	0.767645	-0.380154
-6.442887	24.922626	-4.401704	-0.633845	0.640876	-0.433035
6.442887	24.922626	-4.401704	0.633845	0.640876	-0.433035
-7.100278	23.927052	-4.400169	-0.808408	0.309017	-0.500985
7.100278	23.927052	-4.400169	0.808408	0.309017	-0.500985
-3.411266	25.999245	-4.399801	-0.013748	0.999748	-0.017733
3.411266	25.999245	-4.399801	0.013748	0.999748	-0.017733
-7.241498	23.402700	-4.398849	-0.846936	0.134233	-0.514471
7.241498	23.402700	-4.398849	0.846936	0.134233	-0.514471
-6.957879	24.240675	-4.398227	-0.769610	0.413559	-0.486487
6.957879	24.240675	-4.398227	0.769610	0.413559	-0.486487
-5.344966	25.641787	-4.397723	-0.365928	0.880596	-0.301078
5.344966	25.641787	-4.397723	0.365928	0.880596	-0.301078
-3.734380	25.987923	-4.397137	-0.058026	0.995974	-0.068324
3.734380	25.987923	-4.397137	0.058026	0.995974	-0.068324
-6.688099	24.652691	-4.396460	-0.697389	0.550897	-0.458433
6.688099	24.652691	-4.396460	0.697389	0.550897	-0.458433
-4.232120	25.939026	-4.395536	-0.139127	0.979675	-0.144499
4.232120	25.939026	-4.395536	0.139127	0.979675	-0.144499
-3.939894	25.972849	-4.395350	-0.089597	0.990950	-0.099955
3.939894	25.972849	-4.395350	0.089597	0.990950	-0.099955
-5.642932	25.503719	-4.395259	-0.434616	0.834573	-0.338521
5.642932	25.503719	-4.395259	0.434616	0.834573	-0.338521
-6.815690	24.480524	-4.393846	-0.731005	0.493508	-0.471254
6.815690	24.480524	-4.393846	0.731005	0.493508	-0.471254
-7.233136	23.469303	-4.393770	-0.844149	0.156434	-0.512778
7.233136	23.469303	-4.393770	0.844149	0.156434	-0.512778
-5.852078	25.386873	-4.392845	-0.484482	0.795625	-0.363675
5.852078	25.386873	-4.392845	0.484482	0.795625	-0.363675
-6.551588	24.817369	-4.390840	-0.660921	0.605790	-0.442946
6.551588	24.817369	-4.390840	0.660921	0.605790	-0.442946
-3.531311	25.996979	-4.390729	-0.028118	0.998993	-0.034961
3.531311	25.996979	-4.390729	0.028118	0.998993	-0.034961
-7.081986	23.990837	-4.388834	-0.802310	0.330279	-0.497206
7.081986	23.990837	-4.388834	0.802310	0.330279	-0.497206
-7.223498	23.535671	-4.387916	-0.840936	0.178557	-0.510827
7.223498	23.535671	-4.387916	0.840936	0.178557	-0.510827
-5.429777	25.609224	-4.386940	-0.383874	0.869741	-0.310147
5.429777	25.609224	-4.386940	0.383874	0.869741	-0.310147
-4.784733	25.831650	-4.386034	-0.243466	0.943883	-0.223179
4.784733	25.831650	-4.386034	0.243466	0.943883	-0.223179
-4.870664	25.808704	-4.385565	-0.261122	0.936235	-0.235116
4.870664	25.808704	-4.385565	0.261122	0.936235	-0.235116
-4.147360	25.951788	-4.385057	-0.122694	0.983930	-0.129726
4.147360	25.951788	-4.385057	0.122694	0.983930	-0.129726
-4.698820	25.853170	-4.384984	-0.225922	0.951057	-0.210833
4.698820	25.853170	-4.384984	0.225922	0.951057	-0.210833
-4.956565	25.784346	-4.383558	-0.278877	0.928115	-0.246637
4.956565	25.784346	-4.383558	0.278877	0.928115	-0.246637
-6.933767	24.301651	-4.382985	-0.761572	0.433884	-0.481407
6.933767	24.301651	-4.382985	0.761572	0.433884	-0.481407
-6.176047	25.168385	-4.382878	-0.563572	0.722795	-0.399943
6.176047	25.168385	-4.382878	0.563572	0.722795	-0.399943
-4.612970	25.873253	-4.382432	-0.208507	0.957751	-0.198086
4.612970	25.873253	-4.382432	0.208507	0.957751	-0.198086
-6.292985	25.073189	-4.382061	-0.593155	0.691063	-0.413038
6.292985	25.073189	-4.382061	0.593155	0.691063	-0.413038
-7.212591	23.601768	-4.381289	-0.837300	0.200589	-0.508618
7.212591	23.601768	-4.381289	0.837300	0.200589	-0.508618
-3.856419	25.981136	-4.380147	-0.073987	0.993712	-0.084035
3.856419	25.981136	-4.380147	0.073987	0.993712	-0.084035
-5.042389	25.758583	-4.379995	-0.296715	0.919528	-0.257737
5.042389	25.758583	-4.379995	0.296715	0.919528	-0.257737
-6.056217	25.259214	-4.379516	-0.533144	0.753071	-0.385540
6.056217	25.259214	-4.379516	0.533144	0.753071	-0.385540
-3.652059	25.993204	-4.378706	-0.043086	0.997735	-0.051659
3.652059	25.993204	-4.378706	0.043086	0.997735	-0.051659
-5.726176	25.466005	-4.378666	-0.452381	0.822002	-0.345925
5.726176	25.466005	-4.378666	0.452381	0.822002	-0.345925
-4.527231	25.891888	-4.378399	-0.191234	0.963963	-0.184947
4.527231	25.891888	-4.378399	0.191234	0.963963	-0.184947
-6.406787	24.973816	-4.377041	-0.621811	0.657939	-0.424814
6.406787	24.973816	-4.377041	0.621811	0.657939	-0.424814
-7.062483	24.054125	-4.376747	-0.795809	0.351375	-0.493177
7.062483	24.054125	-4.376747	0.795809	0.351375	-0.493177
-3.331149	26.000000	-4.376465	-0.000000	1.000000	-0.000000
3.331149	26.000000	-4.376465	0.000000	1.000000	-0.000000
-6.656585	24.708454	-4.375744	-0.686885	0.569484	-0.451527
6.656585	24.708454	-4.375744	0.686885	0.569484	-0.451527
-6.787217	24.538698	-4.375490	-0.721514	0.512899	-0.465136
6.787217	24.538698	-4.375490	0.721514	0.512899	-0.465136
-5.128088	25.731432	-4.374863	-0.314622	0.910478	-0.268410
5.128088	25.731432	-4.374863	0.314622	0.910478	-0.268410
-5.514233	25.575346	-4.374529	-0.401814	0.858449	-0.318765
5.514233	25.575346	-4.374529	0.401814	0.858449	-0.318765
-7.200418	23.667562	-4.373895	-0.833243	0.222521	-0.506153
7.200418	23.667562	-4.373895	0.833243	0.222521	-0.506153
-4.062942	25.963064	-4.373223	-0.106475	0.987688	-0.114607
4.062942	25.963064	-4.373223	0.106475	0.987688	-0.114607
-4.441648	25.909069	-4.372908	-0.174117	0.969690	-0.171422
4.441648	25.909069	-4.372908	0.174117	0.969690	-0.171422
-5.933744	25.345495	-4.372013	-0.501953	0.781832	-0.369842
5.933744	25.345495	-4.372013	0.501953	0.781832	-0.369842
-3.450342	25.999245	-4.369225	-0.013906	0.999748	-0.017609
3.450342	25.999245	-4.369225	0.013906	0.999748	-0.017609
-5.213613	25.702906	-4.368146	-0.332581	0.900969	-0.278648
5.213613	25.702906	-4.368146	0.332581	0.900969	-0.278648
-6.517214	24.870470	-4.367803	-0.649464	0.623490	-0.435267
6.517214	24.870470	-4.367803	0.649464	0.623490	-0.435267
-6.908504	24.361971	-4.367016	-0.753151	0.453990	-0.476083
6.908504	24.361971	-4.367016	0.753151	0.453990	-0.476083
-4.356264	25.924784	-4.365981	-0.157171	0.974928	-0.157521
4.356264	25.924784	-4.365981	0.157171	0.974928	-0.157521
-7.186987	23.733021	-4.365736	-0.828766	0.244340	-0.503434
7.186987	23.733021	-4.365736	0.828766	0.244340	-0.503434
-7.041777	24.116880	-4.363915	-0.788907	0.372294	-0.488900
7.041777	24.116880	-4.363915	0.788907	0.372294	-0.488900
-3.773420	25.987923	-4.363681	-0.058633	0.995974	-0.067804
3.773420	25.987923	-4.363681	0.058633	0.995974	-0.067804
-5.598283	25.540173	-4.360482	-0.419733	0.846724	-0.326929
5.598283	25.540173	-4.360482	0.419733	0.846724	-0.326929
-5.808880	25.427052	-4.360419	-0.470082	0.809017	-0.352866
5.808880	25.427052	-4.360419	0.470082	0.809017	-0.352866
-3.978909	25.972849	-4.360063	-0.090484	0.990950	-0.099152
3.978909	25.972849	-4.360063	0.090484	0.990950	-0.099152
-5.298916	25.673019	-4.359833	-0.350578	0.891007	-0.288448
5.298916	25.673019	-4.359833	0.350578	0.891007	-0.288448
-3.570302	25.996979	-4.359083	-0.028428	0.998993	-0.034709
3.570302	25.996979	-4.359083	0.028428	0.998993	-0.034709
-4.271126	25.939026	-4.357644	-0.140409	0.979675	-0.143253
4.271126	25.939026	-4.357644	0.140409	0.979675	-0.143253
-7.172304	23.798111	-4.356817	-0.823871	0.266037	-0.500461
7.172304	23.798111	-4.356817	0.823871	0.266037	-0.500461
-6.757654	24.596096	-4.356431	-0.711660	0.532032	-0.458783
6.757654	24.596096	-4.356431	0.711660	0.532032	-0.458783
-6.254362	25.121321	-4.355167	-0.580280	0.707107	-0.404073
6.254362	25.121321	-4.355167	0.580280	0.707107	-0.404073
-6.135943	25.214357	-4.354418	-0.550204	0.738119	-0.390456
6.135943	25.214357	-4.354418	0.550204	0.738119	-0.390456
-6.624032	24.763355	-4.354346	-0.676034	0.587785	-0.444395
6.624032	24.763355	-4.354346	0.676034	0.587785	-0.444395
-6.369748	25.024012	-4.351737	-0.609465	0.674671	-0.416379
6.369748	25.024012	-4.351737	0.609465	0.674671	-0.416379
-7.019879	24.179075	-4.350344	-0.781608	0.393025	-0.484376
7.019879	24.179075	-4.350344	0.781608	0.393025	-0.484376
-6.882103	24.421606	-4.350327	-0.744351	0.473869	-0.470521
6.882103	24.421606	-4.350327	0.744351	0.473869	-0.470521
-5.383947	25.641787	-4.349913	-0.368597	0.880596	-0.297805
5.383947	25.641787	-4.349913	0.368597	0.880596	-0.297805
-6.014737	25.302935	-4.349520	-0.519317	0.767645	-0.375541
6.014737	25.302935	-4.349520	0.519317	0.767645	-0.375541
-7.303744	23.000000	-4.348026	-0.859264	0.000000	-0.511532
7.303744	23.000000	-4.348026	0.859264	0.000000	-0.511532
