-0.220823 0.566943 0.125464
0.193518 0.793133 -0.110059
0.180177 -0.638328 0.024309
-0.054910 0.407056 -0.174837
-0.048360 -0.798776 -0.176533
0.162314 -0.758481 -0.085106
-0.173272 -0.566562 0.047096
-0.115414 -0.983178 -0.099655
0.073306 0.694198 -0.247786
-0.114497 0.624911 -0.231750
-0.254622 0.646068 -0.026310
-0.178208 -0.116405 -0.029974
-0.142443 -0.054761 0.108533
0.074918 -0.197818 -0.167916
-0.115641 0.116705 0.136317
0.092004 -0.865596 0.154126
0.155245 0.793133 0.144497
-0.109125 -0.423406 -0.146040
-0.090136 0.755299 -0.241539
0.179151 0.608565 -0.186167
0.161563 0.191542 -0.086857
0.234641 0.775135 -0.106476
-0.132957 0.793133 -0.195283
-0.167698 -0.173380 0.064863
0.194129 0.557718 0.151783
0.160404 -0.251453 -0.089558
0.032251 0.123220 -0.180626
-0.129843 0.557718 0.162180
-0.135377 -0.772488 -0.121445
-0.098923 0.557718 0.190050
0.233569 0.696877 -0.108848
0.017563 0.793133 0.158776
-0.143712 -0.389181 -0.111736
-0.036132 -0.983178 0.000677
0.130354 0.075566 -0.128975
0.017803 0.378653 -0.182839
-0.176839 -0.125927 -0.040410
0.136624 0.793133 0.020606
0.178305 -0.183024 -0.038099
-0.026766 -0.983178 -0.070676
-0.177441 -0.096153 -0.037510
0.007504 0.714287 0.254062
0.240440 0.683373 -0.093648
-0.098383 0.220701 -0.154355
-0.212316 0.793133 -0.124663
0.072634 0.793133 -0.124147
-0.241208 0.662421 -0.085244
-0.128214 0.506072 -0.129789
-0.171310 0.152050 0.053352
0.181763 -0.574020 0.016591
0.175798 -0.367478 0.045616
-0.176365 -0.067177 0.037239
-0.006438 0.376465 0.178499
-0.110590 0.121374 -0.144907
-0.195678 0.557718 0.095973
-0.127886 -0.749308 0.125491
0.016151 0.749165 -0.258367
0.154993 -0.923220 0.093060
0.044648 0.793133 0.024170
-0.179297 -0.499604 0.014583
0.147938 0.652071 -0.211860
-0.249483 0.573582 0.051596
-0.183832 0.557718 0.084108
0.099633 -0.390828 0.149370
-0.132266 0.355580 -0.125069
0.174452 -0.669601 -0.056821
-0.025976 0.473920 0.177508
-0.177716 0.519285 -0.034813
0.038372 0.007627 -0.179688
-0.018312 0.371233 -0.182577
0.041144 0.793133 -0.104316
0.067398 -0.546994 0.166021
0.146345 -0.804293 -0.110165
0.099497 -0.539444 -0.154135
-0.157389 0.793133 -0.086729
-0.177547 -0.604414 -0.036474
-0.017897 0.115702 0.177918
-0.254997 0.792285 -0.011102
0.154312 0.104316 0.094038
-0.108712 -0.693449 -0.146360
-0.143932 -0.688516 -0.111480
-0.135511 -0.775736 0.116609
0.087596 -0.863107 -0.161554
-0.112432 -0.983178 0.108163
0.075067 -0.273444 -0.167861
-0.020212 -0.189710 -0.182480
0.089232 -0.331796 -0.160534
-0.105791 0.757026 0.230568
0.170564 0.601574 0.190446
0.109974 0.692920 -0.233919
0.041751 0.232262 -0.179170
0.147669 0.295373 0.103582
-0.077882 0.793133 0.200814
-0.167005 0.014015 0.067070
0.051113 -0.344972 -0.176732
-0.010679 0.793133 -0.061708
-0.115734 -0.894022 0.136245
0.111489 0.124309 -0.146661
-0.045709 0.557718 -0.212279
-0.150085 -0.983178 0.010107
0.161487 0.022385 0.082354
0.242738 0.793133 0.010052
-0.057973 0.191042 0.169364
-0.047330 -0.208165 0.172120
-0.142657 -0.151022 0.108285
0.119501 0.263634 0.134612
0.125428 0.299921 0.128977
0.102892 0.557718 -0.209099
-0.036704 -0.158500 0.174871
-0.064992 0.557718 0.169371
-0.121368 -0.163104 0.131884
0.056371 0.547982 0.170104
-0.140516 0.326541 -0.115458
-0.179449 -0.178607 -0.017764
-0.178867 0.001823 -0.023488
0.150006 -0.206746 -0.104905
-0.069716 -0.195762 0.164602
-0.094170 0.793133 0.222587
-0.160257 0.581078 -0.201392
0.077150 0.321919 -0.167089
-0.088769 0.571978 0.237408
-0.166224 -0.244506 -0.074171
0.124486 0.161792 0.129873
0.110276 -0.271510 0.142737
0.156999 0.793133 0.172541
-0.094653 0.541171 0.152370
0.004902 -0.737296 -0.183754
0.227673 0.769369 0.117210
0.074888 -0.374584 0.163247
-0.050924 -0.983178 0.113558
0.212683 0.557718 0.004324
0.048070 0.396349 0.173179
-0.125117 -0.475556 0.128716
-0.146594 0.226245 -0.108379
-0.170157 0.051036 -0.061705
-0.133166 0.785215 0.215624
-0.120537 0.309218 0.132527
0.163489 -0.450095 -0.082368
-0.099281 0.405842 0.148981
-0.147766 -0.649784 -0.107013
-0.241881 0.667422 0.078660
-0.130695 0.097074 -0.126899
-0.179403 0.793133 -0.025685
0.181872 -0.294734 -0.008650
0.152120 -0.482115 -0.101867
0.106578 -0.448566 0.145042
-0.186974 0.793133 0.081775
-0.247878 0.711241 -0.065637
-0.017663 0.793133 0.111976
0.110923 0.099010 0.142334
0.087865 -0.515578 0.156706
-0.153251 -0.161690 -0.097542
-0.107530 -0.175583 0.142595
0.176984 0.505341 0.039847
0.176473 0.328993 -0.047016
-0.132619 0.140496 0.119977
0.160012 0.548300 0.085790
0.094795 0.244281 -0.157067
0.153993 0.312061 -0.099177
0.006310 0.425941 0.179145
-0.177316 0.397852 -0.038742
-0.161437 -0.783821 0.078115
-0.062879 -0.572328 -0.172637
0.175409 -0.669749 -0.052190
0.171616 0.687165 0.189349
0.093581 -0.133950 0.153143
0.039538 0.786049 0.250692
0.029748 -0.904360 -0.181009
-0.251614 0.781779 0.039167
0.181872 0.358421 0.001136
-0.069335 -0.321319 0.164790
-0.076217 -0.028772 0.161414
0.177742 -0.551025 0.036157
0.141641 0.469664 0.112244
0.023547 -0.900293 -0.181959
-0.123858 0.793133 0.060805
-0.169623 -0.441321 -0.063406
0.176610 -0.464464 0.041666
-0.203776 0.793133 -0.044633
-0.053782 -0.622660 0.170449
-0.021807 -0.609793 0.177719
0.118817 -0.575438 -0.139942
0.089465 0.766140 0.238157
-0.072842 -0.291641 -0.167749
0.053437 -0.392692 -0.175872
0.177608 -0.612120 0.036810
-0.135033 -0.126643 -0.121846
0.165866 0.357035 0.072148
-0.171169 0.533175 -0.058481
0.181872 0.308205 0.002030
0.152168 0.612143 0.204051
0.123377 -0.746304 -0.135607
-0.103330 -0.524370 0.145846
-0.179635 0.457942 0.011260
-0.070062 -0.261686 0.164433
0.054933 0.382662 -0.175317
-0.079220 0.232451 -0.164621
0.126701 -0.841310 0.127768
-0.180172 -0.056304 -0.010656
0.118955 -0.687803 0.135131
0.123180 -0.877875 0.131114
0.218774 0.579140 0.132264
0.201418 0.557718 0.007637
-0.162885 0.566878 0.194398
0.115092 0.778570 0.226658
0.036732 0.284600 0.175259
-0.023934 -0.913358 0.177611
0.174037 0.690239 0.186822
-0.161510 -0.909083 -0.082664
-0.018803 -0.333464 0.177872
0.004163 0.089510 0.179036
0.014603 0.793133 0.211042
-0.237426 0.771517 -0.095948
0.080347 0.542826 0.161225
0.062675 -0.647583 -0.172450
-0.153092 0.026314 -0.097830
-0.131870 -0.920838 0.120850
-0.046486 -0.130367 -0.177019
0.092408 -0.256282 -0.158554
-0.124392 -0.233994 -0.134223
0.117651 0.060190 0.136370
-0.082804 0.793133 -0.239529
0.100020 -0.980460 -0.153810
-0.104716 -0.098549 0.144774
-0.119289 -0.983178 0.030687
-0.209289 0.793133 0.011840
0.166628 -0.324841 0.070374
-0.206419 0.594290 0.148234
0.061495 0.793133 0.194022
-0.170231 0.793133 0.136540
-0.087690 -0.283184 -0.160466
0.065012 0.793133 0.088332
-0.173572 -0.790754 -0.050821
-0.019136 0.517558 0.177855
0.019875 0.251585 -0.182522
-0.115797 -0.759487 -0.140876
-0.052643 -0.983178 -0.040140
-0.115106 -0.588149 0.136731
-0.162397 0.094159 0.076384
-0.224588 0.752492 -0.123404
0.131100 -0.734983 0.123585
0.177774 -0.807176 -0.040683
0.109949 0.705646 0.229251
-0.054661 -0.324744 0.170222
0.062847 0.255313 -0.172386
-0.036936 -0.594988 -0.179491
0.132884 0.184110 0.121890
-0.094965 0.349210 -0.156898
-0.149376 -0.761548 0.099844
-0.173173 0.557718 -0.087969
-0.176141 0.793133 -0.013752
-0.162182 -0.721860 -0.081452
0.028500 0.557718 -0.196339
0.180013 -0.502150 -0.029787
0.087987 -0.738840 -0.161310
0.178330 -0.269162 0.033297
0.181872 -0.726158 0.015276
0.161876 0.576714 0.196871
0.101377 -0.621265 0.148283
0.099343 -0.598186 0.149551
-0.055255 0.793133 0.156717
-0.135223 0.014731 -0.121624
-0.177589 -0.288663 0.031376
-0.177633 0.410050 0.030948
0.021959 -0.983178 0.116642
0.117038 0.528158 -0.141633
0.057804 0.226750 -0.174254
-0.128877 -0.392946 0.124336
-0.052166 -0.854771 -0.175548
0.014985 0.793133 0.051183
0.239329 0.590002 0.091425
0.229527 0.625404 0.113108
0.083294 -0.805942 0.159555
-0.170503 -0.833601 -0.060602
0.042921 -0.652905 -0.178991
-0.090805 0.451180 0.154258
-0.147667 0.557718 0.104349
0.123937 -0.016179 0.130395
-0.124611 -0.602947 -0.133986
0.098212 0.793133 -0.007608
-0.193013 0.783508 -0.169519
0.098778 -0.350013 -0.154584
0.085461 -0.271241 0.158204
-0.179997 -0.793847 0.007700
-0.001565 -0.596380 0.178746
-0.237931 0.783612 -0.094519
-0.170256 -0.160574 -0.061391
0.046630 0.793133 0.009107
0.056509 0.046656 0.170054
-0.157183 0.793133 0.136317
0.012084 -0.454066 0.179035
-0.179481 0.047569 0.012775
0.000103 0.137251 0.178830
0.177185 -0.163098 -0.043551
-0.005585 -0.983178 0.141682
0.114808 0.788114 0.226801
-0.085720 0.006433 -0.161432
-0.088271 0.238879 0.155501
-0.099376 -0.983178 0.086744
0.170170 0.114937 0.062121
-0.094370 -0.467136 0.152509
0.113498 -0.629218 -0.144998
0.003522 0.557718 0.191898
-0.031422 0.474810 0.176239
0.164758 -0.061810 0.074732
0.188993 0.718698 0.171217
0.076339 -0.047360 0.162709
0.010650 0.591436 -0.258876
-0.174190 0.129013 -0.048851
0.180649 -0.844503 0.022014
-0.111676 -0.218624 -0.144066
0.178660 -0.440703 0.031689
0.179992 0.421728 -0.029889
0.243734 0.674666 -0.085230
0.176970 -0.281934 0.039917
0.002663 0.793133 -0.043535
0.156989 -0.877101 -0.094872
0.181872 -0.380260 -0.010299
-0.061207 0.152131 0.168527
-0.025241 -0.678625 -0.182225
0.149659 -0.459593 0.100723
0.085186 0.066705 0.158376
-0.147242 -0.983178 0.054901
0.120548 -0.331516 -0.138296
-0.170381 -0.811826 -0.060991
-0.041583 -0.983178 -0.073639
0.043697 0.204151 -0.178872
-0.122482 0.636812 -0.226882
-0.158099 -0.644167 0.084128
0.041334 0.620507 0.250462
0.052816 -0.850951 0.171421
-0.220156 0.739984 -0.131337
0.096801 0.037345 -0.155816
-0.176325 -0.227578 -0.042045
-0.036324 0.680351 -0.256085
0.154713 0.790717 0.202169
-0.137269 0.044204 -0.119241
0.024285 -0.112819 -0.181846
0.179508 -0.541572 -0.032247
0.087571 0.043761 0.156889
-0.013156 0.793133 -0.159690
-0.177600 0.555171 -0.035954
0.092927 0.793133 -0.006947
0.132103 0.767844 -0.222761
-0.125263 -0.446789 -0.133226
0.095787 -0.983178 -0.154226
0.161321 -0.147499 -0.087422
0.038893 -0.568193 0.174928
-0.142391 -0.682635 0.108594
0.176174 -0.567319 -0.048470
0.095876 -0.488188 0.151712
0.033384 0.393002 0.175772
-0.112519 0.229272 0.138733
-0.010384 -0.592834 -0.182979
0.066721 0.564803 -0.249802
0.181872 -0.498972 0.013453
0.163022 0.001101 0.078777
0.003786 -0.283879 0.179017
-0.121506 -0.668001 -0.136457
-0.172273 -0.766163 -0.054961
-0.160583 0.145602 -0.084334
-0.180846 0.396805 -0.000647
-0.087325 -0.304291 0.155965
-0.223857 0.791759 -0.124713
-0.027673 -0.566242 -0.181890
0.189259 0.749198 -0.175621
0.181872 -0.407461 0.008986
-0.100476 -0.451892 -0.152736
-0.190689 0.557718 -0.156662
-0.103750 0.399989 0.145521
0.003807 -0.258095 0.179018
0.232686 0.779220 0.106120
0.255827 0.785035 0.019774
0.123702 0.561640 0.222317
-0.179362 -0.168682 0.013940
-0.019990 0.793133 -0.042861
-0.154165 0.491170 -0.095897
-0.227101 0.793133 -0.028509
-0.129201 -0.436125 -0.128640
0.084095 0.536317 -0.163736
-0.159651 0.464865 0.081331
0.068224 -0.977992 0.165715
-0.168957 0.335034 -0.065529
0.161068 -0.162940 -0.088011
0.144724 0.373815 -0.112493
0.003185 -0.398255 -0.183667
0.086063 -0.149916 0.157829
0.164140 -0.625186 -0.080852
-0.121958 0.557718 -0.165696
-0.168013 -0.571515 0.063857
0.081354 -0.786885 0.160764
-0.168792 0.260928 -0.066057
-0.063894 -0.983178 -0.031421
0.018245 -0.622838 -0.182771
0.172777 0.408454 -0.060725
-0.076736 0.135964 0.161159
0.083171 -0.962922 0.159631
0.085708 -0.651213 0.158050
-0.034232 0.408058 -0.180191
0.181872 0.356348 0.013754
-0.084663 0.793133 0.006513
0.178141 0.752381 -0.187221
-0.127107 -0.500018 -0.131078
0.093031 0.233046 0.153486
-0.169934 -0.880719 -0.062417
0.105958 -0.801245 -0.150109
0.175133 0.016928 0.048855
-0.233106 0.783987 -0.108155
-0.039062 -0.647418 0.174261
0.125984 -0.279480 0.128449
0.128083 0.569367 0.220108
-0.233765 0.557718 0.088497
0.050148 -0.151953 -0.177090
0.050486 -0.360600 0.172284
-0.167114 -0.630656 -0.071405
0.079395 -0.883428 -0.166258
-0.168579 -0.333416 -0.066735
-0.178405 0.082975 -0.028030
-0.080992 0.793133 -0.058853
0.137761 -0.466429 -0.121934
0.167307 0.451879 -0.073473
-0.123165 0.460365 -0.135173
-0.047779 -0.102225 0.172004
0.002480 -0.983178 0.094172
0.139079 0.282601 0.115923
-0.031059 -0.677296 -0.181013
-0.154753 0.068980 0.090157
0.164064 -0.983178 -0.069287
0.076824 0.196190 -0.167210
0.033838 -0.162295 -0.180383
0.175649 0.191405 -0.051023
-0.142024 -0.783554 -0.113702
-0.199872 0.563053 0.156343
-0.106086 -0.801294 0.143713
0.009377 0.775743 0.254142
0.108144 0.749778 0.230161
0.135583 -0.554142 -0.124005
-0.136368 0.456120 -0.120291
0.160076 0.573919 -0.202882
0.235624 0.573769 0.099620
0.041656 0.793133 0.129260
0.181976 0.557718 0.104291
0.144522 0.071209 -0.112784
0.083222 -0.012776 0.159600
0.179226 0.253381 0.028938
-0.112150 -0.587058 0.139019
0.079840 -0.932256 0.161413
-0.111705 0.258345 -0.144044
0.157818 0.077758 -0.093681
-0.056813 0.558254 -0.251669
-0.093430 0.793133 0.122770
-0.053883 0.793133 -0.126309
-0.133014 0.793133 -0.087795
-0.223545 0.744179 -0.125271
-0.161234 0.577527 -0.200532
-0.218943 0.558512 -0.133509
-0.155682 -0.190479 0.088483
-0.033562 0.309720 -0.180365
-0.162228 0.793133 0.089033
-0.128545 0.387940 0.124722
0.226865 0.793133 -0.067856
-0.114472 -0.247221 0.137222
-0.172365 -0.254794 -0.054667
0.111938 0.725550 0.228248
-0.096940 0.457218 -0.155472
-0.178343 -0.931227 0.023959
0.013572 0.214379 0.178807
0.063492 -0.626446 -0.172148
-0.097443 -0.294670 -0.155083
-0.158781 -0.922339 0.082900
-0.172245 0.557718 -0.102835
-0.026816 -0.596282 0.177431
-0.087215 0.327798 -0.160699
-0.074951 0.793133 -0.221153
-0.151696 -0.039109 -0.100344
-0.130982 0.181152 -0.126564
0.181872 0.062355 -0.014384
-0.045883 0.793133 0.246570
0.127452 -0.983178 -0.018547
-0.101532 0.634864 0.232279
0.026989 0.793133 0.016772
-0.172977 -0.009663 0.048037
-0.128718 0.292628 0.124522
-0.106285 0.231680 0.143559
-0.153996 -0.127057 0.091521
0.123919 0.250983 0.130412
-0.145714 0.558265 0.207897
-0.041334 -0.983178 0.100987
0.080995 -0.649340 0.160985
-0.064821 0.793133 0.039873
0.181872 -0.756856 -0.007133
0.089804 0.437202 -0.160177
0.176206 0.279882 0.043633
-0.117979 -0.043915 0.134507
0.181872 -0.580688 0.010425
0.069552 -0.495335 0.165223
0.172156 -0.164776 -0.062172
0.168252 -0.120715 -0.071269
-0.251263 0.752584 -0.045896
0.179966 0.637184 -0.185317
0.177576 -0.889429 0.036969
-0.019840 0.793133 0.240239
0.093046 0.511698 0.153476
0.179524 0.283925 0.027486
-0.222844 0.557718 0.105091
-0.197474 0.678830 0.159313
0.033489 0.152754 -0.180436
0.175756 -0.777314 -0.050501
0.138146 0.352370 -0.121568
-0.177908 -0.696425 -0.032924
0.175870 0.075413 0.045269
0.003297 0.221009 -0.183673
-0.170164 -0.838178 0.057005
-0.093589 -0.896199 -0.157573
0.127324 0.426097 -0.131856
0.101452 -0.168734 -0.152917
0.252059 0.676661 -0.053257
0.170987 -0.113923 -0.064897
-0.072152 -0.667542 -0.168088
-0.025666 0.040208 -0.182204
0.181352 -0.944598 -0.023271
0.085118 -0.202853 -0.163098
0.177900 -0.452297 0.035392
-0.064528 -0.710145 -0.171828
-0.062521 0.793133 0.195605
0.254287 0.594318 -0.042552
0.045626 -0.476689 0.173897
0.079600 0.062123 0.161501
-0.122551 0.639436 -0.226840
-0.174833 0.262639 -0.046803
-0.013084 -0.787123 -0.182842
-0.124184 0.571617 -0.225834
-0.163685 0.498629 0.074063
-0.010678 0.673441 0.253290
-0.024126 -0.143514 0.177602
0.057183 0.793133 0.222419
-0.146116 0.218273 0.104255
0.022441 0.793133 0.005438
0.195690 0.557718 0.144885
-0.125393 -0.983178 0.031445
0.131915 -0.629850 0.122811
-0.050337 0.261776 -0.176021
-0.053502 0.557718 -0.214134
-0.116879 0.473615 0.135358
0.116030 0.046249 -0.142591
0.181872 -0.877715 -0.013244
-0.177422 -0.529669 0.033016
-0.101311 0.124131 0.147409
-0.087823 0.634394 0.237788
0.144269 -0.332249 -0.113148
-0.160253 -0.054684 -0.084927
0.164505 -0.418742 -0.080001
-0.046152 0.252319 -0.177105
-0.159587 -0.806703 -0.086128
-0.170850 0.590175 0.187388
-0.144353 0.527569 0.106309
-0.124873 0.342732 -0.133681
-0.173212 0.114101 0.047289
-0.050081 -0.381253 -0.176088
0.164939 0.275884 0.074310
-0.177953 0.193169 0.027799
0.181872 -0.642880 -0.007973
0.126262 -0.634036 -0.132865
0.129716 -0.983178 0.010745
-0.074420 0.557718 0.223781
-0.186124 0.571834 -0.178050
-0.059109 0.374447 -0.173750
-0.079722 -0.812268 -0.164375
0.250030 0.713046 0.056367
0.175091 0.557718 -0.102556
0.061478 -0.430462 0.168213
0.183284 0.557718 0.092501
0.141651 -0.221509 0.112229
0.163612 -0.636366 0.077401
-0.225014 0.650197 0.117960
-0.125275 -0.919736 0.128532
0.181872 -0.068953 -0.019195
0.103537 0.334096 0.146937
-0.106083 0.466438 0.143715
0.090068 0.021170 -0.160013
0.130710 0.751004 0.218784
0.181872 0.371219 -0.002008
-0.086475 0.707249 -0.243010
0.072571 -0.154531 -0.168785
0.090458 -0.642956 0.155089
-0.066139 0.793133 -0.052327
0.040393 -0.862731 0.174698
0.051240 0.242659 0.172005
-0.170248 0.527051 -0.061416
-0.132217 -0.674374 -0.125126
0.153889 0.441606 -0.099326
0.167345 0.066117 0.068704
0.200438 0.557718 -0.032171
0.178693 -0.516753 -0.036209
-0.148540 0.637278 -0.210838
0.033928 0.612027 0.251410
0.115167 -0.446986 0.138731
-0.035420 -0.164442 -0.179884
0.153030 -0.331408 0.095880
-0.178526 -0.548990 0.022161
0.025325 -0.471584 -0.181687
-0.025408 0.557718 -0.199151
0.149188 0.499455 -0.106080
-0.131748 -0.409968 -0.125672
0.067601 -0.126860 0.165946
-0.176789 0.071830 0.035888
-0.019347 -0.961019 -0.182524
-0.249462 0.675339 0.051721
-0.141892 0.793133 0.083497
-0.086726 0.244754 -0.160939
0.177881 0.330323 -0.040163
-0.156450 -0.536737 -0.091780
0.108315 0.608160 -0.234755
0.100767 -0.618470 -0.153344
-0.164788 0.270057 0.072077
-0.007131 -0.352863 0.178464
-0.126034 0.557718 -0.165731
-0.027608 0.508077 -0.181906
0.007620 -0.570014 -0.183892
0.030603 0.428044 -0.180878
-0.106758 0.300007 0.143193
0.113236 0.247217 0.140567
0.163052 -0.068394 0.078707
0.076624 0.376115 -0.167284
0.074991 -0.154859 0.163209
-0.158830 -0.818709 0.082812
0.238392 0.583932 -0.098178
0.181872 -0.805157 -0.004146
-0.195865 0.557718 -0.059215
-0.006189 -0.230044 0.178511
0.051463 -0.390874 0.171922
0.145065 -0.884529 -0.112004
0.243821 0.713281 -0.084895
0.175228 -0.211200 0.048394
0.125110 -0.842654 -0.133960
-0.166415 -0.948372 0.068953
-0.131446 0.496721 -0.126025
-0.136289 0.447482 -0.120382
-0.153977 0.557718 -0.176185
-0.045950 0.061397 0.172477
-0.164951 0.157408 -0.076464
0.072445 0.427610 -0.168832
-0.026340 -0.772659 -0.182170
-0.059820 -0.627039 -0.173566
-0.058793 0.466323 -0.173832
0.170602 -0.185136 -0.065794
-0.174133 -0.983178 -0.031917
-0.095681 -0.983178 0.057238
0.097825 -0.775179 0.150498
0.167202 -0.418117 0.069037
0.217860 0.793133 -0.058391
-0.052056 0.615651 0.248014
-0.050274 0.793133 -0.241305
-0.167786 -0.419465 -0.069262
0.157293 -0.862366 0.089755
-0.122296 0.793133 -0.226457
0.024781 -0.893919 -0.181770
-0.165845 0.545881 -0.074853
0.114125 -0.894395 0.139721
-0.149153 -0.773871 0.100247
0.088391 0.464677 -0.161058
0.249020 0.791270 -0.064929
0.071175 0.439365 -0.169302
0.136252 -0.460791 -0.123368
0.160765 0.534358 -0.088717
0.170724 -0.365540 -0.065509
-0.022885 -0.824788 0.177665
-0.030606 0.450118 -0.181130
-0.064275 -0.147938 -0.171952
0.255821 0.567614 0.019854
-0.207686 0.645412 -0.151346
0.180006 -0.979733 0.025140
0.149603 -0.983178 0.082523
-0.006497 0.113232 -0.183176
0.047036 -0.904680 0.173562
0.003626 -0.983178 -0.077768
0.150050 0.117202 -0.104842
0.112234 0.793133 -0.121575
-0.151598 0.427392 0.095841
0.071019 -0.735339 -0.169360
-0.089088 -0.798740 -0.159780
0.173004 0.495577 0.055517
-0.121344 -0.426357 -0.136583
0.040774 0.194452 0.174640
-0.044844 0.080592 0.172763
0.218731 0.720383 -0.137008
0.175159 -0.604342 -0.053409
-0.061030 -0.953384 -0.173253
-0.137934 0.581609 0.212688
0.146142 0.202335 0.105777
0.165053 -0.351075 0.074043
0.079333 0.054122 0.161600
0.181872 -0.561381 -0.014596
-0.116058 0.646387 -0.230838
0.162573 0.225307 -0.084502
-0.063521 -0.971035 0.167641
-0.102515 -0.983178 0.097116
0.089346 0.712154 0.238193
-0.053851 -0.338491 -0.175112
-0.118308 0.130300 0.134252
0.162259 -0.197201 -0.085234
-0.116644 -0.458929 0.135540
0.181401 0.390744 -0.023036
0.112433 0.586318 -0.232679
-0.224311 0.663381 -0.123900
0.163361 0.278177 0.077986
0.161102 0.793133 0.078833
0.255210 0.645190 0.027031
-0.043421 -0.082681 0.173132
0.176268 -0.773582 0.043329
-0.174264 0.491132 0.043936
0.083756 0.029952 0.159267
-0.179406 -0.414912 0.013507
-0.039398 -0.983178 -0.056628
0.016458 -0.629978 -0.183045
0.112527 0.050557 -0.145921
-0.162234 0.073122 -0.081358
-0.005238 -0.844434 -0.183240
0.089431 0.315069 -0.160410
-0.134318 -0.177429 -0.122679
0.100442 0.583653 -0.238725
0.162951 -0.264436 -0.083622
0.161112 0.005263 0.083226
0.174622 0.073068 0.051343
-0.111917 0.037943 0.139200
0.245636 0.708097 -0.077926
0.164155 -0.665061 -0.080816
-0.112281 0.736666 0.227960
-0.066570 -0.754266 -0.170826
0.000769 -0.224887 0.178864
-0.059456 0.276648 -0.173660
0.014869 -0.304868 -0.183289
-0.013070 0.134269 0.178162
-0.168978 0.233601 -0.065462
-0.062275 -0.132604 -0.172931
-0.251637 0.721889 0.039037
0.143209 -0.915386 0.109990
0.149845 0.735639 -0.210449
0.058315 0.216873 0.169385
0.147866 0.793133 -0.117792
-0.060753 0.793133 -0.215893
0.116999 -0.194452 -0.141670
-0.153502 0.751973 -0.207337
-0.074459 0.463198 0.162276
-0.161932 -0.310182 -0.081903
-0.047674 -0.868883 0.172031
0.118988 -0.830968 0.135099
0.026499 0.289281 -0.181507
-0.136791 -0.130250 0.115118
-0.148833 -0.335890 -0.105504
-0.193182 0.687438 0.164629
0.160632 0.557718 0.150969
0.069825 -0.407928 -0.169802
-0.091018 -0.154533 -0.158834
0.053452 -0.681876 0.171186
0.035872 -0.645908 -0.180071
0.159521 -0.340752 -0.091234
-0.054059 -0.203374 0.170378
0.026818 -0.247627 0.176778
0.092061 0.793133 -0.089255
-0.137065 0.259308 0.114799
-0.156610 -0.663566 0.086810
0.126566 -0.726847 -0.132576
-0.032999 -0.667540 0.175830
-0.023241 -0.983178 -0.044376
0.052414 0.112304 -0.176250
-0.179795 0.445267 -0.014359
-0.124599 -0.476911 -0.133999
0.171585 -0.589050 0.058821
-0.063195 -0.449817 -0.172482
0.025761 0.196850 0.176940
0.172999 0.793133 0.182728
-0.176357 0.433409 0.037266
0.127378 -0.350105 -0.131804
0.253864 0.707113 -0.046323
0.017067 0.380647 0.178271
0.067771 -0.746943 0.165883
0.226812 0.697656 -0.123795
-0.166391 -0.481924 -0.073709
-0.201593 0.557718 -0.110039
-0.137689 -0.056076 0.114072
0.016556 -0.973599 -0.183030
-0.084638 -0.267499 0.157283
-0.161214 0.081681 -0.083196
-0.001446 -0.340597 0.178752
-0.040628 0.482464 -0.178535
0.137397 0.561100 0.214976
-0.101386 0.793133 -0.189369
-0.068656 0.025746 -0.169803
-0.153167 0.557718 -0.112839
0.208092 0.585979 0.148068
-0.087489 -0.983178 -0.074024
-0.090406 0.313021 -0.159134
0.069809 -0.766108 0.165128
-0.169941 -0.777361 -0.062394
-0.106522 -0.964197 0.143375
-0.229369 0.793133 -0.015602
0.181872 -0.244463 -0.006361
-0.129877 0.119376 0.123172
-0.141443 0.453223 0.109699
-0.042631 0.108554 0.173336
-0.177692 -0.628841 0.030364
-0.245946 0.659387 -0.071834
-0.162881 -0.718143 0.075514
0.002670 0.061228 -0.183641
0.181872 0.357444 -0.020138
0.171384 0.105187 -0.063971
-0.248639 0.573325 0.056521
0.079989 -0.778331 0.161358
-0.112981 -0.262945 0.138376
-0.130629 -0.878957 0.122295
-0.180800 -0.774353 -0.004480
-0.024573 0.153007 0.177579
-0.110578 -0.870863 0.140236
-0.170145 -0.363059 0.057064
-0.126087 -0.983178 -0.102855
0.033079 -0.495032 -0.180499
0.046997 0.690677 0.249736
0.023426 0.497569 -0.181978
-0.022913 -0.079352 0.177663
-0.235287 0.673826 0.097323
0.164725 -0.413615 0.074807
0.074500 0.396169 0.163390
0.191767 0.793133 0.030125
0.169147 -0.647077 -0.069183
0.069582 0.324051 0.165212
0.058429 -0.983178 0.144649
-0.172040 0.757517 -0.191021
0.246152 0.725269 0.071263
0.017880 -0.911970 0.178147
-0.163308 -0.124060 -0.079423
0.166387 0.776348 0.193535
0.179256 -0.681795 0.028791
0.062094 0.793133 0.152601
-0.212060 0.566856 0.141149
-0.161570 -0.529818 0.077876
0.166282 -0.264313 -0.075860
0.184419 0.642848 -0.180671
0.169696 -0.294893 -0.067906
-0.145953 -0.312654 0.104445
-0.172013 0.013487 -0.055790
0.194842 0.696474 -0.169795
-0.171827 -0.662622 -0.056384
0.225738 0.768135 -0.126172
-0.042368 -0.781027 0.173404
-0.025208 0.191827 0.177547
0.174834 -0.882424 0.050307
0.181872 0.273986 0.003171
-0.178716 -0.648411 -0.024975
0.142890 0.431699 0.110449
-0.098861 -0.890609 -0.153986
0.111308 0.793133 -0.177870
-0.229916 0.755594 0.109186
-0.162908 0.405888 -0.080145
0.180399 0.428519 -0.027912
-0.104482 0.783910 -0.235774
-0.177950 -0.045062 0.027828
0.181872 -0.155485 -0.012748
0.248385 0.790653 -0.067365
-0.180659 0.446379 0.001184
-0.123384 -0.917203 -0.135003
0.181872 0.008957 -0.018931
0.046772 0.793133 0.245372
-0.062806 -0.090366 -0.172673
0.167084 -0.368543 0.069310
-0.173889 -0.427425 0.045132
0.253550 0.777200 0.042849
-0.023019 0.793133 -0.230832
0.078447 0.203055 0.161929
0.143244 0.702107 -0.215332
-0.145975 -0.983178 0.035553
-0.099134 -0.924988 -0.153775
-0.093448 0.557718 -0.239142
0.241332 0.780911 0.086993
-0.164570 0.274113 -0.077150
0.043323 -0.983178 -0.045920
-0.199303 0.758214 0.157048
-0.005423 -0.563622 -0.183230
0.177228 0.551144 -0.043339
-0.089108 -0.895089 0.155090
-0.046715 -0.701369 -0.176959
-0.164838 -0.472840 0.071988
0.158390 -0.566641 -0.092860
-0.164411 -0.983178 -0.035081
-0.116814 0.029029 -0.140089
-0.135466 -0.573423 0.116661
0.056552 0.555476 0.170038
-0.177503 -0.670902 0.032225
0.232931 0.557718 -0.040249
0.127945 0.793133 -0.156181
0.171230 0.735810 -0.194432
-0.029145 -0.849038 0.176828
-0.253729 0.766211 0.026836
0.067652 0.793133 0.074175
-0.096962 0.386930 0.150776
0.035558 0.558043 0.251201
0.124348 0.158835 -0.134684
-0.203452 0.793133 -0.087676
0.216464 0.700284 0.135681
0.255475 0.659031 0.023916
0.165764 -0.864680 -0.077066
0.020209 -0.011589 -0.182470
0.132852 -0.521024 0.121920
-0.007130 -0.138157 0.178464
0.178222 0.160223 -0.038504
-0.176382 0.126032 -0.041865
0.181872 -0.256004 -0.009973
0.107829 -0.645835 -0.148942
0.192889 0.577732 0.167153
0.078459 -0.270296 0.161924
0.228611 0.590127 0.115135
-0.169981 0.282284 0.057588
-0.166461 -0.052008 0.068805
0.134324 0.199219 0.120521
-0.108831 0.692032 0.229346
-0.043628 0.531461 -0.177759
-0.254997 0.661018 0.006391
-0.137871 0.793133 0.184923
-0.030585 0.327887 0.176455
0.227578 0.557718 -0.084907
-0.168010 0.586363 -0.194569
-0.082076 0.383016 0.158540
0.007504 0.327798 -0.183886
0.142060 -0.910291 0.111641
-0.069893 -0.857283 -0.169196
0.117179 -0.983021 0.136818
0.133933 0.644091 0.217159
-0.166648 0.546397 -0.072890
0.145262 0.793133 -0.118683
-0.081475 0.288546 0.158835
0.157982 -0.028099 0.088766
0.081323 0.226120 -0.165464
0.250535 0.758943 -0.059110
-0.130588 -0.279363 0.122343
0.162479 -0.887157 0.080042
-0.101762 -0.841253 -0.151740
0.160710 0.292989 0.084164
-0.115193 0.387287 0.136664
-0.109728 -0.834581 -0.145574
-0.133956 -0.842915 -0.123100
0.030939 0.545626 0.176146
0.156661 -0.195446 0.090663
-0.227575 0.689794 -0.118056
0.143959 0.282818 -0.113593
0.000941 -0.084521 -0.183553
-0.048304 0.793133 -0.169085
0.044123 0.793133 -0.098179
0.167994 -0.051925 -0.071872
0.102842 -0.114443 -0.152051
-0.184055 0.745257 -0.180447
-0.134619 0.557718 0.156851
0.122361 0.029941 0.131892
0.056732 0.485525 0.169971
0.080156 0.793133 0.182982
0.158637 -0.587887 0.087825
-0.072738 0.271514 -0.167801
-0.001806 0.287285 0.178734
0.074733 -0.463574 -0.167984
-0.218988 0.747544 -0.133429
-0.244128 0.658874 -0.076981
0.118897 -0.771095 0.135186
0.059272 -0.983178 -0.038321
0.176360 -0.493434 0.042883
-0.170514 0.570646 0.187685
-0.111107 0.793133 0.223032
0.178655 -0.878840 -0.036399
0.051606 -0.717503 -0.176550
0.009176 0.648286 0.254133
-0.238959 0.711563 -0.091609
-0.054942 0.573230 0.247393
0.179713 -0.507629 -0.031248
0.067407 0.793133 -0.072624
-0.035802 0.793133 0.064678
-0.017559 -0.487900 -0.182615
0.019933 0.430685 0.177833
0.065270 0.776943 -0.250247
0.137579 -0.748084 -0.122107
-0.073333 -0.378186 0.162828
0.203389 0.557718 0.120554
0.053739 -0.358824 -0.175760
-0.008952 -0.135237 -0.183051
0.178667 0.793133 0.046794
0.151083 0.465302 0.098678
-0.071427 0.609060 0.243840
0.180801 -0.848010 0.021273
0.081362 0.492477 0.160759
0.157822 -0.983178 -0.030099
-0.042934 0.793133 -0.226971
-0.077795 0.431514 -0.165320
0.003746 -0.595374 -0.183695
-0.178476 -0.867929 -0.027332
0.055703 -0.983178 0.076904
0.036938 -0.983178 -0.094199
-0.079136 -0.471747 0.159982
-0.094887 -0.310454 0.152256
-0.009426 -0.134395 0.178347
0.039042 -0.362568 0.174905
0.146818 0.722472 -0.212688
0.082324 -0.983178 0.092628
-0.161304 -0.700196 -0.083035
0.119104 -0.273963 0.134988
-0.050011 0.233011 0.171426
0.165873 0.793133 -0.014872
0.169169 -0.734481 -0.069132
-0.034014 0.360638 0.175567
-0.109137 0.048853 0.141351
-0.127415 -0.959411 -0.130720
0.152425 0.265150 -0.101430
0.181872 -0.364431 -0.014008
-0.174192 0.176073 -0.048845
-0.043679 0.112111 -0.177745
0.136958 -0.086014 0.118017
-0.220873 0.686357 -0.130055
-0.158222 0.602157 0.198503
0.226826 0.793133 0.050260
0.162089 0.394348 -0.085631
-0.041673 -0.024196 -0.178265
-0.149410 -0.143040 0.099783
-0.157105 -0.066919 0.085919
-0.133270 0.731862 0.215560
-0.105088 -0.193028 0.144485
0.178523 0.654556 -0.186822
-0.237550 0.603618 -0.095598
0.142218 -0.293242 0.111414
-0.010696 -0.743244 -0.182963
0.000875 0.793133 0.047001
-0.063638 -0.744055 0.167584
0.042889 0.545135 -0.178996
0.150231 0.756570 -0.210164
0.141398 -0.482830 -0.117272
0.139920 -0.396869 -0.119396
0.169857 0.327840 0.062850
0.251064 0.597462 0.052396
0.162319 0.056012 0.080415
-0.037445 0.122516 0.174679
-0.175239 0.390696 -0.045509
-0.068042 0.283630 -0.170104
-0.171084 -0.909218 0.054071
0.181872 0.383943 -0.019957
0.057602 0.250827 0.169649
-0.254997 0.612659 -0.021717
-0.048206 -0.983178 -0.028440
-0.135843 -0.307638 0.116222
0.175083 0.189468 0.049099
-0.175996 0.593318 0.182859
0.062037 0.644462 0.246556
0.121728 0.012244 -0.137175
0.118949 -0.089916 -0.139816
-0.123375 0.657233 -0.226332
0.181536 -0.726962 -0.022375
0.178588 -0.980473 -0.036722
-0.017484 0.550094 -0.182619
0.046335 0.132178 0.173788
0.047743 -0.439250 0.173300
-0.014066 0.498717 -0.182792
-0.093456 0.141391 -0.157638
0.157821 0.286927 0.088996
-0.002722 -0.415786 0.178687
0.145548 -0.551670 -0.111309
-0.064614 0.793133 -0.112244
-0.166069 -0.702735 -0.074449
-0.179011 0.312151 -0.022074
-0.191038 0.557718 0.149350
0.165424 -0.610123 -0.077859
0.078041 -0.983178 0.049375
0.150146 -0.788380 -0.104704
0.098652 0.281509 0.149982
-0.152838 0.550908 -0.098287
0.014039 -0.849331 -0.183416
-0.162497 0.793133 0.067787
0.122270 0.555367 -0.136659
0.179219 -0.074051 0.028972
-0.177831 -0.381984 0.028999
-0.237803 0.673349 -0.094881
0.020938 -0.973458 0.177679
-0.140918 -0.642633 -0.114991
-0.056100 -0.893956 0.169849
0.124501 -0.521195 0.129858
0.175137 -0.016740 -0.053513
-0.031087 -0.853943 0.176325
-0.179315 -0.501213 0.014402
-0.079801 -0.395622 0.159656
0.038336 -0.983178 0.149687
0.137684 -0.348191 0.117327
0.059541 -0.938216 -0.173611
0.170728 -0.387408 0.060819
-0.055563 -0.435375 -0.174668
-0.166077 -0.953202 -0.074436
-0.038246 0.329444 -0.179152
0.043570 -0.719361 -0.178892
-0.068404 0.228168 0.165246
-0.197470 0.557718 0.053249
-0.047811 0.413485 0.171995
-0.097277 -0.597893 -0.155212
-0.077093 0.290020 -0.165664
0.179896 -0.900617 0.025678
0.175041 -0.293824 -0.053981
-0.104246 -0.982584 0.145137
0.066950 0.125877 0.166187
-0.178211 -0.301437 0.025259
0.057196 -0.701751 0.169799
-0.005773 -0.131894 0.178532
0.166115 -0.111286 0.071570
0.135378 0.481060 -0.124200
0.086950 -0.004615 0.157276
0.140464 -0.247527 -0.118615
0.101444 0.502687 0.148242
0.108192 0.793133 -0.181120
-0.026333 -0.380583 0.177490
0.080069 -0.896650 -0.166008
-0.101523 -0.069239 -0.151925
0.112347 0.196645 -0.146092
0.137344 -0.118759 0.117650
0.127476 -0.087432 -0.131711
0.154359 -0.282849 -0.098651
-0.046123 0.619884 0.249293
0.094645 -0.751556 0.152479
-0.048513 -0.726618 -0.176494
0.117799 0.623331 -0.229973
-0.174728 0.508986 -0.047136
-0.254334 0.722960 -0.027990
0.095199 -0.599161 0.152135
-0.217644 0.562938 0.131154
-0.177322 -0.179101 0.033999
-0.175753 -0.649340 0.039190
0.121574 0.670678 -0.228070
0.102885 -0.507850 -0.152024
0.173681 -0.231812 0.053938
0.059842 -0.076735 -0.173499
-0.097509 -0.671037 0.150352
0.181872 0.528112 -0.007156
0.227673 0.700072 -0.121892
0.034853 -0.296687 0.175547
0.045837 0.793133 0.174081
0.215160 0.557718 0.068097
-0.157364 0.209712 0.085452
-0.096368 -0.521650 -0.155915
0.029751 -0.099415 0.176328
-0.039273 0.493286 0.174206
-0.193313 0.702751 0.164466
0.037816 -0.714454 -0.179773
-0.113824 -0.671473 0.137723
0.070248 -0.273504 -0.169646
0.015871 -0.983178 -0.055667
-0.068873 0.444377 -0.169696
0.012601 0.498050 0.178956
0.035645 -0.446104 -0.180106
0.107465 0.144681 -0.149169
-0.140421 -0.764396 -0.115570
0.194843 0.746922 -0.169794
-0.133631 0.557718 -0.152360
-0.177698 0.336539 0.030308
0.226646 0.793133 0.099140
-0.177184 -0.725645 0.034629
0.132898 -0.594268 -0.126557
-0.140953 -0.298854 0.110269
-0.254997 0.646375 0.002070
-0.252173 0.753117 -0.040591
-0.138339 -0.324764 -0.117994
-0.096768 -0.218972 -0.155605
-0.085343 -0.082118 0.156937
0.012485 0.756226 -0.258836
0.168008 -0.404213 -0.071838
-0.177916 0.252167 0.028162
-0.097121 -0.366080 0.150652
-0.175422 -0.382962 -0.044924
-0.153305 0.557718 0.202213
-0.180950 0.112433 -0.001670
0.201737 0.557718 0.098979
0.017117 -0.590681 0.178264
0.178630 0.126955 -0.036516
-0.129022 -0.617158 -0.128848
-0.175520 0.230180 -0.044614
0.108855 -0.618264 0.143623
-0.168507 0.038100 -0.066965
0.170551 -0.762529 -0.065913
-0.133871 0.441914 0.118519
0.165015 0.072495 0.074133
0.113982 0.226147 0.139858
-0.056343 -0.974014 0.169786
0.094330 0.235622 -0.157356
-0.157209 0.557718 0.168112
-0.052655 -0.929940 -0.175421
-0.178628 -0.297637 0.021162
0.150210 -0.118283 0.099931
0.155841 -0.260182 0.091842
-0.178693 -0.338271 0.020518
0.162506 0.464345 -0.084659
0.161425 0.402480 0.082497
-0.133246 -0.245728 0.119247
0.179931 0.180441 0.025506
-0.080884 -0.983178 0.034145
0.181872 -0.532277 0.007081
-0.140604 -0.025506 0.110676
0.150859 0.244593 -0.103679
0.181872 -0.351028 -0.000808
0.154201 -0.380968 -0.098877
-0.163002 -0.866655 0.075294
0.181872 -0.037019 -0.011320
0.161357 0.738956 -0.201936
0.051520 0.793133 0.026509
0.042679 -0.983178 0.014599
0.010896 0.439738 -0.183897
-0.041070 -0.341372 -0.178421
0.146833 0.793133 -0.040514
0.080513 0.793133 -0.189940
-0.179873 -0.171776 0.008918
-0.174450 0.263270 -0.048023
-0.070565 0.678972 -0.248706
0.113642 -0.983178 0.101871
-0.027699 -0.466220 0.177203
-0.131659 0.496159 0.121095
-0.154279 -0.927081 0.091011
-0.198039 0.756847 0.158613
0.076125 0.704901 -0.246922
0.052621 0.793133 0.003143
-0.092102 -0.308092 0.153622
0.011188 0.097849 -0.183852
0.089440 -0.437411 0.155724
0.181872 -0.619233 -0.005102
-0.180157 -0.368427 -0.010806
0.111652 -0.377308 -0.146560
-0.165111 0.256819 0.071496
0.087060 -0.047750 -0.161887
0.063875 0.703220 0.245994
-0.070866 0.189883 -0.168719
0.007205 0.198530 0.179191
-0.169890 0.127379 -0.062558
-0.125568 0.318900 -0.132871
-0.074491 -0.526899 -0.166941
0.010057 0.604981 -0.258851
-0.145935 0.793133 0.117599
0.146112 0.128180 -0.110499
-0.151599 0.229129 -0.100519
0.181872 -0.854611 -0.004119
0.254154 0.720085 0.039431
0.174798 0.235179 -0.055165
0.116538 0.155213 -0.142108
-0.017354 -0.909375 -0.182625
-0.065747 0.793133 -0.225098
0.006822 0.344325 -0.183851
-0.031062 -0.983178 0.052311
0.132588 -0.835977 0.122171
-0.018626 -0.426344 -0.182561
0.099282 -0.291367 -0.154270
-0.042164 -0.877365 0.173457
0.175584 0.353024 0.046660
0.134149 0.793133 -0.105897
0.178159 -0.222368 -0.038810
-0.172401 0.222864 0.049872
0.251023 0.557718 0.017031
-0.178028 -0.111862 -0.031738
0.162379 0.687800 0.196499
-0.152605 -0.577551 -0.098707
0.165606 0.057792 -0.077435
0.025323 0.236211 0.177007
-0.007385 0.489338 -0.183131
-0.026636 -0.145526 -0.182155
0.170473 -0.303356 0.061413
-0.163581 -0.447838 -0.078931
-0.154176 -0.062050 0.091196
-0.119210 0.793133 -0.047008
-0.209689 0.641569 -0.148866
-0.180075 -0.009918 -0.011613
0.094282 0.690786 -0.241362
0.093500 0.579512 -0.241601
-0.206542 0.557718 -0.142945
0.007302 0.793133 0.108163
0.181634 0.240140 0.017218
0.106468 -0.016801 -0.149790
-0.180138 -0.488437 0.006312
-0.133349 -0.554658 -0.123807
-0.160205 0.124872 0.080335
-0.041843 -0.730406 -0.178221
-0.119402 -0.927626 -0.138086
0.142110 -0.263476 -0.116249
-0.157258 -0.263899 0.085643
-0.022411 0.623957 -0.257472
0.166041 -0.610608 0.071742
-0.177774 0.203270 0.029553
-0.016197 -0.813282 -0.182684
-0.024229 0.793133 0.145651
0.146797 -0.560906 -0.109515
0.168699 0.489600 0.065547
0.225920 0.567121 -0.125769
0.175823 -0.413022 -0.050176
-0.169216 -0.449077 -0.064705
0.127388 0.557718 -0.215010
0.164338 -0.571948 0.075710
-0.140752 -0.850122 -0.115184
0.171798 -0.303132 0.058326
-0.083788 -0.976304 -0.162380
-0.071977 -0.055443 -0.168174
0.176434 0.046149 -0.047206
-0.113236 -0.728595 -0.142858
-0.033195 0.298243 -0.180460
0.059230 0.557718 -0.202722
0.141689 0.020425 -0.116854
0.181872 -0.270766 -0.002914
-0.049512 0.304132 0.171555
0.035812 0.494488 -0.180080
-0.110737 0.641430 0.228580
-0.172924 0.241365 -0.052886
-0.130429 -0.983178 0.101840
-0.114025 -0.379597 -0.142248
-0.226627 0.793133 -0.003739
-0.224289 0.716166 0.119258
0.181872 0.275093 0.008822
0.030100 0.572194 0.251900
0.033169 -0.787367 -0.180485
-0.150799 -0.164176 -0.101961
-0.165331 -0.066313 -0.075778
0.138324 0.716275 -0.218970
-0.111247 -0.538883 -0.144398
-0.176915 0.578045 -0.186731
-0.175853 -0.789895 -0.043550
0.160300 -0.270846 -0.089801
-0.103240 -0.660651 -0.150596
-0.159175 -0.027134 0.082190
-0.134527 -0.793932 -0.122435
0.013563 0.739287 0.254018
0.017101 -0.882017 -0.182947
0.146118 0.689501 -0.213206
-0.162521 0.664814 -0.199400
0.181872 -0.157623 -0.001082
-0.169083 -0.659629 -0.065130
0.137152 0.494373 -0.122513
-0.094961 0.307400 -0.156899
-0.051940 -0.690443 -0.175606
0.097710 -0.296044 -0.155249
0.165313 -0.562937 -0.078118
-0.114759 -0.688486 -0.141680
0.166720 0.678282 0.193289
0.022375 0.373752 -0.182139
-0.133627 -0.983178 0.033121
0.007201 -0.180393 0.179190
0.040567 -0.263729 -0.179352
0.103744 -0.276803 0.146808
-0.077529 0.017453 0.160770
0.059693 0.793133 0.154536
-0.178675 -0.330941 -0.025380
-0.135712 0.660544 -0.218736
0.168575 0.523037 -0.070517
0.127737 -0.304084 0.126783
-0.019456 0.354080 -0.182519
0.082332 0.793133 -0.064651
0.009278 -0.851042 -0.183976
-0.163112 0.001725 -0.079776
0.176696 -0.874524 0.041250
0.205701 0.557718 -0.104831
0.114960 0.410119 0.138928
-0.097518 -0.215107 -0.155025
-0.060495 0.227046 0.168711
0.077673 -0.040079 0.162215
0.165482 0.387743 -0.077724
0.112461 -0.983178 -0.068964
0.158391 -0.982235 0.088178
0.028348 0.745253 -0.256805
0.069834 0.075383 -0.169799
0.058154 -0.950903 -0.174125
-0.253075 0.683970 0.030651
-0.108216 0.517886 -0.146744
-0.132402 0.154928 -0.124910
-0.123150 -0.710335 0.130505
-0.025323 -0.409191 0.177541
0.247591 0.557718 -0.025588
-0.162997 -0.047163 -0.079984
-0.003502 -0.472429 -0.183328
0.074646 0.047733 0.163336
0.065768 0.143311 -0.171305
-0.017375 -0.896345 -0.182624
-0.028488 0.793133 0.055842
-0.036759 0.741806 0.251311
0.123814 -0.086692 0.130512
-0.034796 -0.983178 0.174669
-0.061175 0.557718 -0.175910
0.156745 -0.775755 -0.095222
0.033607 -0.950945 -0.180418
-0.171518 0.379929 -0.057368
0.235145 0.557718 -0.069042
0.159351 0.793133 0.061552
0.011098 0.113614 -0.183866
-0.118170 -0.878307 -0.139039
-0.042050 0.474620 -0.178167
-0.050388 -0.436703 -0.176008
0.105697 -0.885877 0.145591
-0.116230 -0.406109 -0.140541
0.135586 0.450236 -0.124002
0.175741 -0.896357 -0.050576
0.103661 -0.840424 0.146860
0.091459 -0.286959 0.154466
-0.145120 0.422692 -0.110095
-0.211694 0.557718 0.076607
-0.237771 0.739092 0.090293
0.155833 -0.630843 0.091853
-0.050599 -0.912377 -0.175954
0.129725 -0.122497 -0.129573
0.163019 0.111824 0.078783
0.168501 -0.386484 0.066009
-0.085361 0.249480 -0.161609
0.127620 0.474478 -0.131574
0.012576 0.245390 0.178960
-0.092429 -0.572302 -0.158142
0.159695 -0.288448 0.086304
-0.075882 0.793133 -0.036655
-0.180002 -0.425959 0.007648
0.177953 -0.745354 0.035130
-0.041044 0.640961 0.250388
-0.166635 -0.486555 0.068250
0.153907 -0.091906 0.094620
-0.037338 0.366832 0.174707
0.178778 -0.576486 -0.035799
-0.153323 0.280807 -0.097413
0.116332 -0.692210 -0.142304
0.191218 0.793133 0.158595
0.113977 -0.079847 -0.144542
-0.044304 -0.316845 0.172903
0.042554 -0.633966 0.174367
-0.164360 -0.959762 -0.077528
0.179271 0.162643 0.028720
-0.166569 0.459636 0.068462
-0.168225 -0.171851 -0.067864
-0.057299 -0.460556 -0.174219
-0.153234 0.746314 -0.207573
-0.096776 -0.430211 0.150919
-0.249120 0.645314 0.053713
-0.085228 0.793133 -0.108112
-0.146713 -0.844301 0.103560
0.211279 0.678676 -0.148033
-0.017008 -0.242285 0.177963
-0.052205 0.140361 -0.175538
0.032222 -0.390482 0.175950
0.065350 0.470467 -0.171459
0.127751 -0.411389 0.126769
-0.151043 -0.719090 0.096841
-0.041233 0.136469 0.173698
-0.068880 -0.866751 -0.169693
0.076564 0.766525 0.242108
-0.185481 0.557718 0.047357
-0.075908 0.557718 0.217484
0.146398 0.020015 -0.110088
0.071381 -0.642811 0.164546
-0.242699 0.557718 0.062130
-0.134697 0.557718 0.166558
-0.119412 0.792044 0.224092
0.077165 0.586942 -0.246604
-0.131606 -0.385759 -0.125837
0.181872 0.443238 0.012935
0.102767 -0.982564 0.147417
-0.119222 0.577818 -0.228889
0.163705 -0.215506 0.077186
0.038385 0.054473 -0.179686
-0.101217 0.254555 -0.152162
-0.179916 0.553294 -0.013176
-0.015009 -0.340878 0.178064
0.041160 -0.465667 -0.179261
-0.038530 0.436422 0.174398
-0.231998 0.557718 0.085809
0.005514 -0.051741 0.179105
0.140015 0.557718 0.155914
-0.066777 -0.290983 -0.170725
-0.180013 -0.266324 -0.012222
-0.128326 0.021227 -0.129659
0.239001 0.770655 -0.096831
-0.084104 0.518401 0.157545
-0.058489 -0.656624 0.169230
-0.037600 -0.540763 0.174639
0.147554 0.141918 -0.108428
0.145767 0.120295 0.106315
0.177843 -0.014703 0.035665
-0.179005 0.720796 -0.184891
-0.063691 0.514510 -0.172238
0.142739 0.557718 -0.189266
0.074247 0.712110 -0.247498
-0.081257 -0.007832 -0.163622
0.176158 -0.407932 -0.048547
0.244927 0.568888 0.075968
-0.115599 -0.004001 0.136349
-0.047046 -0.064535 0.172193
-0.127617 0.121469 0.125804
-0.052511 0.603965 0.247916
0.148117 -0.645589 0.102938
-0.134408 -0.237343 0.117893
-0.155632 -0.983178 -0.088001
0.024673 0.764178 0.252595
-0.180785 -0.171175 -0.004631
-0.015254 -0.976460 -0.182732
-0.060065 -0.216883 0.168822
-0.171478 0.164427 0.052816
0.011963 -0.024780 0.179054
0.048590 -0.533092 0.172986
0.075081 -0.126539 0.163175
0.151585 -0.768768 -0.102636
-0.143664 -0.756684 0.107112
0.170881 0.557718 0.103557
0.090510 -0.409243 0.155057
0.175944 -0.036116 -0.049589
0.039884 0.557718 0.207997
-0.135078 0.793133 0.180399
0.168552 0.452921 -0.070571
0.173567 -0.487933 -0.058884
0.166558 0.103063 -0.075218
0.166407 -0.170440 -0.075568
0.131596 -0.969051 -0.127795
0.169953 0.151624 -0.067305
0.150844 0.557718 -0.205622
-0.152254 0.262019 -0.099340
-0.177364 -0.785910 0.033594
0.088819 -0.831200 -0.160791
0.178657 0.304435 -0.036387
0.018440 -0.184038 -0.182742
0.157722 -0.939670 0.089139
-0.011609 -0.791321 -0.182917
0.162986 -0.878804 -0.083541
-0.179577 0.077827 -0.016512
0.174109 -0.712405 0.052941
-0.169659 -0.015671 -0.063293
0.178469 0.523199 -0.037299
0.096981 0.793133 0.104098
-0.160208 0.750506 -0.201435
0.053342 -0.658534 0.171226
0.087266 0.793133 0.113068
-0.221387 0.659132 -0.129133
0.181872 0.215686 0.013851
-0.083824 -0.643804 -0.162363
0.160765 0.348890 0.084035
0.144757 -0.129210 0.107766
-0.074593 0.111055 0.162211
0.029598 0.111753 0.176352
0.000352 -0.159382 0.178843
0.222316 0.557718 0.095802
0.247517 0.793133 -0.030865
0.151239 -0.075860 -0.103133
0.079999 0.517866 -0.166034
0.144228 -0.692169 0.108527
0.181872 -0.739684 -0.000865
-0.175101 -0.094019 0.041267
-0.130597 0.339398 0.122332
-0.177075 0.170861 -0.039656
-0.132868 0.411621 0.119687
0.144879 0.411830 0.107591
-0.137261 0.793133 -0.050553
0.152084 -0.290242 -0.101920
0.244783 0.793133 -0.013765
-0.192393 0.793133 0.160134
0.223355 0.793133 0.116568
-0.015308 0.793133 -0.197448
-0.126686 -0.942291 -0.131568
0.108951 -0.519117 0.143563
0.161768 0.131965 0.081699
-0.088406 0.262240 -0.160115
-0.233847 0.788714 0.101399
0.022085 -0.405826 -0.182183
0.083290 -0.433189 0.159557
0.163103 -0.513155 -0.083268
-0.093366 0.793133 -0.177893
-0.153199 0.793133 0.105667
-0.101995 0.792110 -0.236774
-0.171997 -0.463858 0.051160
0.251317 0.654124 -0.056105
-0.128985 -0.230507 0.124210
-0.152370 0.202204 -0.099131
0.150933 0.053518 0.098893
-0.148402 -0.983178 0.096788
0.163926 -0.878299 0.076671
-0.180227 -0.604607 0.005439
-0.177926 0.341136 0.028066
0.164281 -0.617269 0.075843
-0.158425 0.595861 -0.203005
0.181123 -0.266593 0.019704
0.166785 -0.085680 -0.074689
-0.082109 0.287914 0.158524
0.015025 0.763219 -0.258511
-0.166468 -0.538908 0.068782
0.090764 -0.315531 -0.159579
0.043880 -0.401890 -0.178844
-0.164096 -0.423582 0.073324
-0.089656 0.712528 0.237052
-0.086254 -0.745418 -0.161171
-0.169702 0.581033 -0.193080
0.173703 -0.097760 -0.058568
0.123735 0.557718 -0.197217
-0.149245 -0.473388 0.100081
0.116773 0.209235 0.137205
-0.045688 0.377619 0.172545
-0.085425 0.177189 -0.161577
-0.136054 -0.944798 0.115976
-0.171204 -0.767832 0.053687
-0.163066 0.580074 0.194239
0.056537 -0.007450 -0.174723
-0.178901 0.747543 -0.184983
-0.093910 0.557718 0.219897
0.109801 0.379851 0.143033
-0.207575 0.793133 -0.076607
-0.049528 -0.104074 -0.176231
0.181872 0.051061 0.012965
0.094752 -0.096547 0.152413
-0.158689 0.239114 0.083065
-0.042989 -0.937599 0.173244
0.178657 0.140577 0.031706
0.041133 -0.408163 0.174585
0.008816 -0.382017 0.179272
-0.000637 0.793133 0.038466
0.125812 0.423397 0.128612
0.103709 -0.374673 -0.151510
-0.176767 0.284564 0.035958
-0.178229 0.190281 -0.029767
0.085199 -0.377456 -0.163047
0.181872 -0.574636 0.010854
-0.074207 -0.036117 -0.167080
0.160067 -0.973270 0.085663
-0.142227 -0.329979 -0.113465
0.081547 0.793133 0.013385
-0.179621 -0.601694 0.011397
0.146536 -0.471115 0.105210
-0.124839 -0.531300 -0.133721
-0.107718 0.527329 0.142450
0.020992 -0.690351 0.177670
-0.107506 0.476175 0.142614
-0.103282 -0.038446 0.145883
0.175507 0.347455 0.047036
-0.052528 -0.492093 -0.175454
-0.161399 0.557718 -0.153744
0.166933 0.762709 -0.197812
0.008553 -0.172439 0.179259
0.174618 -0.662859 -0.056039
0.007061 0.557718 0.195214
-0.025495 0.793133 0.157544
-0.138437 0.593933 -0.217058
0.186862 0.557718 -0.046649
-0.107349 0.500563 -0.147415
0.171578 -0.029661 -0.063519
-0.218005 0.685682 0.130508
0.159231 -0.159699 -0.091651
0.143307 0.452297 -0.114530
0.195708 0.557718 0.022408
-0.136577 0.793133 0.145481
-0.051095 0.202310 0.171145
-0.080386 0.557718 -0.232082
0.180386 0.451633 -0.027975
-0.066689 0.515299 0.166088
0.116142 -0.732483 0.137804
-0.172643 -0.983178 -0.017123
-0.086511 -0.927584 0.156364
0.054514 -0.983178 -0.021574
-0.180653 -0.144457 -0.005922
-0.163034 -0.121794 0.075238
0.108159 -0.932488 -0.148737
0.101448 -0.204601 -0.152919
0.050998 -0.983178 -0.071466
0.043578 -0.983178 0.022590
-0.017075 0.234606 0.177959
0.103864 -0.540515 -0.151414
-0.126268 0.076142 -0.132056
0.137399 -0.042785 0.117599
0.154111 0.532843 0.094326
-0.130293 0.767433 0.217393
-0.170857 -0.776676 0.054795
0.052208 -0.812279 -0.176327
-0.176428 -0.947832 -0.041717
-0.034584 0.793133 -0.210304
-0.020989 0.614606 0.252852
0.149145 -0.833859 -0.106142
-0.248578 0.648584 -0.061558
-0.046364 -0.060046 -0.177050
-0.025279 -0.983178 -0.053812
-0.005948 -0.372610 -0.183204
-0.060800 -0.880675 0.168632
0.012609 -0.297835 -0.183635
0.025527 0.030632 0.176976
0.145209 0.793133 -0.019481
0.125600 0.021004 0.128814
0.160899 -0.911584 0.083723
0.131344 0.152045 -0.128034
-0.173519 0.342701 0.046310
-0.087707 0.620188 0.237835
0.151411 -0.899141 -0.102887
-0.049950 -0.077638 -0.176122
-0.180971 -0.268874 -0.002804
-0.069728 0.189377 0.164597
-0.188014 0.793133 0.069776
0.088264 -0.563395 0.156457
-0.119336 -0.465817 -0.138137
0.001352 0.080923 -0.183574
-0.241871 0.600605 -0.083367
