6.153452	22.513514	-5.863875	0.723936	0.000000	-0.689868
6.153452	22.432432	-5.863875	0.723936	0.000000	-0.689868
6.153452	22.351351	-5.863875	0.723936	0.000000	-0.689868
6.153452	22.270269	-5.863875	0.723936	0.000000	-0.689868
6.153452	22.189190	-5.863875	0.723936	0.000000	-0.689868
6.153452	22.108109	-5.863875	0.723936	0.000000	-0.689868
6.153452	22.027027	-5.863875	0.723936	0.000000	-0.689868
6.153452	21.945946	-5.863875	0.723936	0.000000	-0.689868
6.153452	20.000000	-5.863875	0.723936	0.000000	-0.689868
-6.209674	20.000000	-5.804304	-0.730550	0.000000	-0.682859
-6.209674	23.000000	-5.804304	-0.730550	0.000000	-0.682859
-6.209674	22.918919	-5.804304	-0.730550	0.000000	-0.682859
-6.209674	22.837837	-5.804304	-0.730550	0.000000	-0.682859
-6.209674	22.756756	-5.804304	-0.730550	0.000000	-0.682859
-6.209674	22.675676	-5.804304	-0.730550	0.000000	-0.682859
-6.209674	22.594595	-5.804304	-0.730550	0.000000	-0.682859
-6.209674	22.432432	-5.804304	-0.730550	0.000000	-0.682859
-6.209674	22.351351	-5.804304	-0.730550	0.000000	-0.682859
-6.209674	22.189190	-5.804304	-0.730550	0.000000	-0.682859
-6.209674	22.108109	-5.804304	-0.730550	0.000000	-0.682859
-6.209674	22.027027	-5.804304	-0.730550	0.000000	-0.682859
-6.209674	21.945946	-5.804304	-0.730550	0.000000	-0.682859
-6.209674	21.864864	-5.804304	-0.730550	0.000000	-0.682859
-6.209674	21.783783	-5.804304	-0.730550	0.000000	-0.682859
-6.209674	21.216217	-5.804304	-0.730550	0.000000	-0.682859
-6.209674	21.297297	-5.804304	-0.730550	0.000000	-0.682859
-6.209674	21.378378	-5.804304	-0.730550	0.000000	-0.682859
-6.209674	21.054054	-5.804304	-0.730550	0.000000	-0.682859
-6.209674	20.081081	-5.804304	-0.730550	0.000000	-0.682859
-6.209674	21.459459	-5.804304	-0.730550	0.000000	-0.682859
-6.209674	21.540541	-5.804304	-0.730550	0.000000	-0.682859
-6.209674	21.621622	-5.804304	-0.730550	0.000000	-0.682859
-6.209674	21.702703	-5.804304	-0.730550	0.000000	-0.682859
-6.209674	20.162163	-5.804304	-0.730550	0.000000	-0.682859
-6.209674	20.243244	-5.804304	-0.730550	0.000000	-0.682859
-6.209674	20.324324	-5.804304	-0.730550	0.000000	-0.682859
-6.209674	20.405405	-5.804304	-0.730550	0.000000	-0.682859
-6.209674	22.270269	-5.804304	-0.730550	0.000000	-0.682859
-6.209674	20.567568	-5.804304	-0.730550	0.000000	-0.682859
-6.209674	20.648649	-5.804304	-0.730550	0.000000	-0.682859
-6.209674	20.729731	-5.804304	-0.730550	0.000000	-0.682859
-6.209674	20.810810	-5.804304	-0.730550	0.000000	-0.682859
-6.209674	20.891891	-5.804304	-0.730550	0.000000	-0.682859
-6.209674	20.972973	-5.804304	-0.730550	0.000000	-0.682859
-6.209674	22.513514	-5.804304	-0.730550	0.000000	-0.682859
-6.209674	21.135136	-5.804304	-0.730550	0.000000	-0.682859
-6.209674	20.486486	-5.804304	-0.730550	0.000000	-0.682859
6.209674	21.864864	-5.804304	0.730550	0.000000	-0.682859
6.209674	21.783783	-5.804304	0.730550	0.000000	-0.682859
6.209674	21.702703	-5.804304	0.730550	0.000000	-0.682859
6.209674	21.621622	-5.804304	0.730550	0.000000	-0.682859
6.209674	21.540541	-5.804304	0.730550	0.000000	-0.682859
6.209674	21.459459	-5.804304	0.730550	0.000000	-0.682859
6.209674	21.378378	-5.804304	0.730550	0.000000	-0.682859
6.209674	21.297297	-5.804304	0.730550	0.000000	-0.682859
6.209674	21.216217	-5.804304	0.730550	0.000000	-0.682859
6.209674	21.135136	-5.804304	0.730550	0.000000	-0.682859
6.209674	21.054054	-5.804304	0.730550	0.000000	-0.682859
6.209674	20.972973	-5.804304	0.730550	0.000000	-0.682859
6.209674	20.891891	-5.804304	0.730550	0.000000	-0.682859
6.209674	20.810810	-5.804304	0.730550	0.000000	-0.682859
6.209674	20.729731	-5.804304	0.730550	0.000000	-0.682859
6.209674	20.648649	-5.804304	0.730550	0.000000	-0.682859
6.209674	20.567568	-5.804304	0.730550	0.000000	-0.682859
6.209674	20.486486	-5.804304	0.730550	0.000000	-0.682859
6.209674	20.405405	-5.804304	0.730550	0.000000	-0.682859
6.209674	20.324324	-5.804304	0.730550	0.000000	-0.682859
6.209674	20.243244	-5.804304	0.730550	0.000000	-0.682859
6.209674	20.162163	-5.804304	0.730550	0.000000	-0.682859
6.209674	20.081081	-5.804304	0.730550	0.000000	-0.682859
6.209674	20.000000	-5.804304	0.730550	0.000000	-0.682859
6.209674	23.000000	-5.804304	0.730550	0.000000	-0.682859
6.209674	22.918919	-5.804304	0.730550	0.000000	-0.682859
6.209674	22.837837	-5.804304	0.730550	0.000000	-0.682859
6.209674	22.756756	-5.804304	0.730550	0.000000	-0.682859
6.209674	22.675676	-5.804304	0.730550	0.000000	-0.682859
6.209674	22.594595	-5.804304	0.730550	0.000000	-0.682859
6.209674	22.513514	-5.804304	0.730550	0.000000	-0.682859
6.209674	22.432432	-5.804304	0.730550	0.000000	-0.682859
6.209674	22.351351	-5.804304	0.730550	0.000000	-0.682859
6.209674	22.270269	-5.804304	0.730550	0.000000	-0.682859
6.209674	22.189190	-5.804304	0.730550	0.000000	-0.682859
6.209674	22.108109	-5.804304	0.730550	0.000000	-0.682859
6.209674	22.027027	-5.804304	0.730550	0.000000	-0.682859
6.209674	21.945946	-5.804304	0.730550	0.000000	-0.682859
6.265320	21.945946	-5.744194	0.737096	0.000000	-0.675788
6.265320	21.864864	-5.744194	0.737096	0.000000	-0.675788
6.265320	21.783783	-5.744194	0.737096	0.000000	-0.675788
6.265320	21.702703	-5.744194	0.737096	0.000000	-0.675788
6.265320	21.621622	-5.744194	0.737096	0.000000	-0.675788
6.265320	21.540541	-5.744194	0.737096	0.000000	-0.675788
6.265320	21.459459	-5.744194	0.737096	0.000000	-0.675788
6.265320	21.378378	-5.744194	0.737096	0.000000	-0.675788
6.265320	21.297297	-5.744194	0.737096	0.000000	-0.675788
6.265320	21.216217	-5.744194	0.737096	0.000000	-0.675788
6.265320	22.108109	-5.744194	0.737096	0.000000	-0.675788
6.265320	20.000000	-5.744194	0.737096	0.000000	-0.675788
6.265320	22.189190	-5.744194	0.737096	0.000000	-0.675788
6.265320	22.270269	-5.744194	0.737096	0.000000	-0.675788
6.265320	20.648649	-5.744194	0.737096	0.000000	-0.675788
6.265320	22.351351	-5.744194	0.737096	0.000000	-0.675788
6.265320	22.432432	-5.744194	0.737096	0.000000	-0.675788
6.265320	20.081081	-5.744194	0.737096	0.000000	-0.675788
6.265320	22.513514	-5.744194	0.737096	0.000000	-0.675788
6.265320	22.594595	-5.744194	0.737096	0.000000	-0.675788
6.265320	22.675676	-5.744194	0.737096	0.000000	-0.675788
6.265320	21.135136	-5.744194	0.737096	0.000000	-0.675788
6.265320	22.756756	-5.744194	0.737096	0.000000	-0.675788
6.265320	21.054054	-5.744194	0.737096	0.000000	-0.675788
6.265320	20.972973	-5.744194	0.737096	0.000000	-0.675788
6.265320	20.891891	-5.744194	0.737096	0.000000	-0.675788
6.265320	20.810810	-5.744194	0.737096	0.000000	-0.675788
6.265320	20.729731	-5.744194	0.737096	0.000000	-0.675788
6.265320	22.837837	-5.744194	0.737096	0.000000	-0.675788
6.265320	20.567568	-5.744194	0.737096	0.000000	-0.675788
6.265320	22.918919	-5.744194	0.737096	0.000000	-0.675788
6.265320	23.000000	-5.744194	0.737096	0.000000	-0.675788
6.265320	20.243244	-5.744194	0.737096	0.000000	-0.675788
6.265320	20.324324	-5.744194	0.737096	0.000000	-0.675788
6.265320	20.405405	-5.744194	0.737096	0.000000	-0.675788
6.265320	20.162163	-5.744194	0.737096	0.000000	-0.675788
6.265320	22.027027	-5.744194	0.737096	0.000000	-0.675788
6.265320	20.486486	-5.744194	0.737096	0.000000	-0.675788
-6.265320	21.540541	-5.744194	-0.737096	0.000000	-0.675788
-6.265320	21.459459	-5.744194	-0.737096	0.000000	-0.675788
-6.265320	21.378378	-5.744194	-0.737096	0.000000	-0.675788
-6.265320	21.297297	-5.744194	-0.737096	0.000000	-0.675788
-6.265320	21.216217	-5.744194	-0.737096	0.000000	-0.675788
-6.265320	21.135136	-5.744194	-0.737096	0.000000	-0.675788
-6.265320	21.054054	-5.744194	-0.737096	0.000000	-0.675788
-6.265320	20.972973	-5.744194	-0.737096	0.000000	-0.675788
-6.265320	20.891891	-5.744194	-0.737096	0.000000	-0.675788
-6.265320	20.810810	-5.744194	-0.737096	0.000000	-0.675788
-6.265320	20.729731	-5.744194	-0.737096	0.000000	-0.675788
-6.265320	20.648649	-5.744194	-0.737096	0.000000	-0.675788
-6.265320	20.567568	-5.744194	-0.737096	0.000000	-0.675788
-6.265320	20.486486	-5.744194	-0.737096	0.000000	-0.675788
-6.265320	20.405405	-5.744194	-0.737096	0.000000	-0.675788
-6.265320	20.162163	-5.744194	-0.737096	0.000000	-0.675788
-6.265320	20.243244	-5.744194	-0.737096	0.000000	-0.675788
-6.265320	20.324324	-5.744194	-0.737096	0.000000	-0.675788
-6.265320	20.000000	-5.744194	-0.737096	0.000000	-0.675788
-6.265320	22.189190	-5.744194	-0.737096	0.000000	-0.675788
-6.265320	20.081081	-5.744194	-0.737096	0.000000	-0.675788
-6.265320	23.000000	-5.744194	-0.737096	0.000000	-0.675788
-6.265320	22.918919	-5.744194	-0.737096	0.000000	-0.675788
-6.265320	22.837837	-5.744194	-0.737096	0.000000	-0.675788
-6.265320	22.756756	-5.744194	-0.737096	0.000000	-0.675788
-6.265320	22.675676	-5.744194	-0.737096	0.000000	-0.675788
-6.265320	22.594595	-5.744194	-0.737096	0.000000	-0.675788
-6.265320	22.513514	-5.744194	-0.737096	0.000000	-0.675788
-6.265320	22.432432	-5.744194	-0.737096	0.000000	-0.675788
-6.265320	22.351351	-5.744194	-0.737096	0.000000	-0.675788
-6.265320	22.270269	-5.744194	-0.737096	0.000000	-0.675788
-6.265320	22.108109	-5.744194	-0.737096	0.000000	-0.675788
-6.265320	22.027027	-5.744194	-0.737096	0.000000	-0.675788
-6.265320	21.945946	-5.744194	-0.737096	0.000000	-0.675788
-6.265320	21.864864	-5.744194	-0.737096	0.000000	-0.675788
-6.265320	21.783783	-5.744194	-0.737096	0.000000	-0.675788
-6.265320	21.702703	-5.744194	-0.737096	0.000000	-0.675788
-6.265320	21.621622	-5.744194	-0.737096	0.000000	-0.675788
6.320384	20.081081	-5.683551	0.743575	0.000000	-0.668653
6.320384	20.162163	-5.683551	0.743575	0.000000	-0.668653
6.320384	20.243244	-5.683551	0.743575	0.000000	-0.668653
6.320384	20.405405	-5.683551	0.743575	0.000000	-0.668653
6.320384	20.486486	-5.683551	0.743575	0.000000	-0.668653
6.320384	20.567568	-5.683551	0.743575	0.000000	-0.668653
6.320384	20.648649	-5.683551	0.743575	0.000000	-0.668653
6.320384	20.729731	-5.683551	0.743575	0.000000	-0.668653
6.320384	20.810810	-5.683551	0.743575	0.000000	-0.668653
6.320384	20.891891	-5.683551	0.743575	0.000000	-0.668653
6.320384	20.324324	-5.683551	0.743575	0.000000	-0.668653
6.320384	20.972973	-5.683551	0.743575	0.000000	-0.668653
6.320384	21.054054	-5.683551	0.743575	0.000000	-0.668653
6.320384	21.135136	-5.683551	0.743575	0.000000	-0.668653
6.320384	21.216217	-5.683551	0.743575	0.000000	-0.668653
6.320384	21.297297	-5.683551	0.743575	0.000000	-0.668653
6.320384	21.378378	-5.683551	0.743575	0.000000	-0.668653
6.320384	22.027027	-5.683551	0.743575	0.000000	-0.668653
6.320384	22.756756	-5.683551	0.743575	0.000000	-0.668653
6.320384	23.000000	-5.683551	0.743575	0.000000	-0.668653
6.320384	22.837837	-5.683551	0.743575	0.000000	-0.668653
6.320384	22.918919	-5.683551	0.743575	0.000000	-0.668653
6.320384	22.675676	-5.683551	0.743575	0.000000	-0.668653
6.320384	20.000000	-5.683551	0.743575	0.000000	-0.668653
6.320384	22.594595	-5.683551	0.743575	0.000000	-0.668653
6.320384	22.513514	-5.683551	0.743575	0.000000	-0.668653
6.320384	22.432432	-5.683551	0.743575	0.000000	-0.668653
6.320384	22.351351	-5.683551	0.743575	0.000000	-0.668653
6.320384	22.270269	-5.683551	0.743575	0.000000	-0.668653
6.320384	22.189190	-5.683551	0.743575	0.000000	-0.668653
6.320384	22.108109	-5.683551	0.743575	0.000000	-0.668653
6.320384	21.945946	-5.683551	0.743575	0.000000	-0.668653
6.320384	21.864864	-5.683551	0.743575	0.000000	-0.668653
6.320384	21.783783	-5.683551	0.743575	0.000000	-0.668653
6.320384	21.702703	-5.683551	0.743575	0.000000	-0.668653
6.320384	21.621622	-5.683551	0.743575	0.000000	-0.668653
6.320384	21.459459	-5.683551	0.743575	0.000000	-0.668653
6.320384	21.540541	-5.683551	0.743575	0.000000	-0.668653
-6.320384	21.864864	-5.683551	-0.743575	0.000000	-0.668653
-6.320384	21.783783	-5.683551	-0.743575	0.000000	-0.668653
-6.320384	21.702703	-5.683551	-0.743575	0.000000	-0.668653
-6.320384	21.621622	-5.683551	-0.743575	0.000000	-0.668653
-6.320384	20.162163	-5.683551	-0.743575	0.000000	-0.668653
-6.320384	21.459459	-5.683551	-0.743575	0.000000	-0.668653
-6.320384	21.378378	-5.683551	-0.743575	0.000000	-0.668653
-6.320384	21.297297	-5.683551	-0.743575	0.000000	-0.668653
-6.320384	21.216217	-5.683551	-0.743575	0.000000	-0.668653
-6.320384	21.135136	-5.683551	-0.743575	0.000000	-0.668653
-6.320384	21.054054	-5.683551	-0.743575	0.000000	-0.668653
-6.320384	20.972973	-5.683551	-0.743575	0.000000	-0.668653
-6.320384	20.891891	-5.683551	-0.743575	0.000000	-0.668653
-6.320384	20.810810	-5.683551	-0.743575	0.000000	-0.668653
-6.320384	20.729731	-5.683551	-0.743575	0.000000	-0.668653
-6.320384	20.648649	-5.683551	-0.743575	0.000000	-0.668653
-6.320384	20.567568	-5.683551	-0.743575	0.000000	-0.668653
-6.320384	20.486486	-5.683551	-0.743575	0.000000	-0.668653
-6.320384	20.405405	-5.683551	-0.743575	0.000000	-0.668653
-6.320384	20.324324	-5.683551	-0.743575	0.000000	-0.668653
-6.320384	20.243244	-5.683551	-0.743575	0.000000	-0.668653
-6.320384	20.000000	-5.683551	-0.743575	0.000000	-0.668653
-6.320384	22.027027	-5.683551	-0.743575	0.000000	-0.668653
-6.320384	21.540541	-5.683551	-0.743575	0.000000	-0.668653
-6.320384	20.081081	-5.683551	-0.743575	0.000000	-0.668653
-6.320384	23.000000	-5.683551	-0.743575	0.000000	-0.668653
-6.320384	22.918919	-5.683551	-0.743575	0.000000	-0.668653
-6.320384	22.837837	-5.683551	-0.743575	0.000000	-0.668653
-6.320384	22.756756	-5.683551	-0.743575	0.000000	-0.668653
-6.320384	22.675676	-5.683551	-0.743575	0.000000	-0.668653
-6.320384	22.594595	-5.683551	-0.743575	0.000000	-0.668653
-6.320384	22.513514	-5.683551	-0.743575	0.000000	-0.668653
-6.320384	22.432432	-5.683551	-0.743575	0.000000	-0.668653
-6.320384	22.351351	-5.683551	-0.743575	0.000000	-0.668653
-6.320384	22.270269	-5.683551	-0.743575	0.000000	-0.668653
-6.320384	22.189190	-5.683551	-0.743575	0.000000	-0.668653
-6.320384	22.108109	-5.683551	-0.743575	0.000000	-0.668653
-6.320384	21.945946	-5.683551	-0.743575	0.000000	-0.668653
6.374861	22.432432	-5.622380	0.749984	0.000000	-0.661456
6.374861	20.891891	-5.622380	0.749984	0.000000	-0.661456
6.374861	20.972973	-5.622380	0.749984	0.000000	-0.661456
6.374861	21.054054	-5.622380	0.749984	0.000000	-0.661456
6.374861	21.216217	-5.622380	0.749984	0.000000	-0.661456
6.374861	21.297297	-5.622380	0.749984	0.000000	-0.661456
6.374861	21.378378	-5.622380	0.749984	0.000000	-0.661456
6.374861	21.459459	-5.622380	0.749984	0.000000	-0.661456
6.374861	20.081081	-5.622380	0.749984	0.000000	-0.661456
6.374861	21.540541	-5.622380	0.749984	0.000000	-0.661456
6.374861	21.621622	-5.622380	0.749984	0.000000	-0.661456
6.374861	21.702703	-5.622380	0.749984	0.000000	-0.661456
6.374861	21.783783	-5.622380	0.749984	0.000000	-0.661456
6.374861	21.864864	-5.622380	0.749984	0.000000	-0.661456
6.374861	21.945946	-5.622380	0.749984	0.000000	-0.661456
6.374861	22.027027	-5.622380	0.749984	0.000000	-0.661456
6.374861	22.108109	-5.622380	0.749984	0.000000	-0.661456
6.374861	22.189190	-5.622380	0.749984	0.000000	-0.661456
6.374861	22.270269	-5.622380	0.749984	0.000000	-0.661456
6.374861	22.351351	-5.622380	0.749984	0.000000	-0.661456
6.374861	20.567568	-5.622380	0.749984	0.000000	-0.661456
6.374861	22.513514	-5.622380	0.749984	0.000000	-0.661456
6.374861	22.594595	-5.622380	0.749984	0.000000	-0.661456
6.374861	20.810810	-5.622380	0.749984	0.000000	-0.661456
6.374861	20.000000	-5.622380	0.749984	0.000000	-0.661456
6.374861	20.243244	-5.622380	0.749984	0.000000	-0.661456
6.374861	22.675676	-5.622380	0.749984	0.000000	-0.661456
6.374861	22.756756	-5.622380	0.749984	0.000000	-0.661456
6.374861	22.837837	-5.622380	0.749984	0.000000	-0.661456
6.374861	21.135136	-5.622380	0.749984	0.000000	-0.661456
6.374861	22.918919	-5.622380	0.749984	0.000000	-0.661456
6.374861	23.000000	-5.622380	0.749984	0.000000	-0.661456
6.374861	20.729731	-5.622380	0.749984	0.000000	-0.661456
6.374861	20.486486	-5.622380	0.749984	0.000000	-0.661456
6.374861	20.648649	-5.622380	0.749984	0.000000	-0.661456
6.374861	20.324324	-5.622380	0.749984	0.000000	-0.661456
6.374861	20.162163	-5.622380	0.749984	0.000000	-0.661456
6.374861	20.405405	-5.622380	0.749984	0.000000	-0.661456
-6.374861	23.000000	-5.622380	-0.749984	0.000000	-0.661456
-6.374861	22.594595	-5.622380	-0.749984	0.000000	-0.661456
-6.374861	22.675676	-5.622380	-0.749984	0.000000	-0.661456
-6.374861	22.756756	-5.622380	-0.749984	0.000000	-0.661456
-6.374861	20.000000	-5.622380	-0.749984	0.000000	-0.661456
-6.374861	22.513514	-5.622380	-0.749984	0.000000	-0.661456
-6.374861	22.432432	-5.622380	-0.749984	0.000000	-0.661456
-6.374861	21.540541	-5.622380	-0.749984	0.000000	-0.661456
-6.374861	21.621622	-5.622380	-0.749984	0.000000	-0.661456
-6.374861	21.702703	-5.622380	-0.749984	0.000000	-0.661456
-6.374861	21.783783	-5.622380	-0.749984	0.000000	-0.661456
-6.374861	21.864864	-5.622380	-0.749984	0.000000	-0.661456
-6.374861	21.945946	-5.622380	-0.749984	0.000000	-0.661456
-6.374861	22.027027	-5.622380	-0.749984	0.000000	-0.661456
-6.374861	22.108109	-5.622380	-0.749984	0.000000	-0.661456
-6.374861	22.189190	-5.622380	-0.749984	0.000000	-0.661456
-6.374861	22.270269	-5.622380	-0.749984	0.000000	-0.661456
-6.374861	22.351351	-5.622380	-0.749984	0.000000	-0.661456
-6.374861	20.081081	-5.622380	-0.749984	0.000000	-0.661456
-6.374861	20.972973	-5.622380	-0.749984	0.000000	-0.661456
-6.374861	22.837837	-5.622380	-0.749984	0.000000	-0.661456
-6.374861	22.918919	-5.622380	-0.749984	0.000000	-0.661456
-6.374861	20.162163	-5.622380	-0.749984	0.000000	-0.661456
-6.374861	20.243244	-5.622380	-0.749984	0.000000	-0.661456
-6.374861	20.324324	-5.622380	-0.749984	0.000000	-0.661456
-6.374861	20.405405	-5.622380	-0.749984	0.000000	-0.661456
-6.374861	20.486486	-5.622380	-0.749984	0.000000	-0.661456
-6.374861	20.567568	-5.622380	-0.749984	0.000000	-0.661456
-6.374861	20.648649	-5.622380	-0.749984	0.000000	-0.661456
-6.374861	20.729731	-5.622380	-0.749984	0.000000	-0.661456
-6.374861	20.810810	-5.622380	-0.749984	0.000000	-0.661456
-6.374861	20.891891	-5.622380	-0.749984	0.000000	-0.661456
-6.374861	21.054054	-5.622380	-0.749984	0.000000	-0.661456
-6.374861	21.135136	-5.622380	-0.749984	0.000000	-0.661456
-6.374861	21.216217	-5.622380	-0.749984	0.000000	-0.661456
-6.374861	21.297297	-5.622380	-0.749984	0.000000	-0.661456
-6.374861	21.378378	-5.622380	-0.749984	0.000000	-0.661456
-6.374861	21.459459	-5.622380	-0.749984	0.000000	-0.661456
6.428745	21.864864	-5.560686	0.756323	0.000000	-0.654198
6.428745	21.378378	-5.560686	0.756323	0.000000	-0.654198
6.428745	21.459459	-5.560686	0.756323	0.000000	-0.654198
6.428745	21.540541	-5.560686	0.756323	0.000000	-0.654198
6.428745	21.621622	-5.560686	0.756323	0.000000	-0.654198
6.428745	21.702703	-5.560686	0.756323	0.000000	-0.654198
6.428745	23.000000	-5.560686	0.756323	0.000000	-0.654198
6.428745	22.918919	-5.560686	0.756323	0.000000	-0.654198
6.428745	22.837837	-5.560686	0.756323	0.000000	-0.654198
6.428745	22.756756	-5.560686	0.756323	0.000000	-0.654198
6.428745	22.675676	-5.560686	0.756323	0.000000	-0.654198
6.428745	22.594595	-5.560686	0.756323	0.000000	-0.654198
6.428745	22.189190	-5.560686	0.756323	0.000000	-0.654198
6.428745	22.351351	-5.560686	0.756323	0.000000	-0.654198
6.428745	20.081081	-5.560686	0.756323	0.000000	-0.654198
6.428745	22.432432	-5.560686	0.756323	0.000000	-0.654198
6.428745	20.162163	-5.560686	0.756323	0.000000	-0.654198
6.428745	20.243244	-5.560686	0.756323	0.000000	-0.654198
6.428745	20.324324	-5.560686	0.756323	0.000000	-0.654198
6.428745	21.783783	-5.560686	0.756323	0.000000	-0.654198
6.428745	20.486486	-5.560686	0.756323	0.000000	-0.654198
6.428745	20.567568	-5.560686	0.756323	0.000000	-0.654198
6.428745	20.648649	-5.560686	0.756323	0.000000	-0.654198
6.428745	20.729731	-5.560686	0.756323	0.000000	-0.654198
6.428745	20.810810	-5.560686	0.756323	0.000000	-0.654198
6.428745	20.891891	-5.560686	0.756323	0.000000	-0.654198
6.428745	20.972973	-5.560686	0.756323	0.000000	-0.654198
6.428745	21.054054	-5.560686	0.756323	0.000000	-0.654198
6.428745	21.135136	-5.560686	0.756323	0.000000	-0.654198
6.428745	21.216217	-5.560686	0.756323	0.000000	-0.654198
6.428745	21.297297	-5.560686	0.756323	0.000000	-0.654198
6.428745	22.108109	-5.560686	0.756323	0.000000	-0.654198
6.428745	22.027027	-5.560686	0.756323	0.000000	-0.654198
6.428745	22.270269	-5.560686	0.756323	0.000000	-0.654198
6.428745	21.945946	-5.560686	0.756323	0.000000	-0.654198
6.428745	22.513514	-5.560686	0.756323	0.000000	-0.654198
6.428745	20.405405	-5.560686	0.756323	0.000000	-0.654198
6.428745	20.000000	-5.560686	0.756323	0.000000	-0.654198
-6.428745	20.405405	-5.560686	-0.756323	0.000000	-0.654198
-6.428745	20.486486	-5.560686	-0.756323	0.000000	-0.654198
-6.428745	20.567568	-5.560686	-0.756323	0.000000	-0.654198
-6.428745	22.270269	-5.560686	-0.756323	0.000000	-0.654198
-6.428745	20.648649	-5.560686	-0.756323	0.000000	-0.654198
-6.428745	20.729731	-5.560686	-0.756323	0.000000	-0.654198
-6.428745	20.810810	-5.560686	-0.756323	0.000000	-0.654198
-6.428745	20.891891	-5.560686	-0.756323	0.000000	-0.654198
-6.428745	20.972973	-5.560686	-0.756323	0.000000	-0.654198
-6.428745	23.000000	-5.560686	-0.756323	0.000000	-0.654198
-6.428745	20.000000	-5.560686	-0.756323	0.000000	-0.654198
-6.428745	22.027027	-5.560686	-0.756323	0.000000	-0.654198
-6.428745	22.108109	-5.560686	-0.756323	0.000000	-0.654198
-6.428745	22.189190	-5.560686	-0.756323	0.000000	-0.654198
-6.428745	22.351351	-5.560686	-0.756323	0.000000	-0.654198
-6.428745	22.432432	-5.560686	-0.756323	0.000000	-0.654198
-6.428745	21.945946	-5.560686	-0.756323	0.000000	-0.654198
-6.428745	21.864864	-5.560686	-0.756323	0.000000	-0.654198
-6.428745	21.783783	-5.560686	-0.756323	0.000000	-0.654198
-6.428745	21.702703	-5.560686	-0.756323	0.000000	-0.654198
-6.428745	21.621622	-5.560686	-0.756323	0.000000	-0.654198
-6.428745	21.540541	-5.560686	-0.756323	0.000000	-0.654198
-6.428745	21.459459	-5.560686	-0.756323	0.000000	-0.654198
-6.428745	21.378378	-5.560686	-0.756323	0.000000	-0.654198
-6.428745	21.297297	-5.560686	-0.756323	0.000000	-0.654198
-6.428745	22.513514	-5.560686	-0.756323	0.000000	-0.654198
-6.428745	22.594595	-5.560686	-0.756323	0.000000	-0.654198
-6.428745	22.675676	-5.560686	-0.756323	0.000000	-0.654198
-6.428745	22.756756	-5.560686	-0.756323	0.000000	-0.654198
-6.428745	22.837837	-5.560686	-0.756323	0.000000	-0.654198
-6.428745	22.918919	-5.560686	-0.756323	0.000000	-0.654198
-6.428745	21.216217	-5.560686	-0.756323	0.000000	-0.654198
-6.428745	21.135136	-5.560686	-0.756323	0.000000	-0.654198
-6.428745	21.054054	-5.560686	-0.756323	0.000000	-0.654198
-6.428745	20.162163	-5.560686	-0.756323	0.000000	-0.654198
-6.428745	20.243244	-5.560686	-0.756323	0.000000	-0.654198
-6.428745	20.324324	-5.560686	-0.756323	0.000000	-0.654198
-6.428745	20.081081	-5.560686	-0.756323	0.000000	-0.654198
0.000000	26.000000	-5.500000	0.000000	1.000000	0.000000
-0.081853	26.000000	-5.498995	0.000000	1.000000	0.000000
0.081853	26.000000	-5.498995	0.000000	1.000000	0.000000
6.482033	21.864864	-5.498477	0.762592	0.000000	-0.646880
6.482033	22.351351	-5.498477	0.762592	0.000000	-0.646880
6.482033	22.189190	-5.498477	0.762592	0.000000	-0.646880
6.482033	22.756756	-5.498477	0.762592	0.000000	-0.646880
6.482033	21.297297	-5.498477	0.762592	0.000000	-0.646880
6.482033	21.216217	-5.498477	0.762592	0.000000	-0.646880
6.482033	22.108109	-5.498477	0.762592	0.000000	-0.646880
6.482033	21.135136	-5.498477	0.762592	0.000000	-0.646880
6.482033	20.891891	-5.498477	0.762592	0.000000	-0.646880
6.482033	22.027027	-5.498477	0.762592	0.000000	-0.646880
6.482033	20.810810	-5.498477	0.762592	0.000000	-0.646880
6.482033	22.837837	-5.498477	0.762592	0.000000	-0.646880
6.482033	20.729731	-5.498477	0.762592	0.000000	-0.646880
6.482033	22.918919	-5.498477	0.762592	0.000000	-0.646880
6.482033	21.054054	-5.498477	0.762592	0.000000	-0.646880
6.482033	20.972973	-5.498477	0.762592	0.000000	-0.646880
6.482033	21.945946	-5.498477	0.762592	0.000000	-0.646880
6.482033	23.000000	-5.498477	0.762592	0.000000	-0.646880
6.482033	21.783783	-5.498477	0.762592	0.000000	-0.646880
6.482033	21.621622	-5.498477	0.762592	0.000000	-0.646880
6.482033	20.000000	-5.498477	0.762592	0.000000	-0.646880
6.482033	21.540541	-5.498477	0.762592	0.000000	-0.646880
6.482033	21.459459	-5.498477	0.762592	0.000000	-0.646880
6.482033	21.378378	-5.498477	0.762592	0.000000	-0.646880
6.482033	22.675676	-5.498477	0.762592	0.000000	-0.646880
6.482033	22.594595	-5.498477	0.762592	0.000000	-0.646880
6.482033	22.513514	-5.498477	0.762592	0.000000	-0.646880
6.482033	20.648649	-5.498477	0.762592	0.000000	-0.646880
6.482033	20.567568	-5.498477	0.762592	0.000000	-0.646880
6.482033	21.702703	-5.498477	0.762592	0.000000	-0.646880
6.482033	20.486486	-5.498477	0.762592	0.000000	-0.646880
6.482033	20.405405	-5.498477	0.762592	0.000000	-0.646880
6.482033	20.324324	-5.498477	0.762592	0.000000	-0.646880
6.482033	22.432432	-5.498477	0.762592	0.000000	-0.646880
6.482033	20.243244	-5.498477	0.762592	0.000000	-0.646880
6.482033	20.162163	-5.498477	0.762592	0.000000	-0.646880
6.482033	20.081081	-5.498477	0.762592	0.000000	-0.646880
6.482033	22.270269	-5.498477	0.762592	0.000000	-0.646880
-6.482033	20.810810	-5.498477	-0.762592	0.000000	-0.646880
-6.482033	21.216217	-5.498477	-0.762592	0.000000	-0.646880
-6.482033	20.972973	-5.498477	-0.762592	0.000000	-0.646880
-6.482033	20.405405	-5.498477	-0.762592	0.000000	-0.646880
-6.482033	20.324324	-5.498477	-0.762592	0.000000	-0.646880
-6.482033	20.243244	-5.498477	-0.762592	0.000000	-0.646880
-6.482033	20.486486	-5.498477	-0.762592	0.000000	-0.646880
-6.482033	20.891891	-5.498477	-0.762592	0.000000	-0.646880
-6.482033	20.162163	-5.498477	-0.762592	0.000000	-0.646880
-6.482033	20.081081	-5.498477	-0.762592	0.000000	-0.646880
-6.482033	20.567568	-5.498477	-0.762592	0.000000	-0.646880
-6.482033	20.648649	-5.498477	-0.762592	0.000000	-0.646880
-6.482033	20.729731	-5.498477	-0.762592	0.000000	-0.646880
-6.482033	21.054054	-5.498477	-0.762592	0.000000	-0.646880
-6.482033	21.135136	-5.498477	-0.762592	0.000000	-0.646880
-6.482033	20.000000	-5.498477	-0.762592	0.000000	-0.646880
-6.482033	21.297297	-5.498477	-0.762592	0.000000	-0.646880
-6.482033	21.378378	-5.498477	-0.762592	0.000000	-0.646880
-6.482033	21.459459	-5.498477	-0.762592	0.000000	-0.646880
-6.482033	21.540541	-5.498477	-0.762592	0.000000	-0.646880
-6.482033	21.621622	-5.498477	-0.762592	0.000000	-0.646880
-6.482033	21.702703	-5.498477	-0.762592	0.000000	-0.646880
-6.482033	21.783783	-5.498477	-0.762592	0.000000	-0.646880
-6.482033	21.864864	-5.498477	-0.762592	0.000000	-0.646880
-6.482033	21.945946	-5.498477	-0.762592	0.000000	-0.646880
-6.482033	22.027027	-5.498477	-0.762592	0.000000	-0.646880
-6.482033	22.108109	-5.498477	-0.762592	0.000000	-0.646880
-6.482033	22.189190	-5.498477	-0.762592	0.000000	-0.646880
-6.482033	22.270269	-5.498477	-0.762592	0.000000	-0.646880
-6.482033	22.351351	-5.498477	-0.762592	0.000000	-0.646880
-6.482033	22.432432	-5.498477	-0.762592	0.000000	-0.646880
-6.482033	22.513514	-5.498477	-0.762592	0.000000	-0.646880
-6.482033	22.594595	-5.498477	-0.762592	0.000000	-0.646880
-6.482033	22.675676	-5.498477	-0.762592	0.000000	-0.646880
-6.482033	22.756756	-5.498477	-0.762592	0.000000	-0.646880
-6.482033	22.837837	-5.498477	-0.762592	0.000000	-0.646880
-6.482033	22.918919	-5.498477	-0.762592	0.000000	-0.646880
-6.482033	23.000000	-5.498477	-0.762592	0.000000	-0.646880
-0.134977	26.000000	-5.498343	0.000000	1.000000	0.000000
0.134977	26.000000	-5.498343	0.000000	1.000000	0.000000
-0.163706	26.000000	-5.497285	0.000000	1.000000	0.000000
0.163706	26.000000	-5.497285	0.000000	1.000000	0.000000
-0.245559	26.000000	-5.494270	0.000000	1.000000	0.000000
0.245559	26.000000	-5.494270	0.000000	1.000000	0.000000
-0.269872	26.000000	-5.493375	0.000000	1.000000	0.000000
0.269872	26.000000	-5.493375	0.000000	1.000000	0.000000
-0.327412	26.000000	-5.489840	0.000000	1.000000	0.000000
0.327412	26.000000	-5.489840	0.000000	1.000000	0.000000
-0.404605	26.000000	-5.485097	0.000000	1.000000	0.000000
0.404605	26.000000	-5.485097	0.000000	1.000000	0.000000
-0.409265	26.000000	-5.484696	0.000000	1.000000	0.000000
0.409265	26.000000	-5.484696	0.000000	1.000000	0.000000
0.081853	26.000000	-5.484147	0.000000	1.000000	0.000000
-0.415642	26.000000	-5.484147	0.000000	1.000000	0.000000
0.163706	26.000000	-5.484147	0.000000	1.000000	0.000000
0.245559	26.000000	-5.484147	0.000000	1.000000	0.000000
0.415642	26.000000	-5.484147	0.000000	1.000000	0.000000
0.327412	26.000000	-5.484147	0.000000	1.000000	0.000000
0.409265	26.000000	-5.484147	0.000000	1.000000	0.000000
-0.409265	26.000000	-5.484147	0.000000	1.000000	0.000000
-0.327412	26.000000	-5.484147	0.000000	1.000000	0.000000
-0.245559	26.000000	-5.484147	0.000000	1.000000	0.000000
-0.163706	26.000000	-5.484147	0.000000	1.000000	0.000000
-0.081853	26.000000	-5.484147	0.000000	1.000000	0.000000
-0.000000	26.000000	-5.484147	0.000000	1.000000	0.000000
-0.491118	26.000000	-5.477647	0.000000	1.000000	0.000000
0.491118	26.000000	-5.477647	0.000000	1.000000	0.000000
-0.539094	26.000000	-5.473516	0.000000	1.000000	0.000000
0.539094	26.000000	-5.473516	0.000000	1.000000	0.000000
-0.572971	26.000000	-5.469759	0.000000	1.000000	0.000000
0.572971	26.000000	-5.469759	0.000000	1.000000	0.000000
-0.654824	26.000000	-5.460682	0.000000	1.000000	0.000000
0.654824	26.000000	-5.460682	0.000000	1.000000	0.000000
-0.673259	26.000000	-5.458637	0.000000	1.000000	0.000000
0.673259	26.000000	-5.458637	0.000000	1.000000	0.000000
-0.736676	26.000000	-5.450024	0.000000	1.000000	0.000000
0.736676	26.000000	-5.450024	0.000000	1.000000	0.000000
-0.807018	26.000000	-5.440471	0.000000	1.000000	0.000000
0.807018	26.000000	-5.440471	0.000000	1.000000	0.000000
-0.818529	26.000000	-5.438619	0.000000	1.000000	0.000000
0.818529	26.000000	-5.438619	0.000000	1.000000	0.000000
-6.534719	20.000000	-5.435756	-0.768790	0.000000	-0.639501
6.534719	22.594595	-5.435756	0.768790	0.000000	-0.639501
6.534719	22.513514	-5.435756	0.768790	0.000000	-0.639501
6.534719	22.432432	-5.435756	0.768790	0.000000	-0.639501
6.534719	22.351351	-5.435756	0.768790	0.000000	-0.639501
6.534719	22.270269	-5.435756	0.768790	0.000000	-0.639501
6.534719	22.108109	-5.435756	0.768790	0.000000	-0.639501
6.534719	22.027027	-5.435756	0.768790	0.000000	-0.639501
6.534719	21.945946	-5.435756	0.768790	0.000000	-0.639501
6.534719	21.864864	-5.435756	0.768790	0.000000	-0.639501
6.534719	21.783783	-5.435756	0.768790	0.000000	-0.639501
6.534719	21.540541	-5.435756	0.768790	0.000000	-0.639501
6.534719	21.459459	-5.435756	0.768790	0.000000	-0.639501
6.534719	21.378378	-5.435756	0.768790	0.000000	-0.639501
6.534719	21.297297	-5.435756	0.768790	0.000000	-0.639501
6.534719	21.216217	-5.435756	0.768790	0.000000	-0.639501
6.534719	21.135136	-5.435756	0.768790	0.000000	-0.639501
6.534719	21.054054	-5.435756	0.768790	0.000000	-0.639501
6.534719	20.972973	-5.435756	0.768790	0.000000	-0.639501
6.534719	20.891891	-5.435756	0.768790	0.000000	-0.639501
6.534719	20.810810	-5.435756	0.768790	0.000000	-0.639501
6.534719	20.729731	-5.435756	0.768790	0.000000	-0.639501
6.534719	20.648649	-5.435756	0.768790	0.000000	-0.639501
6.534719	21.702703	-5.435756	0.768790	0.000000	-0.639501
6.534719	20.486486	-5.435756	0.768790	0.000000	-0.639501
6.534719	20.405405	-5.435756	0.768790	0.000000	-0.639501
6.534719	20.324324	-5.435756	0.768790	0.000000	-0.639501
6.534719	20.243244	-5.435756	0.768790	0.000000	-0.639501
6.534719	20.162163	-5.435756	0.768790	0.000000	-0.639501
6.534719	20.081081	-5.435756	0.768790	0.000000	-0.639501
6.534719	22.918919	-5.435756	0.768790	0.000000	-0.639501
6.534719	20.567568	-5.435756	0.768790	0.000000	-0.639501
-6.534719	21.378378	-5.435756	-0.768790	0.000000	-0.639501
-6.534719	21.297297	-5.435756	-0.768790	0.000000	-0.639501
-6.534719	21.216217	-5.435756	-0.768790	0.000000	-0.639501
-6.534719	21.135136	-5.435756	-0.768790	0.000000	-0.639501
-6.534719	21.054054	-5.435756	-0.768790	0.000000	-0.639501
-6.534719	20.972973	-5.435756	-0.768790	0.000000	-0.639501
-6.534719	20.891891	-5.435756	-0.768790	0.000000	-0.639501
-6.534719	20.810810	-5.435756	-0.768790	0.000000	-0.639501
-6.534719	20.729731	-5.435756	-0.768790	0.000000	-0.639501
-6.534719	20.648649	-5.435756	-0.768790	0.000000	-0.639501
6.534719	22.675676	-5.435756	0.768790	0.000000	-0.639501
6.534719	22.756756	-5.435756	0.768790	0.000000	-0.639501
6.534719	22.837837	-5.435756	0.768790	0.000000	-0.639501
6.534719	23.000000	-5.435756	0.768790	0.000000	-0.639501
-6.534719	20.567568	-5.435756	-0.768790	0.000000	-0.639501
-6.534719	20.486486	-5.435756	-0.768790	0.000000	-0.639501
-6.534719	21.459459	-5.435756	-0.768790	0.000000	-0.639501
-6.534719	21.540541	-5.435756	-0.768790	0.000000	-0.639501
-6.534719	21.621622	-5.435756	-0.768790	0.000000	-0.639501
-6.534719	21.702703	-5.435756	-0.768790	0.000000	-0.639501
-6.534719	21.783783	-5.435756	-0.768790	0.000000	-0.639501
-6.534719	21.864864	-5.435756	-0.768790	0.000000	-0.639501
-6.534719	21.945946	-5.435756	-0.768790	0.000000	-0.639501
-6.534719	22.027027	-5.435756	-0.768790	0.000000	-0.639501
-6.534719	22.108109	-5.435756	-0.768790	0.000000	-0.639501
-6.534719	22.189190	-5.435756	-0.768790	0.000000	-0.639501
-6.534719	22.270269	-5.435756	-0.768790	0.000000	-0.639501
-6.534719	22.351351	-5.435756	-0.768790	0.000000	-0.639501
-6.534719	22.432432	-5.435756	-0.768790	0.000000	-0.639501
6.534719	20.000000	-5.435756	0.768790	0.000000	-0.639501
-6.534719	22.594595	-5.435756	-0.768790	0.000000	-0.639501
-6.534719	22.675676	-5.435756	-0.768790	0.000000	-0.639501
-6.534719	22.756756	-5.435756	-0.768790	0.000000	-0.639501
-6.534719	22.837837	-5.435756	-0.768790	0.000000	-0.639501
-6.534719	22.918919	-5.435756	-0.768790	0.000000	-0.639501
-6.534719	23.000000	-5.435756	-0.768790	0.000000	-0.639501
-6.534719	20.405405	-5.435756	-0.768790	0.000000	-0.639501
-6.534719	20.243244	-5.435756	-0.768790	0.000000	-0.639501
-6.534719	20.162163	-5.435756	-0.768790	0.000000	-0.639501
6.534719	22.189190	-5.435756	0.768790	0.000000	-0.639501
6.534719	21.621622	-5.435756	0.768790	0.000000	-0.639501
-6.534719	20.324324	-5.435756	-0.768790	0.000000	-0.639501
-6.534719	20.081081	-5.435756	-0.768790	0.000000	-0.639501
-6.534719	22.513514	-5.435756	-0.768790	0.000000	-0.639501
-0.900382	26.000000	-5.425448	0.000000	1.000000	0.000000
0.900382	26.000000	-5.425448	0.000000	1.000000	0.000000
-0.940290	26.000000	-5.419027	0.000000	1.000000	0.000000
0.940290	26.000000	-5.419027	0.000000	1.000000	0.000000
-0.982235	26.000000	-5.411218	0.000000	1.000000	0.000000
0.982235	26.000000	-5.411218	0.000000	1.000000	0.000000
1.030163	26.000000	-5.402294	0.000000	1.000000	0.000000
0.982235	26.000000	-5.402294	0.000000	1.000000	0.000000
0.491118	26.000000	-5.402294	0.000000	1.000000	0.000000
0.900382	26.000000	-5.402294	0.000000	1.000000	0.000000
0.818529	26.000000	-5.402294	0.000000	1.000000	0.000000
-0.982235	26.000000	-5.402294	0.000000	1.000000	0.000000
-0.900382	26.000000	-5.402294	0.000000	1.000000	0.000000
-0.818529	26.000000	-5.402294	0.000000	1.000000	0.000000
-0.736676	26.000000	-5.402294	0.000000	1.000000	0.000000
-0.654824	26.000000	-5.402294	0.000000	1.000000	0.000000
-0.572971	26.000000	-5.402294	0.000000	1.000000	0.000000
-0.491118	26.000000	-5.402294	0.000000	1.000000	0.000000
0.736676	26.000000	-5.402294	0.000000	1.000000	0.000000
-0.409265	26.000000	-5.402294	0.000000	1.000000	0.000000
-1.030163	26.000000	-5.402294	0.000000	1.000000	0.000000
-0.327412	26.000000	-5.402294	0.000000	1.000000	0.000000
0.572971	26.000000	-5.402294	0.000000	1.000000	0.000000
-0.245559	26.000000	-5.402294	0.000000	1.000000	0.000000
0.409265	26.000000	-5.402294	0.000000	1.000000	0.000000
-0.163706	26.000000	-5.402294	0.000000	1.000000	0.000000
0.327412	26.000000	-5.402294	0.000000	1.000000	0.000000
-0.081853	26.000000	-5.402294	0.000000	1.000000	0.000000
0.245559	26.000000	-5.402294	0.000000	1.000000	0.000000
-0.000000	26.000000	-5.402294	0.000000	1.000000	0.000000
0.654824	26.000000	-5.402294	0.000000	1.000000	0.000000
0.081853	26.000000	-5.402294	0.000000	1.000000	0.000000
0.163706	26.000000	-5.402294	0.000000	1.000000	0.000000
-1.064088	26.000000	-5.395977	0.000000	1.000000	0.000000
1.064088	26.000000	-5.395977	0.000000	1.000000	0.000000
-1.072997	26.000000	-5.394319	0.000000	1.000000	0.000000
1.072997	26.000000	-5.394319	0.000000	1.000000	0.000000
-1.145941	26.000000	-5.378877	0.000000	1.000000	0.000000
1.145941	26.000000	-5.378877	0.000000	1.000000	0.000000
-6.586798	20.729731	-5.372531	-0.774917	0.000000	-0.632062
-6.586798	20.648649	-5.372531	-0.774917	0.000000	-0.632062
-6.586798	20.486486	-5.372531	-0.774917	0.000000	-0.632062
-6.586798	20.405405	-5.372531	-0.774917	0.000000	-0.632062
-6.586798	20.810810	-5.372531	-0.774917	0.000000	-0.632062
-6.586798	20.243244	-5.372531	-0.774917	0.000000	-0.632062
-6.586798	21.540541	-5.372531	-0.774917	0.000000	-0.632062
-6.586798	22.918919	-5.372531	-0.774917	0.000000	-0.632062
-6.586798	20.324324	-5.372531	-0.774917	0.000000	-0.632062
-6.586798	23.000000	-5.372531	-0.774917	0.000000	-0.632062
-6.586798	20.000000	-5.372531	-0.774917	0.000000	-0.632062
-6.586798	21.459459	-5.372531	-0.774917	0.000000	-0.632062
-6.586798	21.378378	-5.372531	-0.774917	0.000000	-0.632062
-6.586798	20.081081	-5.372531	-0.774917	0.000000	-0.632062
-6.586798	20.567568	-5.372531	-0.774917	0.000000	-0.632062
-6.586798	21.621622	-5.372531	-0.774917	0.000000	-0.632062
-6.586798	21.702703	-5.372531	-0.774917	0.000000	-0.632062
-6.586798	21.783783	-5.372531	-0.774917	0.000000	-0.632062
-6.586798	21.864864	-5.372531	-0.774917	0.000000	-0.632062
-6.586798	21.945946	-5.372531	-0.774917	0.000000	-0.632062
-6.586798	22.027027	-5.372531	-0.774917	0.000000	-0.632062
-6.586798	21.297297	-5.372531	-0.774917	0.000000	-0.632062
-6.586798	22.108109	-5.372531	-0.774917	0.000000	-0.632062
-6.586798	22.189190	-5.372531	-0.774917	0.000000	-0.632062
-6.586798	22.270269	-5.372531	-0.774917	0.000000	-0.632062
-6.586798	22.351351	-5.372531	-0.774917	0.000000	-0.632062
-6.586798	22.432432	-5.372531	-0.774917	0.000000	-0.632062
-6.586798	22.513514	-5.372531	-0.774917	0.000000	-0.632062
-6.586798	22.594595	-5.372531	-0.774917	0.000000	-0.632062
-6.586798	21.216217	-5.372531	-0.774917	0.000000	-0.632062
-6.586798	22.675676	-5.372531	-0.774917	0.000000	-0.632062
-6.586798	22.756756	-5.372531	-0.774917	0.000000	-0.632062
-6.586798	22.837837	-5.372531	-0.774917	0.000000	-0.632062
-6.586798	21.135136	-5.372531	-0.774917	0.000000	-0.632062
-6.586798	21.054054	-5.372531	-0.774917	0.000000	-0.632062
-6.586798	20.972973	-5.372531	-0.774917	0.000000	-0.632062
-6.586798	20.891891	-5.372531	-0.774917	0.000000	-0.632062
-6.586798	20.162163	-5.372531	-0.774917	0.000000	-0.632062
6.586798	22.027027	-5.372531	0.774917	0.000000	-0.632062
6.586798	21.945946	-5.372531	0.774917	0.000000	-0.632062
6.586798	21.864864	-5.372531	0.774917	0.000000	-0.632062
6.586798	21.783783	-5.372531	0.774917	0.000000	-0.632062
6.586798	21.621622	-5.372531	0.774917	0.000000	-0.632062
6.586798	21.540541	-5.372531	0.774917	0.000000	-0.632062
6.586798	20.000000	-5.372531	0.774917	0.000000	-0.632062
6.586798	21.459459	-5.372531	0.774917	0.000000	-0.632062
6.586798	21.378378	-5.372531	0.774917	0.000000	-0.632062
6.586798	21.297297	-5.372531	0.774917	0.000000	-0.632062
6.586798	21.216217	-5.372531	0.774917	0.000000	-0.632062
6.586798	21.135136	-5.372531	0.774917	0.000000	-0.632062
6.586798	21.054054	-5.372531	0.774917	0.000000	-0.632062
6.586798	20.972973	-5.372531	0.774917	0.000000	-0.632062
6.586798	20.891891	-5.372531	0.774917	0.000000	-0.632062
6.586798	20.810810	-5.372531	0.774917	0.000000	-0.632062
6.586798	20.729731	-5.372531	0.774917	0.000000	-0.632062
6.586798	20.648649	-5.372531	0.774917	0.000000	-0.632062
6.586798	20.567568	-5.372531	0.774917	0.000000	-0.632062
6.586798	20.486486	-5.372531	0.774917	0.000000	-0.632062
6.586798	20.405405	-5.372531	0.774917	0.000000	-0.632062
6.586798	20.324324	-5.372531	0.774917	0.000000	-0.632062
6.586798	20.243244	-5.372531	0.774917	0.000000	-0.632062
6.586798	20.162163	-5.372531	0.774917	0.000000	-0.632062
6.586798	20.081081	-5.372531	0.774917	0.000000	-0.632062
6.586798	21.702703	-5.372531	0.774917	0.000000	-0.632062
6.586798	23.000000	-5.372531	0.774917	0.000000	-0.632062
6.586798	22.918919	-5.372531	0.774917	0.000000	-0.632062
6.586798	22.837837	-5.372531	0.774917	0.000000	-0.632062
6.586798	22.756756	-5.372531	0.774917	0.000000	-0.632062
6.586798	22.675676	-5.372531	0.774917	0.000000	-0.632062
6.586798	22.594595	-5.372531	0.774917	0.000000	-0.632062
6.586798	22.513514	-5.372531	0.774917	0.000000	-0.632062
6.586798	22.432432	-5.372531	0.774917	0.000000	-0.632062
6.586798	22.351351	-5.372531	0.774917	0.000000	-0.632062
6.586798	22.270269	-5.372531	0.774917	0.000000	-0.632062
6.586798	22.189190	-5.372531	0.774917	0.000000	-0.632062
6.586798	22.108109	-5.372531	0.774917	0.000000	-0.632062
-1.205057	26.000000	-5.366362	0.000000	1.000000	0.000000
1.205057	26.000000	-5.366362	0.000000	1.000000	0.000000
-1.227794	26.000000	-5.360962	0.000000	1.000000	0.000000
1.227794	26.000000	-5.360962	0.000000	1.000000	0.000000
-1.309647	26.000000	-5.341523	0.000000	1.000000	0.000000
1.309647	26.000000	-5.341523	0.000000	1.000000	0.000000
-1.336391	26.000000	-5.335172	0.000000	1.000000	0.000000
1.336391	26.000000	-5.335172	0.000000	1.000000	0.000000
-1.391500	26.000000	-5.320647	0.000000	1.000000	0.000000
1.391500	26.000000	-5.320647	0.000000	1.000000	0.000000
-1.145941	26.000000	-5.320441	0.000000	1.000000	0.000000
0.409265	26.000000	-5.320441	0.000000	1.000000	0.000000
0.818529	26.000000	-5.320441	0.000000	1.000000	0.000000
0.982235	26.000000	-5.320441	0.000000	1.000000	0.000000
-1.309647	26.000000	-5.320441	0.000000	1.000000	0.000000
0.491118	26.000000	-5.320441	0.000000	1.000000	0.000000
0.900382	26.000000	-5.320441	0.000000	1.000000	0.000000
0.572971	26.000000	-5.320441	0.000000	1.000000	0.000000
0.654824	26.000000	-5.320441	0.000000	1.000000	0.000000
-1.227794	26.000000	-5.320441	0.000000	1.000000	0.000000
0.736676	26.000000	-5.320441	0.000000	1.000000	0.000000
1.392280	26.000000	-5.320441	0.000000	1.000000	0.000000
1.391500	26.000000	-5.320441	0.000000	1.000000	0.000000
1.309647	26.000000	-5.320441	0.000000	1.000000	0.000000
1.227794	26.000000	-5.320441	0.000000	1.000000	0.000000
-0.163706	26.000000	-5.320441	0.000000	1.000000	0.000000
-0.245559	26.000000	-5.320441	0.000000	1.000000	0.000000
-0.327412	26.000000	-5.320441	0.000000	1.000000	0.000000
-0.409265	26.000000	-5.320441	0.000000	1.000000	0.000000
-0.081853	26.000000	-5.320441	0.000000	1.000000	0.000000
-0.491118	26.000000	-5.320441	0.000000	1.000000	0.000000
-0.000000	26.000000	-5.320441	0.000000	1.000000	0.000000
-0.572971	26.000000	-5.320441	0.000000	1.000000	0.000000
-0.654824	26.000000	-5.320441	0.000000	1.000000	0.000000
0.081853	26.000000	-5.320441	0.000000	1.000000	0.000000
-0.736676	26.000000	-5.320441	0.000000	1.000000	0.000000
-0.818529	26.000000	-5.320441	0.000000	1.000000	0.000000
0.163706	26.000000	-5.320441	0.000000	1.000000	0.000000
-0.900382	26.000000	-5.320441	0.000000	1.000000	0.000000
1.145941	26.000000	-5.320441	0.000000	1.000000	0.000000
-0.982235	26.000000	-5.320441	0.000000	1.000000	0.000000
0.245559	26.000000	-5.320441	0.000000	1.000000	0.000000
-1.064088	26.000000	-5.320441	0.000000	1.000000	0.000000
1.064088	26.000000	-5.320441	0.000000	1.000000	0.000000
0.327412	26.000000	-5.320441	0.000000	1.000000	0.000000
-1.391500	26.000000	-5.320441	0.000000	1.000000	0.000000
-1.392280	26.000000	-5.320441	0.000000	1.000000	0.000000
-6.638265	20.972973	-5.308807	-0.780972	0.000000	-0.624566
-6.638265	21.054054	-5.308807	-0.780972	0.000000	-0.624566
-6.638265	21.135136	-5.308807	-0.780972	0.000000	-0.624566
-6.638265	21.216217	-5.308807	-0.780972	0.000000	-0.624566
-6.638265	21.297297	-5.308807	-0.780972	0.000000	-0.624566
-6.638265	21.378378	-5.308807	-0.780972	0.000000	-0.624566
-6.638265	21.459459	-5.308807	-0.780972	0.000000	-0.624566
-6.638265	21.540541	-5.308807	-0.780972	0.000000	-0.624566
-6.638265	21.621622	-5.308807	-0.780972	0.000000	-0.624566
-6.638265	21.702703	-5.308807	-0.780972	0.000000	-0.624566
-6.638265	21.783783	-5.308807	-0.780972	0.000000	-0.624566
-6.638265	21.864864	-5.308807	-0.780972	0.000000	-0.624566
-6.638265	21.945946	-5.308807	-0.780972	0.000000	-0.624566
-6.638265	22.027027	-5.308807	-0.780972	0.000000	-0.624566
-6.638265	22.108109	-5.308807	-0.780972	0.000000	-0.624566
-6.638265	22.189190	-5.308807	-0.780972	0.000000	-0.624566
-6.638265	20.000000	-5.308807	-0.780972	0.000000	-0.624566
-6.638265	22.675676	-5.308807	-0.780972	0.000000	-0.624566
-6.638265	23.000000	-5.308807	-0.780972	0.000000	-0.624566
-6.638265	22.270269	-5.308807	-0.780972	0.000000	-0.624566
-6.638265	20.729731	-5.308807	-0.780972	0.000000	-0.624566
-6.638265	22.918919	-5.308807	-0.780972	0.000000	-0.624566
-6.638265	22.837837	-5.308807	-0.780972	0.000000	-0.624566
-6.638265	22.756756	-5.308807	-0.780972	0.000000	-0.624566
-6.638265	22.594595	-5.308807	-0.780972	0.000000	-0.624566
-6.638265	22.513514	-5.308807	-0.780972	0.000000	-0.624566
-6.638265	22.432432	-5.308807	-0.780972	0.000000	-0.624566
-6.638265	22.351351	-5.308807	-0.780972	0.000000	-0.624566
-6.638265	20.243244	-5.308807	-0.780972	0.000000	-0.624566
-6.638265	20.810810	-5.308807	-0.780972	0.000000	-0.624566
-6.638265	20.648649	-5.308807	-0.780972	0.000000	-0.624566
-6.638265	20.567568	-5.308807	-0.780972	0.000000	-0.624566
-6.638265	20.486486	-5.308807	-0.780972	0.000000	-0.624566
-6.638265	20.405405	-5.308807	-0.780972	0.000000	-0.624566
-6.638265	20.324324	-5.308807	-0.780972	0.000000	-0.624566
-6.638265	20.162163	-5.308807	-0.780972	0.000000	-0.624566
-6.638265	20.081081	-5.308807	-0.780972	0.000000	-0.624566
-6.638265	20.891891	-5.308807	-0.780972	0.000000	-0.624566
6.638265	22.189190	-5.308807	0.780972	0.000000	-0.624566
6.638265	20.810810	-5.308807	0.780972	0.000000	-0.624566
6.638265	20.729731	-5.308807	0.780972	0.000000	-0.624566
6.638265	20.891891	-5.308807	0.780972	0.000000	-0.624566
6.638265	20.972973	-5.308807	0.780972	0.000000	-0.624566
6.638265	22.270269	-5.308807	0.780972	0.000000	-0.624566
6.638265	21.054054	-5.308807	0.780972	0.000000	-0.624566
6.638265	20.243244	-5.308807	0.780972	0.000000	-0.624566
6.638265	21.135136	-5.308807	0.780972	0.000000	-0.624566
6.638265	21.216217	-5.308807	0.780972	0.000000	-0.624566
6.638265	20.162163	-5.308807	0.780972	0.000000	-0.624566
6.638265	22.351351	-5.308807	0.780972	0.000000	-0.624566
6.638265	20.081081	-5.308807	0.780972	0.000000	-0.624566
6.638265	21.297297	-5.308807	0.780972	0.000000	-0.624566
6.638265	21.378378	-5.308807	0.780972	0.000000	-0.624566
6.638265	21.459459	-5.308807	0.780972	0.000000	-0.624566
6.638265	21.540541	-5.308807	0.780972	0.000000	-0.624566
6.638265	20.324324	-5.308807	0.780972	0.000000	-0.624566
6.638265	21.621622	-5.308807	0.780972	0.000000	-0.624566
6.638265	22.837837	-5.308807	0.780972	0.000000	-0.624566
6.638265	22.918919	-5.308807	0.780972	0.000000	-0.624566
6.638265	22.432432	-5.308807	0.780972	0.000000	-0.624566
6.638265	21.945946	-5.308807	0.780972	0.000000	-0.624566
6.638265	20.405405	-5.308807	0.780972	0.000000	-0.624566
6.638265	20.486486	-5.308807	0.780972	0.000000	-0.624566
6.638265	22.108109	-5.308807	0.780972	0.000000	-0.624566
6.638265	20.567568	-5.308807	0.780972	0.000000	-0.624566
6.638265	21.864864	-5.308807	0.780972	0.000000	-0.624566
6.638265	22.027027	-5.308807	0.780972	0.000000	-0.624566
6.638265	20.648649	-5.308807	0.780972	0.000000	-0.624566
6.638265	20.000000	-5.308807	0.780972	0.000000	-0.624566
6.638265	21.783783	-5.308807	0.780972	0.000000	-0.624566
6.638265	21.702703	-5.308807	0.780972	0.000000	-0.624566
6.638265	22.513514	-5.308807	0.780972	0.000000	-0.624566
6.638265	22.594595	-5.308807	0.780972	0.000000	-0.624566
6.638265	23.000000	-5.308807	0.780972	0.000000	-0.624566
6.638265	22.675676	-5.308807	0.780972	0.000000	-0.624566
6.638265	22.756756	-5.308807	0.780972	0.000000	-0.624566
-1.466920	26.000000	-5.300768	0.000000	1.000000	0.000000
1.466920	26.000000	-5.300768	0.000000	1.000000	0.000000
-1.473353	26.000000	-5.298903	0.000000	1.000000	0.000000
1.473353	26.000000	-5.298903	0.000000	1.000000	0.000000
-1.555206	26.000000	-5.275166	0.000000	1.000000	0.000000
1.555206	26.000000	-5.275166	0.000000	1.000000	0.000000
