2.058598	15.000000	-5.635437	0.000000	-1.000000	0.000000
-2.058598	15.000000	-5.635437	0.000000	-1.000000	0.000000
2.101070	15.000000	-5.620099	0.000000	-1.000000	0.000000
-2.101070	15.000000	-5.620099	0.000000	-1.000000	0.000000
2.132120	15.000000	-5.608093	0.000000	-1.000000	0.000000
-2.132120	15.000000	-5.608093	0.000000	-1.000000	0.000000
-6.388611	17.000000	-5.606750	-0.751601	0.000000	-0.659618
-6.388611	16.928572	-5.606750	-0.751601	0.000000	-0.659618
-6.388611	16.857143	-5.606750	-0.751601	0.000000	-0.659618
-6.388611	16.785715	-5.606750	-0.751601	0.000000	-0.659618
-6.388611	16.714285	-5.606750	-0.751601	0.000000	-0.659618
-6.388611	16.642857	-5.606750	-0.751601	0.000000	-0.659618
-6.388611	16.571428	-5.606750	-0.751601	0.000000	-0.659618
-6.388611	16.428572	-5.606750	-0.751601	0.000000	-0.659618
-6.388611	16.357143	-5.606750	-0.751601	0.000000	-0.659618
-6.388611	16.285715	-5.606750	-0.751601	0.000000	-0.659618
-6.388611	16.214285	-5.606750	-0.751601	0.000000	-0.659618
-6.388611	16.142857	-5.606750	-0.751601	0.000000	-0.659618
-6.388611	16.071428	-5.606750	-0.751601	0.000000	-0.659618
-6.388611	16.000000	-5.606750	-0.751601	0.000000	-0.659618
-6.388611	16.500000	-5.606750	-0.751601	0.000000	-0.659618
-6.388611	15.857142	-5.606750	-0.751601	0.000000	-0.659618
-6.388611	15.785714	-5.606750	-0.751601	0.000000	-0.659618
-6.388611	15.714286	-5.606750	-0.751601	0.000000	-0.659618
-6.388611	15.642858	-5.606750	-0.751601	0.000000	-0.659618
-6.388611	15.500000	-5.606750	-0.751601	0.000000	-0.659618
-6.388611	15.428572	-5.606750	-0.751601	0.000000	-0.659618
-6.388611	15.357142	-5.606750	-0.751601	0.000000	-0.659618
-6.388611	15.214286	-5.606750	-0.751601	0.000000	-0.659618
-6.388611	15.142858	-5.606750	-0.751601	0.000000	-0.659618
-6.388611	15.071428	-5.606750	-0.751601	0.000000	-0.659618
-6.388611	15.000000	-5.606750	-0.751601	0.000000	-0.659618
-6.388611	15.928572	-5.606750	-0.751601	0.000000	-0.659618
-6.388611	15.571428	-5.606750	-0.751601	0.000000	-0.659618
-6.388611	15.285714	-5.606750	-0.751601	0.000000	-0.659618
6.388611	15.500000	-5.606750	0.751601	0.000000	-0.659618
6.388611	15.571428	-5.606750	0.751601	0.000000	-0.659618
6.388611	15.642858	-5.606750	0.751601	0.000000	-0.659618
6.388611	15.714286	-5.606750	0.751601	0.000000	-0.659618
6.388611	15.785714	-5.606750	0.751601	0.000000	-0.659618
6.388611	15.857142	-5.606750	0.751601	0.000000	-0.659618
6.388611	15.928572	-5.606750	0.751601	0.000000	-0.659618
6.388611	16.071428	-5.606750	0.751601	0.000000	-0.659618
6.388611	16.142857	-5.606750	0.751601	0.000000	-0.659618
6.388611	16.214285	-5.606750	0.751601	0.000000	-0.659618
6.388611	16.285715	-5.606750	0.751601	0.000000	-0.659618
6.388611	16.428572	-5.606750	0.751601	0.000000	-0.659618
6.388611	16.500000	-5.606750	0.751601	0.000000	-0.659618
6.388611	16.571428	-5.606750	0.751601	0.000000	-0.659618
6.388611	16.642857	-5.606750	0.751601	0.000000	-0.659618
6.388611	16.714285	-5.606750	0.751601	0.000000	-0.659618
6.388611	16.785715	-5.606750	0.751601	0.000000	-0.659618
6.388611	16.857143	-5.606750	0.751601	0.000000	-0.659618
6.388611	16.928572	-5.606750	0.751601	0.000000	-0.659618
6.388611	17.000000	-5.606750	0.751601	0.000000	-0.659618
6.388611	15.000000	-5.606750	0.751601	0.000000	-0.659618
6.388611	15.428572	-5.606750	0.751601	0.000000	-0.659618
6.388611	15.071428	-5.606750	0.751601	0.000000	-0.659618
6.388611	15.142858	-5.606750	0.751601	0.000000	-0.659618
6.388611	15.214286	-5.606750	0.751601	0.000000	-0.659618
6.388611	15.285714	-5.606750	0.751601	0.000000	-0.659618
6.388611	15.357142	-5.606750	0.751601	0.000000	-0.659618
6.388611	16.000000	-5.606750	0.751601	0.000000	-0.659618
6.388611	16.357143	-5.606750	0.751601	0.000000	-0.659618
6.396359	15.000000	-5.597844	0.752517	0.000000	-0.658573
-6.396359	15.000000	-5.597844	-0.752517	0.000000	-0.658573
-5.881710	15.000000	-5.587624	0.000000	-1.000000	0.000000
-5.808188	15.000000	-5.587624	0.000000	-1.000000	0.000000
-5.734667	15.000000	-5.587624	0.000000	-1.000000	0.000000
-5.661145	15.000000	-5.587624	0.000000	-1.000000	0.000000
-5.587624	15.000000	-5.587624	0.000000	-1.000000	0.000000
-5.514102	15.000000	-5.587624	0.000000	-1.000000	0.000000
-5.440581	15.000000	-5.587624	0.000000	-1.000000	0.000000
-5.367060	15.000000	-5.587624	0.000000	-1.000000	0.000000
-5.220017	15.000000	-5.587624	0.000000	-1.000000	0.000000
-5.146496	15.000000	-5.587624	0.000000	-1.000000	0.000000
-5.072974	15.000000	-5.587624	0.000000	-1.000000	0.000000
-4.999453	15.000000	-5.587624	0.000000	-1.000000	0.000000
-4.925931	15.000000	-5.587624	0.000000	-1.000000	0.000000
-2.185060	15.000000	-5.587624	0.000000	-1.000000	0.000000
-4.852410	15.000000	-5.587624	0.000000	-1.000000	0.000000
-4.778889	15.000000	-5.587624	0.000000	-1.000000	0.000000
-3.529026	15.000000	-5.587624	0.000000	-1.000000	0.000000
-3.455504	15.000000	-5.587624	0.000000	-1.000000	0.000000
-4.558325	15.000000	-5.587624	0.000000	-1.000000	0.000000
-4.484803	15.000000	-5.587624	0.000000	-1.000000	0.000000
-4.411282	15.000000	-5.587624	0.000000	-1.000000	0.000000
-4.337760	15.000000	-5.587624	0.000000	-1.000000	0.000000
-4.264239	15.000000	-5.587624	0.000000	-1.000000	0.000000
-4.190718	15.000000	-5.587624	0.000000	-1.000000	0.000000
-4.117197	15.000000	-5.587624	0.000000	-1.000000	0.000000
-3.381983	15.000000	-5.587624	0.000000	-1.000000	0.000000
-3.308461	15.000000	-5.587624	0.000000	-1.000000	0.000000
-5.293539	15.000000	-5.587624	0.000000	-1.000000	0.000000
-4.705368	15.000000	-5.587624	0.000000	-1.000000	0.000000
-6.396359	15.000000	-5.587624	0.000000	-1.000000	0.000000
6.322838	15.000000	-5.587624	0.000000	-1.000000	0.000000
6.249316	15.000000	-5.587624	0.000000	-1.000000	0.000000
6.175795	15.000000	-5.587624	0.000000	-1.000000	0.000000
6.102273	15.000000	-5.587624	0.000000	-1.000000	0.000000
6.028752	15.000000	-5.587624	0.000000	-1.000000	0.000000
5.955231	15.000000	-5.587624	0.000000	-1.000000	0.000000
6.396359	15.000000	-5.587624	0.000000	-1.000000	0.000000
5.881710	15.000000	-5.587624	0.000000	-1.000000	0.000000
5.808188	15.000000	-5.587624	0.000000	-1.000000	0.000000
5.734667	15.000000	-5.587624	0.000000	-1.000000	0.000000
-4.043675	15.000000	-5.587624	0.000000	-1.000000	0.000000
5.661145	15.000000	-5.587624	0.000000	-1.000000	0.000000
5.587624	15.000000	-5.587624	0.000000	-1.000000	0.000000
5.514102	15.000000	-5.587624	0.000000	-1.000000	0.000000
5.440581	15.000000	-5.587624	0.000000	-1.000000	0.000000
5.367060	15.000000	-5.587624	0.000000	-1.000000	0.000000
5.293539	15.000000	-5.587624	0.000000	-1.000000	0.000000
5.220017	15.000000	-5.587624	0.000000	-1.000000	0.000000
5.146496	15.000000	-5.587624	0.000000	-1.000000	0.000000
5.072974	15.000000	-5.587624	0.000000	-1.000000	0.000000
-3.234940	15.000000	-5.587624	0.000000	-1.000000	0.000000
4.999453	15.000000	-5.587624	0.000000	-1.000000	0.000000
4.925931	15.000000	-5.587624	0.000000	-1.000000	0.000000
-6.322838	15.000000	-5.587624	0.000000	-1.000000	0.000000
4.778889	15.000000	-5.587624	0.000000	-1.000000	0.000000
6.405250	15.000000	-5.587624	0.753565	0.000000	-0.657373
4.852410	15.000000	-5.587624	0.000000	-1.000000	0.000000
-3.161419	15.000000	-5.587624	0.000000	-1.000000	0.000000
-6.405250	15.000000	-5.587624	-0.753565	0.000000	-0.657373
-6.249316	15.000000	-5.587624	0.000000	-1.000000	0.000000
-6.175795	15.000000	-5.587624	0.000000	-1.000000	0.000000
-3.970154	15.000000	-5.587624	0.000000	-1.000000	0.000000
-4.631846	15.000000	-5.587624	0.000000	-1.000000	0.000000
2.205641	15.000000	-5.587624	0.000000	-1.000000	0.000000
2.185060	15.000000	-5.587624	0.000000	-1.000000	0.000000
-6.102273	15.000000	-5.587624	0.000000	-1.000000	0.000000
-6.028752	15.000000	-5.587624	0.000000	-1.000000	0.000000
-5.955231	15.000000	-5.587624	0.000000	-1.000000	0.000000
-3.896632	15.000000	-5.587624	0.000000	-1.000000	0.000000
-3.823111	15.000000	-5.587624	0.000000	-1.000000	0.000000
-3.087898	15.000000	-5.587624	0.000000	-1.000000	0.000000
-3.014376	15.000000	-5.587624	0.000000	-1.000000	0.000000
-2.940855	15.000000	-5.587624	0.000000	-1.000000	0.000000
-2.867333	15.000000	-5.587624	0.000000	-1.000000	0.000000
-2.793812	15.000000	-5.587624	0.000000	-1.000000	0.000000
-2.720291	15.000000	-5.587624	0.000000	-1.000000	0.000000
-2.646769	15.000000	-5.587624	0.000000	-1.000000	0.000000
-2.573248	15.000000	-5.587624	0.000000	-1.000000	0.000000
-2.499727	15.000000	-5.587624	0.000000	-1.000000	0.000000
-2.426205	15.000000	-5.587624	0.000000	-1.000000	0.000000
-2.352684	15.000000	-5.587624	0.000000	-1.000000	0.000000
-3.749590	15.000000	-5.587624	0.000000	-1.000000	0.000000
-2.279162	15.000000	-5.587624	0.000000	-1.000000	0.000000
-3.676068	15.000000	-5.587624	0.000000	-1.000000	0.000000
-2.205641	15.000000	-5.587624	0.000000	-1.000000	0.000000
2.279162	15.000000	-5.587624	0.000000	-1.000000	0.000000
2.352684	15.000000	-5.587624	0.000000	-1.000000	0.000000
2.426205	15.000000	-5.587624	0.000000	-1.000000	0.000000
2.499727	15.000000	-5.587624	0.000000	-1.000000	0.000000
2.573248	15.000000	-5.587624	0.000000	-1.000000	0.000000
2.646769	15.000000	-5.587624	0.000000	-1.000000	0.000000
2.720291	15.000000	-5.587624	0.000000	-1.000000	0.000000
2.793812	15.000000	-5.587624	0.000000	-1.000000	0.000000
2.867333	15.000000	-5.587624	0.000000	-1.000000	0.000000
-3.602547	15.000000	-5.587624	0.000000	-1.000000	0.000000
2.940855	15.000000	-5.587624	0.000000	-1.000000	0.000000
3.014376	15.000000	-5.587624	0.000000	-1.000000	0.000000
3.087898	15.000000	-5.587624	0.000000	-1.000000	0.000000
3.161419	15.000000	-5.587624	0.000000	-1.000000	0.000000
3.234940	15.000000	-5.587624	0.000000	-1.000000	0.000000
3.308461	15.000000	-5.587624	0.000000	-1.000000	0.000000
3.381983	15.000000	-5.587624	0.000000	-1.000000	0.000000
3.455504	15.000000	-5.587624	0.000000	-1.000000	0.000000
3.529026	15.000000	-5.587624	0.000000	-1.000000	0.000000
3.602547	15.000000	-5.587624	0.000000	-1.000000	0.000000
3.676068	15.000000	-5.587624	0.000000	-1.000000	0.000000
3.749590	15.000000	-5.587624	0.000000	-1.000000	0.000000
3.823111	15.000000	-5.587624	0.000000	-1.000000	0.000000
3.896632	15.000000	-5.587624	0.000000	-1.000000	0.000000
3.970154	15.000000	-5.587624	0.000000	-1.000000	0.000000
4.043675	15.000000	-5.587624	0.000000	-1.000000	0.000000
4.117197	15.000000	-5.587624	0.000000	-1.000000	0.000000
4.190718	15.000000	-5.587624	0.000000	-1.000000	0.000000
4.264239	15.000000	-5.587624	0.000000	-1.000000	0.000000
4.337760	15.000000	-5.587624	0.000000	-1.000000	0.000000
4.411282	15.000000	-5.587624	0.000000	-1.000000	0.000000
4.484803	15.000000	-5.587624	0.000000	-1.000000	0.000000
4.558325	15.000000	-5.587624	0.000000	-1.000000	0.000000
4.631846	15.000000	-5.587624	0.000000	-1.000000	0.000000
4.705368	15.000000	-5.587624	0.000000	-1.000000	0.000000
2.205641	15.000000	-5.579666	0.000000	-1.000000	0.000000
-2.205641	15.000000	-5.579666	0.000000	-1.000000	0.000000
2.226200	15.000000	-5.571717	0.000000	-1.000000	0.000000
-2.226200	15.000000	-5.571717	0.000000	-1.000000	0.000000
-6.437028	16.500000	-5.551096	-0.757297	0.000000	-0.653070
-6.437028	16.428572	-5.551096	-0.757297	0.000000	-0.653070
-6.437028	16.071428	-5.551096	-0.757297	0.000000	-0.653070
-6.437028	16.142857	-5.551096	-0.757297	0.000000	-0.653070
-6.437028	16.214285	-5.551096	-0.757297	0.000000	-0.653070
-6.437028	16.285715	-5.551096	-0.757297	0.000000	-0.653070
-6.437028	15.571428	-5.551096	-0.757297	0.000000	-0.653070
-6.437028	16.571428	-5.551096	-0.757297	0.000000	-0.653070
-6.437028	16.642857	-5.551096	-0.757297	0.000000	-0.653070
-6.437028	16.714285	-5.551096	-0.757297	0.000000	-0.653070
-6.437028	16.785715	-5.551096	-0.757297	0.000000	-0.653070
-6.437028	16.857143	-5.551096	-0.757297	0.000000	-0.653070
-6.437028	16.928572	-5.551096	-0.757297	0.000000	-0.653070
-6.437028	17.000000	-5.551096	-0.757297	0.000000	-0.653070
-6.437028	16.357143	-5.551096	-0.757297	0.000000	-0.653070
-6.437028	15.428572	-5.551096	-0.757297	0.000000	-0.653070
-6.437028	16.000000	-5.551096	-0.757297	0.000000	-0.653070
-6.437028	15.928572	-5.551096	-0.757297	0.000000	-0.653070
-6.437028	15.857142	-5.551096	-0.757297	0.000000	-0.653070
-6.437028	15.785714	-5.551096	-0.757297	0.000000	-0.653070
-6.437028	15.714286	-5.551096	-0.757297	0.000000	-0.653070
-6.437028	15.642858	-5.551096	-0.757297	0.000000	-0.653070
-6.437028	15.500000	-5.551096	-0.757297	0.000000	-0.653070
-6.437028	15.357142	-5.551096	-0.757297	0.000000	-0.653070
-6.437028	15.285714	-5.551096	-0.757297	0.000000	-0.653070
-6.437028	15.214286	-5.551096	-0.757297	0.000000	-0.653070
-6.437028	15.142858	-5.551096	-0.757297	0.000000	-0.653070
-6.437028	15.071428	-5.551096	-0.757297	0.000000	-0.653070
-6.437028	15.000000	-5.551096	-0.757297	0.000000	-0.653070
6.437028	15.142858	-5.551096	0.757297	0.000000	-0.653070
6.437028	15.785714	-5.551096	0.757297	0.000000	-0.653070
6.437028	15.071428	-5.551096	0.757297	0.000000	-0.653070
6.437028	17.000000	-5.551096	0.757297	0.000000	-0.653070
6.437028	16.928572	-5.551096	0.757297	0.000000	-0.653070
6.437028	15.928572	-5.551096	0.757297	0.000000	-0.653070
6.437028	16.857143	-5.551096	0.757297	0.000000	-0.653070
6.437028	16.785715	-5.551096	0.757297	0.000000	-0.653070
6.437028	16.714285	-5.551096	0.757297	0.000000	-0.653070
6.437028	16.642857	-5.551096	0.757297	0.000000	-0.653070
6.437028	16.571428	-5.551096	0.757297	0.000000	-0.653070
6.437028	16.500000	-5.551096	0.757297	0.000000	-0.653070
6.437028	16.428572	-5.551096	0.757297	0.000000	-0.653070
6.437028	16.357143	-5.551096	0.757297	0.000000	-0.653070
6.437028	16.285715	-5.551096	0.757297	0.000000	-0.653070
6.437028	16.214285	-5.551096	0.757297	0.000000	-0.653070
6.437028	16.142857	-5.551096	0.757297	0.000000	-0.653070
6.437028	16.071428	-5.551096	0.757297	0.000000	-0.653070
6.437028	16.000000	-5.551096	0.757297	0.000000	-0.653070
6.437028	15.000000	-5.551096	0.757297	0.000000	-0.653070
6.437028	15.857142	-5.551096	0.757297	0.000000	-0.653070
6.437028	15.571428	-5.551096	0.757297	0.000000	-0.653070
6.437028	15.714286	-5.551096	0.757297	0.000000	-0.653070
6.437028	15.642858	-5.551096	0.757297	0.000000	-0.653070
6.437028	15.500000	-5.551096	0.757297	0.000000	-0.653070
6.437028	15.428572	-5.551096	0.757297	0.000000	-0.653070
6.437028	15.357142	-5.551096	0.757297	0.000000	-0.653070
6.437028	15.285714	-5.551096	0.757297	0.000000	-0.653070
6.437028	15.214286	-5.551096	0.757297	0.000000	-0.653070
2.279162	15.000000	-5.549866	0.000000	-1.000000	0.000000
-2.279162	15.000000	-5.549866	0.000000	-1.000000	0.000000
2.350217	15.000000	-5.520551	0.000000	-1.000000	0.000000
-2.350217	15.000000	-5.520551	0.000000	-1.000000	0.000000
2.352684	15.000000	-5.519468	0.000000	-1.000000	0.000000
-2.352684	15.000000	-5.519468	0.000000	-1.000000	0.000000
-2.364906	15.000000	-5.514102	0.000000	-1.000000	0.000000
4.631846	15.000000	-5.514102	0.000000	-1.000000	0.000000
4.705368	15.000000	-5.514102	0.000000	-1.000000	0.000000
4.778889	15.000000	-5.514102	0.000000	-1.000000	0.000000
4.852410	15.000000	-5.514102	0.000000	-1.000000	0.000000
4.925931	15.000000	-5.514102	0.000000	-1.000000	0.000000
4.999453	15.000000	-5.514102	0.000000	-1.000000	0.000000
5.072974	15.000000	-5.514102	0.000000	-1.000000	0.000000
-6.396359	15.000000	-5.514102	0.000000	-1.000000	0.000000
6.396359	15.000000	-5.514102	0.000000	-1.000000	0.000000
6.322838	15.000000	-5.514102	0.000000	-1.000000	0.000000
6.249316	15.000000	-5.514102	0.000000	-1.000000	0.000000
6.175795	15.000000	-5.514102	0.000000	-1.000000	0.000000
6.102273	15.000000	-5.514102	0.000000	-1.000000	0.000000
6.028752	15.000000	-5.514102	0.000000	-1.000000	0.000000
-2.793812	15.000000	-5.514102	0.000000	-1.000000	0.000000
5.955231	15.000000	-5.514102	0.000000	-1.000000	0.000000
5.881710	15.000000	-5.514102	0.000000	-1.000000	0.000000
5.808188	15.000000	-5.514102	0.000000	-1.000000	0.000000
5.734667	15.000000	-5.514102	0.000000	-1.000000	0.000000
5.661145	15.000000	-5.514102	0.000000	-1.000000	0.000000
5.587624	15.000000	-5.514102	0.000000	-1.000000	0.000000
2.364906	15.000000	-5.514102	0.000000	-1.000000	0.000000
2.426205	15.000000	-5.514102	0.000000	-1.000000	0.000000
5.514102	15.000000	-5.514102	0.000000	-1.000000	0.000000
5.440581	15.000000	-5.514102	0.000000	-1.000000	0.000000
5.293539	15.000000	-5.514102	0.000000	-1.000000	0.000000
5.220017	15.000000	-5.514102	0.000000	-1.000000	0.000000
-6.468651	15.000000	-5.514102	-0.761024	0.000000	-0.648723
5.367060	15.000000	-5.514102	0.000000	-1.000000	0.000000
6.468651	15.000000	-5.514102	0.761024	0.000000	-0.648723
-6.322838	15.000000	-5.514102	0.000000	-1.000000	0.000000
-6.249316	15.000000	-5.514102	0.000000	-1.000000	0.000000
-6.175795	15.000000	-5.514102	0.000000	-1.000000	0.000000
-6.102273	15.000000	-5.514102	0.000000	-1.000000	0.000000
-6.028752	15.000000	-5.514102	0.000000	-1.000000	0.000000
5.146496	15.000000	-5.514102	0.000000	-1.000000	0.000000
-5.955231	15.000000	-5.514102	0.000000	-1.000000	0.000000
-5.881710	15.000000	-5.514102	0.000000	-1.000000	0.000000
-5.808188	15.000000	-5.514102	0.000000	-1.000000	0.000000
-5.734667	15.000000	-5.514102	0.000000	-1.000000	0.000000
-5.661145	15.000000	-5.514102	0.000000	-1.000000	0.000000
-5.587624	15.000000	-5.514102	0.000000	-1.000000	0.000000
-5.514102	15.000000	-5.514102	0.000000	-1.000000	0.000000
-5.440581	15.000000	-5.514102	0.000000	-1.000000	0.000000
-5.367060	15.000000	-5.514102	0.000000	-1.000000	0.000000
-5.293539	15.000000	-5.514102	0.000000	-1.000000	0.000000
-5.220017	15.000000	-5.514102	0.000000	-1.000000	0.000000
-5.146496	15.000000	-5.514102	0.000000	-1.000000	0.000000
-5.072974	15.000000	-5.514102	0.000000	-1.000000	0.000000
-4.999453	15.000000	-5.514102	0.000000	-1.000000	0.000000
-4.925931	15.000000	-5.514102	0.000000	-1.000000	0.000000
-4.852410	15.000000	-5.514102	0.000000	-1.000000	0.000000
4.264239	15.000000	-5.514102	0.000000	-1.000000	0.000000
-4.778889	15.000000	-5.514102	0.000000	-1.000000	0.000000
-4.705368	15.000000	-5.514102	0.000000	-1.000000	0.000000
-4.631846	15.000000	-5.514102	0.000000	-1.000000	0.000000
-4.558325	15.000000	-5.514102	0.000000	-1.000000	0.000000
-4.484803	15.000000	-5.514102	0.000000	-1.000000	0.000000
-4.411282	15.000000	-5.514102	0.000000	-1.000000	0.000000
-4.337760	15.000000	-5.514102	0.000000	-1.000000	0.000000
-4.264239	15.000000	-5.514102	0.000000	-1.000000	0.000000
-4.190718	15.000000	-5.514102	0.000000	-1.000000	0.000000
-4.117197	15.000000	-5.514102	0.000000	-1.000000	0.000000
-4.043675	15.000000	-5.514102	0.000000	-1.000000	0.000000
-3.970154	15.000000	-5.514102	0.000000	-1.000000	0.000000
-3.896632	15.000000	-5.514102	0.000000	-1.000000	0.000000
-3.823111	15.000000	-5.514102	0.000000	-1.000000	0.000000
-3.749590	15.000000	-5.514102	0.000000	-1.000000	0.000000
-3.676068	15.000000	-5.514102	0.000000	-1.000000	0.000000
-3.602547	15.000000	-5.514102	0.000000	-1.000000	0.000000
-3.529026	15.000000	-5.514102	0.000000	-1.000000	0.000000
-3.455504	15.000000	-5.514102	0.000000	-1.000000	0.000000
-3.381983	15.000000	-5.514102	0.000000	-1.000000	0.000000
-3.308461	15.000000	-5.514102	0.000000	-1.000000	0.000000
-3.234940	15.000000	-5.514102	0.000000	-1.000000	0.000000
-3.161419	15.000000	-5.514102	0.000000	-1.000000	0.000000
-3.087898	15.000000	-5.514102	0.000000	-1.000000	0.000000
-3.014376	15.000000	-5.514102	0.000000	-1.000000	0.000000
-2.940855	15.000000	-5.514102	0.000000	-1.000000	0.000000
-2.867333	15.000000	-5.514102	0.000000	-1.000000	0.000000
-2.720291	15.000000	-5.514102	0.000000	-1.000000	0.000000
-2.646769	15.000000	-5.514102	0.000000	-1.000000	0.000000
-2.573248	15.000000	-5.514102	0.000000	-1.000000	0.000000
-2.499727	15.000000	-5.514102	0.000000	-1.000000	0.000000
-2.426205	15.000000	-5.514102	0.000000	-1.000000	0.000000
2.499727	15.000000	-5.514102	0.000000	-1.000000	0.000000
2.573248	15.000000	-5.514102	0.000000	-1.000000	0.000000
2.646769	15.000000	-5.514102	0.000000	-1.000000	0.000000
2.720291	15.000000	-5.514102	0.000000	-1.000000	0.000000
2.793812	15.000000	-5.514102	0.000000	-1.000000	0.000000
2.867333	15.000000	-5.514102	0.000000	-1.000000	0.000000
2.940855	15.000000	-5.514102	0.000000	-1.000000	0.000000
3.014376	15.000000	-5.514102	0.000000	-1.000000	0.000000
3.087898	15.000000	-5.514102	0.000000	-1.000000	0.000000
3.161419	15.000000	-5.514102	0.000000	-1.000000	0.000000
3.234940	15.000000	-5.514102	0.000000	-1.000000	0.000000
3.308461	15.000000	-5.514102	0.000000	-1.000000	0.000000
3.381983	15.000000	-5.514102	0.000000	-1.000000	0.000000
3.455504	15.000000	-5.514102	0.000000	-1.000000	0.000000
3.529026	15.000000	-5.514102	0.000000	-1.000000	0.000000
3.602547	15.000000	-5.514102	0.000000	-1.000000	0.000000
3.676068	15.000000	-5.514102	0.000000	-1.000000	0.000000
3.749590	15.000000	-5.514102	0.000000	-1.000000	0.000000
3.823111	15.000000	-5.514102	0.000000	-1.000000	0.000000
3.896632	15.000000	-5.514102	0.000000	-1.000000	0.000000
3.970154	15.000000	-5.514102	0.000000	-1.000000	0.000000
4.043675	15.000000	-5.514102	0.000000	-1.000000	0.000000
4.117197	15.000000	-5.514102	0.000000	-1.000000	0.000000
4.190718	15.000000	-5.514102	0.000000	-1.000000	0.000000
4.337760	15.000000	-5.514102	0.000000	-1.000000	0.000000
4.411282	15.000000	-5.514102	0.000000	-1.000000	0.000000
4.484803	15.000000	-5.514102	0.000000	-1.000000	0.000000
4.558325	15.000000	-5.514102	0.000000	-1.000000	0.000000
6.469880	15.000000	-5.512665	0.761169	0.000000	-0.648554
-6.469880	15.000000	-5.512665	-0.761169	0.000000	-0.648554
-6.484960	15.000000	-5.495025	-0.762936	0.000000	-0.646473
-6.484960	15.071428	-5.495025	-0.762936	0.000000	-0.646473
-6.484960	15.142858	-5.495025	-0.762936	0.000000	-0.646473
-6.484960	15.214286	-5.495025	-0.762936	0.000000	-0.646473
-6.484960	15.285714	-5.495025	-0.762936	0.000000	-0.646473
-6.484960	15.357142	-5.495025	-0.762936	0.000000	-0.646473
-6.484960	15.428572	-5.495025	-0.762936	0.000000	-0.646473
-6.484960	15.500000	-5.495025	-0.762936	0.000000	-0.646473
-6.484960	15.571428	-5.495025	-0.762936	0.000000	-0.646473
-6.484960	15.642858	-5.495025	-0.762936	0.000000	-0.646473
-6.484960	15.714286	-5.495025	-0.762936	0.000000	-0.646473
-6.484960	15.785714	-5.495025	-0.762936	0.000000	-0.646473
-6.484960	15.857142	-5.495025	-0.762936	0.000000	-0.646473
-6.484960	15.928572	-5.495025	-0.762936	0.000000	-0.646473
-6.484960	16.071428	-5.495025	-0.762936	0.000000	-0.646473
-6.484960	16.142857	-5.495025	-0.762936	0.000000	-0.646473
-6.484960	16.214285	-5.495025	-0.762936	0.000000	-0.646473
-6.484960	16.285715	-5.495025	-0.762936	0.000000	-0.646473
-6.484960	16.357143	-5.495025	-0.762936	0.000000	-0.646473
-6.484960	16.428572	-5.495025	-0.762936	0.000000	-0.646473
-6.484960	16.500000	-5.495025	-0.762936	0.000000	-0.646473
-6.484960	16.571428	-5.495025	-0.762936	0.000000	-0.646473
-6.484960	16.642857	-5.495025	-0.762936	0.000000	-0.646473
-6.484960	16.714285	-5.495025	-0.762936	0.000000	-0.646473
-6.484960	16.785715	-5.495025	-0.762936	0.000000	-0.646473
-6.484960	16.857143	-5.495025	-0.762936	0.000000	-0.646473
-6.484960	16.928572	-5.495025	-0.762936	0.000000	-0.646473
-6.484960	17.000000	-5.495025	-0.762936	0.000000	-0.646473
-6.484960	16.000000	-5.495025	-0.762936	0.000000	-0.646473
6.484960	16.857143	-5.495025	0.762936	0.000000	-0.646473
6.484960	16.642857	-5.495025	0.762936	0.000000	-0.646473
6.484960	16.571428	-5.495025	0.762936	0.000000	-0.646473
6.484960	16.500000	-5.495025	0.762936	0.000000	-0.646473
6.484960	16.428572	-5.495025	0.762936	0.000000	-0.646473
6.484960	15.285714	-5.495025	0.762936	0.000000	-0.646473
6.484960	16.214285	-5.495025	0.762936	0.000000	-0.646473
6.484960	16.142857	-5.495025	0.762936	0.000000	-0.646473
6.484960	16.071428	-5.495025	0.762936	0.000000	-0.646473
6.484960	16.000000	-5.495025	0.762936	0.000000	-0.646473
6.484960	16.928572	-5.495025	0.762936	0.000000	-0.646473
6.484960	16.714285	-5.495025	0.762936	0.000000	-0.646473
6.484960	15.928572	-5.495025	0.762936	0.000000	-0.646473
6.484960	15.857142	-5.495025	0.762936	0.000000	-0.646473
6.484960	15.785714	-5.495025	0.762936	0.000000	-0.646473
6.484960	15.714286	-5.495025	0.762936	0.000000	-0.646473
6.484960	15.642858	-5.495025	0.762936	0.000000	-0.646473
6.484960	15.571428	-5.495025	0.762936	0.000000	-0.646473
6.484960	15.500000	-5.495025	0.762936	0.000000	-0.646473
6.484960	15.428572	-5.495025	0.762936	0.000000	-0.646473
6.484960	15.357142	-5.495025	0.762936	0.000000	-0.646473
6.484960	15.214286	-5.495025	0.762936	0.000000	-0.646473
6.484960	15.142858	-5.495025	0.762936	0.000000	-0.646473
6.484960	15.071428	-5.495025	0.762936	0.000000	-0.646473
6.484960	17.000000	-5.495025	0.762936	0.000000	-0.646473
6.484960	15.000000	-5.495025	0.762936	0.000000	-0.646473
6.484960	16.357143	-5.495025	0.762936	0.000000	-0.646473
6.484960	16.285715	-5.495025	0.762936	0.000000	-0.646473
6.484960	16.785715	-5.495025	0.762936	0.000000	-0.646473
2.426205	15.000000	-5.487193	0.000000	-1.000000	0.000000
-2.426205	15.000000	-5.487193	0.000000	-1.000000	0.000000
2.473059	15.000000	-5.466624	0.000000	-1.000000	0.000000
-2.473059	15.000000	-5.466624	0.000000	-1.000000	0.000000
2.499727	15.000000	-5.454199	0.000000	-1.000000	0.000000
-2.499727	15.000000	-5.454199	0.000000	-1.000000	0.000000
-3.676068	15.000000	-5.440581	0.000000	-1.000000	0.000000
-3.602547	15.000000	-5.440581	0.000000	-1.000000	0.000000
-3.529026	15.000000	-5.440581	0.000000	-1.000000	0.000000
-3.455504	15.000000	-5.440581	0.000000	-1.000000	0.000000
-3.381983	15.000000	-5.440581	0.000000	-1.000000	0.000000
-3.308461	15.000000	-5.440581	0.000000	-1.000000	0.000000
-3.234940	15.000000	-5.440581	0.000000	-1.000000	0.000000
-3.161419	15.000000	-5.440581	0.000000	-1.000000	0.000000
-3.087898	15.000000	-5.440581	0.000000	-1.000000	0.000000
-3.014376	15.000000	-5.440581	0.000000	-1.000000	0.000000
-2.940855	15.000000	-5.440581	0.000000	-1.000000	0.000000
-2.867333	15.000000	-5.440581	0.000000	-1.000000	0.000000
-2.793812	15.000000	-5.440581	0.000000	-1.000000	0.000000
-2.720291	15.000000	-5.440581	0.000000	-1.000000	0.000000
-2.646769	15.000000	-5.440581	0.000000	-1.000000	0.000000
-2.573248	15.000000	-5.440581	0.000000	-1.000000	0.000000
2.646769	15.000000	-5.440581	0.000000	-1.000000	0.000000
2.720291	15.000000	-5.440581	0.000000	-1.000000	0.000000
2.793812	15.000000	-5.440581	0.000000	-1.000000	0.000000
2.867333	15.000000	-5.440581	0.000000	-1.000000	0.000000
2.940855	15.000000	-5.440581	0.000000	-1.000000	0.000000
3.014376	15.000000	-5.440581	0.000000	-1.000000	0.000000
3.087898	15.000000	-5.440581	0.000000	-1.000000	0.000000
3.161419	15.000000	-5.440581	0.000000	-1.000000	0.000000
3.234940	15.000000	-5.440581	0.000000	-1.000000	0.000000
3.308461	15.000000	-5.440581	0.000000	-1.000000	0.000000
3.381983	15.000000	-5.440581	0.000000	-1.000000	0.000000
3.455504	15.000000	-5.440581	0.000000	-1.000000	0.000000
3.529026	15.000000	-5.440581	0.000000	-1.000000	0.000000
3.602547	15.000000	-5.440581	0.000000	-1.000000	0.000000
3.676068	15.000000	-5.440581	0.000000	-1.000000	0.000000
5.367060	15.000000	-5.440581	0.000000	-1.000000	0.000000
3.749590	15.000000	-5.440581	0.000000	-1.000000	0.000000
3.823111	15.000000	-5.440581	0.000000	-1.000000	0.000000
5.293539	15.000000	-5.440581	0.000000	-1.000000	0.000000
5.220017	15.000000	-5.440581	0.000000	-1.000000	0.000000
5.146496	15.000000	-5.440581	0.000000	-1.000000	0.000000
5.072974	15.000000	-5.440581	0.000000	-1.000000	0.000000
4.999453	15.000000	-5.440581	0.000000	-1.000000	0.000000
4.925931	15.000000	-5.440581	0.000000	-1.000000	0.000000
4.852410	15.000000	-5.440581	0.000000	-1.000000	0.000000
4.778889	15.000000	-5.440581	0.000000	-1.000000	0.000000
4.705368	15.000000	-5.440581	0.000000	-1.000000	0.000000
4.631846	15.000000	-5.440581	0.000000	-1.000000	0.000000
4.558325	15.000000	-5.440581	0.000000	-1.000000	0.000000
4.484803	15.000000	-5.440581	0.000000	-1.000000	0.000000
4.411282	15.000000	-5.440581	0.000000	-1.000000	0.000000
4.264239	15.000000	-5.440581	0.000000	-1.000000	0.000000
4.117197	15.000000	-5.440581	0.000000	-1.000000	0.000000
4.043675	15.000000	-5.440581	0.000000	-1.000000	0.000000
3.970154	15.000000	-5.440581	0.000000	-1.000000	0.000000
3.896632	15.000000	-5.440581	0.000000	-1.000000	0.000000
-5.661145	15.000000	-5.440581	0.000000	-1.000000	0.000000
-6.396359	15.000000	-5.440581	0.000000	-1.000000	0.000000
2.528954	15.000000	-5.440581	0.000000	-1.000000	0.000000
-6.322838	15.000000	-5.440581	0.000000	-1.000000	0.000000
-6.249316	15.000000	-5.440581	0.000000	-1.000000	0.000000
-6.175795	15.000000	-5.440581	0.000000	-1.000000	0.000000
-6.102273	15.000000	-5.440581	0.000000	-1.000000	0.000000
-6.028752	15.000000	-5.440581	0.000000	-1.000000	0.000000
-5.955231	15.000000	-5.440581	0.000000	-1.000000	0.000000
-5.881710	15.000000	-5.440581	0.000000	-1.000000	0.000000
-5.808188	15.000000	-5.440581	0.000000	-1.000000	0.000000
-5.734667	15.000000	-5.440581	0.000000	-1.000000	0.000000
-3.749590	15.000000	-5.440581	0.000000	-1.000000	0.000000
6.469880	15.000000	-5.440581	0.000000	-1.000000	0.000000
-5.587624	15.000000	-5.440581	0.000000	-1.000000	0.000000
-5.514102	15.000000	-5.440581	0.000000	-1.000000	0.000000
-5.440581	15.000000	-5.440581	0.000000	-1.000000	0.000000
-5.367060	15.000000	-5.440581	0.000000	-1.000000	0.000000
-5.293539	15.000000	-5.440581	0.000000	-1.000000	0.000000
-5.220017	15.000000	-5.440581	0.000000	-1.000000	0.000000
-5.146496	15.000000	-5.440581	0.000000	-1.000000	0.000000
-5.072974	15.000000	-5.440581	0.000000	-1.000000	0.000000
-4.999453	15.000000	-5.440581	0.000000	-1.000000	0.000000
-4.925931	15.000000	-5.440581	0.000000	-1.000000	0.000000
-4.852410	15.000000	-5.440581	0.000000	-1.000000	0.000000
-4.778889	15.000000	-5.440581	0.000000	-1.000000	0.000000
-4.705368	15.000000	-5.440581	0.000000	-1.000000	0.000000
-4.631846	15.000000	-5.440581	0.000000	-1.000000	0.000000
6.102273	15.000000	-5.440581	0.000000	-1.000000	0.000000
-4.558325	15.000000	-5.440581	0.000000	-1.000000	0.000000
-4.484803	15.000000	-5.440581	0.000000	-1.000000	0.000000
-4.411282	15.000000	-5.440581	0.000000	-1.000000	0.000000
-4.337760	15.000000	-5.440581	0.000000	-1.000000	0.000000
-4.264239	15.000000	-5.440581	0.000000	-1.000000	0.000000
4.337760	15.000000	-5.440581	0.000000	-1.000000	0.000000
-4.190718	15.000000	-5.440581	0.000000	-1.000000	0.000000
2.573248	15.000000	-5.440581	0.000000	-1.000000	0.000000
-4.117197	15.000000	-5.440581	0.000000	-1.000000	0.000000
-4.043675	15.000000	-5.440581	0.000000	-1.000000	0.000000
-3.970154	15.000000	-5.440581	0.000000	-1.000000	0.000000
6.530688	15.000000	-5.440581	0.768317	0.000000	-0.640069
-3.896632	15.000000	-5.440581	0.000000	-1.000000	0.000000
-3.823111	15.000000	-5.440581	0.000000	-1.000000	0.000000
-2.528954	15.000000	-5.440581	0.000000	-1.000000	0.000000
-6.469880	15.000000	-5.440581	0.000000	-1.000000	0.000000
6.396359	15.000000	-5.440581	0.000000	-1.000000	0.000000
6.322838	15.000000	-5.440581	0.000000	-1.000000	0.000000
6.249316	15.000000	-5.440581	0.000000	-1.000000	0.000000
6.175795	15.000000	-5.440581	0.000000	-1.000000	0.000000
4.190718	15.000000	-5.440581	0.000000	-1.000000	0.000000
6.028752	15.000000	-5.440581	0.000000	-1.000000	0.000000
5.955231	15.000000	-5.440581	0.000000	-1.000000	0.000000
-6.530688	15.000000	-5.440581	-0.768317	0.000000	-0.640069
5.881710	15.000000	-5.440581	0.000000	-1.000000	0.000000
5.808188	15.000000	-5.440581	0.000000	-1.000000	0.000000
5.734667	15.000000	-5.440581	0.000000	-1.000000	0.000000
5.661145	15.000000	-5.440581	0.000000	-1.000000	0.000000
5.587624	15.000000	-5.440581	0.000000	-1.000000	0.000000
5.514102	15.000000	-5.440581	0.000000	-1.000000	0.000000
5.440581	15.000000	-5.440581	0.000000	-1.000000	0.000000
-6.532403	16.857143	-5.438539	-0.768518	0.000000	-0.639828
-6.532403	16.714285	-5.438539	-0.768518	0.000000	-0.639828
-6.532403	16.642857	-5.438539	-0.768518	0.000000	-0.639828
-6.532403	16.571428	-5.438539	-0.768518	0.000000	-0.639828
-6.532403	16.428572	-5.438539	-0.768518	0.000000	-0.639828
-6.532403	16.357143	-5.438539	-0.768518	0.000000	-0.639828
-6.532403	16.285715	-5.438539	-0.768518	0.000000	-0.639828
-6.532403	16.214285	-5.438539	-0.768518	0.000000	-0.639828
-6.532403	16.142857	-5.438539	-0.768518	0.000000	-0.639828
-6.532403	16.071428	-5.438539	-0.768518	0.000000	-0.639828
-6.532403	16.000000	-5.438539	-0.768518	0.000000	-0.639828
-6.532403	16.785715	-5.438539	-0.768518	0.000000	-0.639828
-6.532403	15.928572	-5.438539	-0.768518	0.000000	-0.639828
-6.532403	15.857142	-5.438539	-0.768518	0.000000	-0.639828
-6.532403	15.785714	-5.438539	-0.768518	0.000000	-0.639828
-6.532403	15.714286	-5.438539	-0.768518	0.000000	-0.639828
-6.532403	15.642858	-5.438539	-0.768518	0.000000	-0.639828
-6.532403	15.571428	-5.438539	-0.768518	0.000000	-0.639828
-6.532403	15.500000	-5.438539	-0.768518	0.000000	-0.639828
-6.532403	15.428572	-5.438539	-0.768518	0.000000	-0.639828
-6.532403	15.357142	-5.438539	-0.768518	0.000000	-0.639828
-6.532403	15.285714	-5.438539	-0.768518	0.000000	-0.639828
-6.532403	15.214286	-5.438539	-0.768518	0.000000	-0.639828
-6.532403	15.142858	-5.438539	-0.768518	0.000000	-0.639828
-6.532403	15.071428	-5.438539	-0.768518	0.000000	-0.639828
-6.532403	16.928572	-5.438539	-0.768518	0.000000	-0.639828
-6.532403	17.000000	-5.438539	-0.768518	0.000000	-0.639828
-6.532403	15.000000	-5.438539	-0.768518	0.000000	-0.639828
-6.532403	16.500000	-5.438539	-0.768518	0.000000	-0.639828
6.532403	15.357142	-5.438539	0.768518	0.000000	-0.639828
6.532403	15.428572	-5.438539	0.768518	0.000000	-0.639828
6.532403	15.500000	-5.438539	0.768518	0.000000	-0.639828
6.532403	15.571428	-5.438539	0.768518	0.000000	-0.639828
6.532403	15.642858	-5.438539	0.768518	0.000000	-0.639828
6.532403	15.714286	-5.438539	0.768518	0.000000	-0.639828
6.532403	15.785714	-5.438539	0.768518	0.000000	-0.639828
6.532403	15.857142	-5.438539	0.768518	0.000000	-0.639828
6.532403	15.928572	-5.438539	0.768518	0.000000	-0.639828
6.532403	16.000000	-5.438539	0.768518	0.000000	-0.639828
6.532403	16.071428	-5.438539	0.768518	0.000000	-0.639828
6.532403	16.357143	-5.438539	0.768518	0.000000	-0.639828
6.532403	16.142857	-5.438539	0.768518	0.000000	-0.639828
6.532403	16.214285	-5.438539	0.768518	0.000000	-0.639828
6.532403	17.000000	-5.438539	0.768518	0.000000	-0.639828
6.532403	16.928572	-5.438539	0.768518	0.000000	-0.639828
6.532403	16.857143	-5.438539	0.768518	0.000000	-0.639828
6.532403	16.714285	-5.438539	0.768518	0.000000	-0.639828
6.532403	16.642857	-5.438539	0.768518	0.000000	-0.639828
6.532403	16.571428	-5.438539	0.768518	0.000000	-0.639828
6.532403	16.500000	-5.438539	0.768518	0.000000	-0.639828
6.532403	16.428572	-5.438539	0.768518	0.000000	-0.639828
6.532403	16.285715	-5.438539	0.768518	0.000000	-0.639828
6.532403	15.000000	-5.438539	0.768518	0.000000	-0.639828
6.532403	16.785715	-5.438539	0.768518	0.000000	-0.639828
6.532403	15.071428	-5.438539	0.768518	0.000000	-0.639828
6.532403	15.142858	-5.438539	0.768518	0.000000	-0.639828
6.532403	15.214286	-5.438539	0.768518	0.000000	-0.639828
6.532403	15.285714	-5.438539	0.768518	0.000000	-0.639828
6.543402	15.000000	-5.425211	0.769817	0.000000	-0.638264
-6.543402	15.000000	-5.425211	-0.769817	0.000000	-0.638264
2.573248	15.000000	-5.419943	0.000000	-1.000000	0.000000
-2.573248	15.000000	-5.419943	0.000000	-1.000000	0.000000
2.594665	15.000000	-5.409964	0.000000	-1.000000	0.000000
-2.594665	15.000000	-5.409964	0.000000	-1.000000	0.000000
2.646769	15.000000	-5.384254	0.000000	-1.000000	0.000000
-2.646769	15.000000	-5.384254	0.000000	-1.000000	0.000000
-6.579355	17.000000	-5.381644	-0.774042	0.000000	-0.633135
-6.579355	16.928572	-5.381644	-0.774042	0.000000	-0.633135
-6.579355	16.857143	-5.381644	-0.774042	0.000000	-0.633135
-6.579355	16.785715	-5.381644	-0.774042	0.000000	-0.633135
-6.579355	16.714285	-5.381644	-0.774042	0.000000	-0.633135
-6.579355	16.642857	-5.381644	-0.774042	0.000000	-0.633135
-6.579355	16.571428	-5.381644	-0.774042	0.000000	-0.633135
-6.579355	16.500000	-5.381644	-0.774042	0.000000	-0.633135
-6.579355	16.428572	-5.381644	-0.774042	0.000000	-0.633135
-6.579355	16.285715	-5.381644	-0.774042	0.000000	-0.633135
-6.579355	16.214285	-5.381644	-0.774042	0.000000	-0.633135
-6.579355	16.142857	-5.381644	-0.774042	0.000000	-0.633135
-6.579355	16.071428	-5.381644	-0.774042	0.000000	-0.633135
-6.579355	15.928572	-5.381644	-0.774042	0.000000	-0.633135
-6.579355	15.571428	-5.381644	-0.774042	0.000000	-0.633135
-6.579355	15.500000	-5.381644	-0.774042	0.000000	-0.633135
-6.579355	15.714286	-5.381644	-0.774042	0.000000	-0.633135
-6.579355	15.428572	-5.381644	-0.774042	0.000000	-0.633135
-6.579355	15.357142	-5.381644	-0.774042	0.000000	-0.633135
-6.579355	15.285714	-5.381644	-0.774042	0.000000	-0.633135
-6.579355	16.000000	-5.381644	-0.774042	0.000000	-0.633135
-6.579355	15.785714	-5.381644	-0.774042	0.000000	-0.633135
-6.579355	16.357143	-5.381644	-0.774042	0.000000	-0.633135
-6.579355	15.000000	-5.381644	-0.774042	0.000000	-0.633135
-6.579355	15.071428	-5.381644	-0.774042	0.000000	-0.633135
-6.579355	15.142858	-5.381644	-0.774042	0.000000	-0.633135
-6.579355	15.214286	-5.381644	-0.774042	0.000000	-0.633135
-6.579355	15.857142	-5.381644	-0.774042	0.000000	-0.633135
-6.579355	15.642858	-5.381644	-0.774042	0.000000	-0.633135
6.579355	16.857143	-5.381644	0.774042	0.000000	-0.633135
6.579355	16.785715	-5.381644	0.774042	0.000000	-0.633135
6.579355	16.714285	-5.381644	0.774042	0.000000	-0.633135
6.579355	16.642857	-5.381644	0.774042	0.000000	-0.633135
6.579355	16.571428	-5.381644	0.774042	0.000000	-0.633135
6.579355	16.500000	-5.381644	0.774042	0.000000	-0.633135
6.579355	16.428572	-5.381644	0.774042	0.000000	-0.633135
6.579355	16.357143	-5.381644	0.774042	0.000000	-0.633135
6.579355	16.285715	-5.381644	0.774042	0.000000	-0.633135
6.579355	16.214285	-5.381644	0.774042	0.000000	-0.633135
6.579355	16.142857	-5.381644	0.774042	0.000000	-0.633135
6.579355	16.071428	-5.381644	0.774042	0.000000	-0.633135
6.579355	16.000000	-5.381644	0.774042	0.000000	-0.633135
6.579355	15.928572	-5.381644	0.774042	0.000000	-0.633135
6.579355	15.857142	-5.381644	0.774042	0.000000	-0.633135
6.579355	15.785714	-5.381644	0.774042	0.000000	-0.633135
6.579355	15.714286	-5.381644	0.774042	0.000000	-0.633135
6.579355	15.571428	-5.381644	0.774042	0.000000	-0.633135
6.579355	15.500000	-5.381644	0.774042	0.000000	-0.633135
6.579355	15.428572	-5.381644	0.774042	0.000000	-0.633135
6.579355	15.357142	-5.381644	0.774042	0.000000	-0.633135
6.579355	15.285714	-5.381644	0.774042	0.000000	-0.633135
6.579355	15.214286	-5.381644	0.774042	0.000000	-0.633135
6.579355	15.142858	-5.381644	0.774042	0.000000	-0.633135
6.579355	15.071428	-5.381644	0.774042	0.000000	-0.633135
6.579355	15.000000	-5.381644	0.774042	0.000000	-0.633135
6.579355	15.642858	-5.381644	0.774042	0.000000	-0.633135
6.579355	17.000000	-5.381644	0.774042	0.000000	-0.633135
6.579355	16.928572	-5.381644	0.774042	0.000000	-0.633135
5.808188	15.000000	-5.367060	0.000000	-1.000000	0.000000
-5.367060	15.000000	-5.367060	0.000000	-1.000000	0.000000
-5.440581	15.000000	-5.367060	0.000000	-1.000000	0.000000
-6.591179	15.000000	-5.367060	-0.775438	0.000000	-0.631423
-4.852410	15.000000	-5.367060	0.000000	-1.000000	0.000000
-6.396359	15.000000	-5.367060	0.000000	-1.000000	0.000000
-6.322838	15.000000	-5.367060	0.000000	-1.000000	0.000000
-6.249316	15.000000	-5.367060	0.000000	-1.000000	0.000000
-6.175795	15.000000	-5.367060	0.000000	-1.000000	0.000000
-6.102273	15.000000	-5.367060	0.000000	-1.000000	0.000000
-6.028752	15.000000	-5.367060	0.000000	-1.000000	0.000000
-5.955231	15.000000	-5.367060	0.000000	-1.000000	0.000000
-5.881710	15.000000	-5.367060	0.000000	-1.000000	0.000000
-5.808188	15.000000	-5.367060	0.000000	-1.000000	0.000000
-5.734667	15.000000	-5.367060	0.000000	-1.000000	0.000000
-5.661145	15.000000	-5.367060	0.000000	-1.000000	0.000000
-5.587624	15.000000	-5.367060	0.000000	-1.000000	0.000000
-5.514102	15.000000	-5.367060	0.000000	-1.000000	0.000000
-3.308461	15.000000	-5.367060	0.000000	-1.000000	0.000000
-3.381983	15.000000	-5.367060	0.000000	-1.000000	0.000000
-3.455504	15.000000	-5.367060	0.000000	-1.000000	0.000000
-3.529026	15.000000	-5.367060	0.000000	-1.000000	0.000000
-3.602547	15.000000	-5.367060	0.000000	-1.000000	0.000000
-3.676068	15.000000	-5.367060	0.000000	-1.000000	0.000000
-3.749590	15.000000	-5.367060	0.000000	-1.000000	0.000000
-3.823111	15.000000	-5.367060	0.000000	-1.000000	0.000000
-3.896632	15.000000	-5.367060	0.000000	-1.000000	0.000000
-3.970154	15.000000	-5.367060	0.000000	-1.000000	0.000000
-4.043675	15.000000	-5.367060	0.000000	-1.000000	0.000000
-4.117197	15.000000	-5.367060	0.000000	-1.000000	0.000000
-4.190718	15.000000	-5.367060	0.000000	-1.000000	0.000000
-4.264239	15.000000	-5.367060	0.000000	-1.000000	0.000000
-4.337760	15.000000	-5.367060	0.000000	-1.000000	0.000000
-4.411282	15.000000	-5.367060	0.000000	-1.000000	0.000000
6.543402	15.000000	-5.367060	0.000000	-1.000000	0.000000
4.852410	15.000000	-5.367060	0.000000	-1.000000	0.000000
2.681616	15.000000	-5.367060	0.000000	-1.000000	0.000000
-4.925931	15.000000	-5.367060	0.000000	-1.000000	0.000000
2.720291	15.000000	-5.367060	0.000000	-1.000000	0.000000
-5.072974	15.000000	-5.367060	0.000000	-1.000000	0.000000
4.705368	15.000000	-5.367060	0.000000	-1.000000	0.000000
-4.999453	15.000000	-5.367060	0.000000	-1.000000	0.000000
6.591179	15.000000	-5.367060	0.775438	0.000000	-0.631423
-5.146496	15.000000	-5.367060	0.000000	-1.000000	0.000000
3.014376	15.000000	-5.367060	0.000000	-1.000000	0.000000
4.778889	15.000000	-5.367060	0.000000	-1.000000	0.000000
4.631846	15.000000	-5.367060	0.000000	-1.000000	0.000000
4.558325	15.000000	-5.367060	0.000000	-1.000000	0.000000
4.484803	15.000000	-5.367060	0.000000	-1.000000	0.000000
-5.220017	15.000000	-5.367060	0.000000	-1.000000	0.000000
-5.293539	15.000000	-5.367060	0.000000	-1.000000	0.000000
-2.681616	15.000000	-5.367060	0.000000	-1.000000	0.000000
4.411282	15.000000	-5.367060	0.000000	-1.000000	0.000000
4.337760	15.000000	-5.367060	0.000000	-1.000000	0.000000
4.264239	15.000000	-5.367060	0.000000	-1.000000	0.000000
4.190718	15.000000	-5.367060	0.000000	-1.000000	0.000000
4.117197	15.000000	-5.367060	0.000000	-1.000000	0.000000
4.043675	15.000000	-5.367060	0.000000	-1.000000	0.000000
3.970154	15.000000	-5.367060	0.000000	-1.000000	0.000000
3.896632	15.000000	-5.367060	0.000000	-1.000000	0.000000
3.823111	15.000000	-5.367060	0.000000	-1.000000	0.000000
-6.469880	15.000000	-5.367060	0.000000	-1.000000	0.000000
-6.543402	15.000000	-5.367060	0.000000	-1.000000	0.000000
6.469880	15.000000	-5.367060	0.000000	-1.000000	0.000000
6.396359	15.000000	-5.367060	0.000000	-1.000000	0.000000
6.322838	15.000000	-5.367060	0.000000	-1.000000	0.000000
6.249316	15.000000	-5.367060	0.000000	-1.000000	0.000000
6.175795	15.000000	-5.367060	0.000000	-1.000000	0.000000
6.102273	15.000000	-5.367060	0.000000	-1.000000	0.000000
6.028752	15.000000	-5.367060	0.000000	-1.000000	0.000000
5.955231	15.000000	-5.367060	0.000000	-1.000000	0.000000
5.881710	15.000000	-5.367060	0.000000	-1.000000	0.000000
5.734667	15.000000	-5.367060	0.000000	-1.000000	0.000000
5.661145	15.000000	-5.367060	0.000000	-1.000000	0.000000
5.587624	15.000000	-5.367060	0.000000	-1.000000	0.000000
5.514102	15.000000	-5.367060	0.000000	-1.000000	0.000000
5.440581	15.000000	-5.367060	0.000000	-1.000000	0.000000
5.367060	15.000000	-5.367060	0.000000	-1.000000	0.000000
5.293539	15.000000	-5.367060	0.000000	-1.000000	0.000000
5.220017	15.000000	-5.367060	0.000000	-1.000000	0.000000
5.146496	15.000000	-5.367060	0.000000	-1.000000	0.000000
5.072974	15.000000	-5.367060	0.000000	-1.000000	0.000000
4.999453	15.000000	-5.367060	0.000000	-1.000000	0.000000
4.925931	15.000000	-5.367060	0.000000	-1.000000	0.000000
3.749590	15.000000	-5.367060	0.000000	-1.000000	0.000000
3.676068	15.000000	-5.367060	0.000000	-1.000000	0.000000
3.602547	15.000000	-5.367060	0.000000	-1.000000	0.000000
3.529026	15.000000	-5.367060	0.000000	-1.000000	0.000000
3.455504	15.000000	-5.367060	0.000000	-1.000000	0.000000
3.381983	15.000000	-5.367060	0.000000	-1.000000	0.000000
3.308461	15.000000	-5.367060	0.000000	-1.000000	0.000000
3.234940	15.000000	-5.367060	0.000000	-1.000000	0.000000
3.161419	15.000000	-5.367060	0.000000	-1.000000	0.000000
3.087898	15.000000	-5.367060	0.000000	-1.000000	0.000000
2.940855	15.000000	-5.367060	0.000000	-1.000000	0.000000
2.867333	15.000000	-5.367060	0.000000	-1.000000	0.000000
2.793812	15.000000	-5.367060	0.000000	-1.000000	0.000000
-2.720291	15.000000	-5.367060	0.000000	-1.000000	0.000000
-2.793812	15.000000	-5.367060	0.000000	-1.000000	0.000000
-2.867333	15.000000	-5.367060	0.000000	-1.000000	0.000000
-2.940855	15.000000	-5.367060	0.000000	-1.000000	0.000000
-3.014376	15.000000	-5.367060	0.000000	-1.000000	0.000000
-3.087898	15.000000	-5.367060	0.000000	-1.000000	0.000000
-3.161419	15.000000	-5.367060	0.000000	-1.000000	0.000000
-4.484803	15.000000	-5.367060	0.000000	-1.000000	0.000000
-4.558325	15.000000	-5.367060	0.000000	-1.000000	0.000000
-4.631846	15.000000	-5.367060	0.000000	-1.000000	0.000000
-3.234940	15.000000	-5.367060	0.000000	-1.000000	0.000000
-4.705368	15.000000	-5.367060	0.000000	-1.000000	0.000000
-4.778889	15.000000	-5.367060	0.000000	-1.000000	0.000000
2.714974	15.000000	-5.350600	0.000000	-1.000000	0.000000
-2.714974	15.000000	-5.350600	0.000000	-1.000000	0.000000
2.720291	15.000000	-5.347826	0.000000	-1.000000	0.000000
-2.720291	15.000000	-5.347826	0.000000	-1.000000	0.000000
6.616923	15.000000	-5.335306	0.778466	0.000000	-0.627687
-6.616923	15.000000	-5.335306	-0.778466	0.000000	-0.627687
-6.625811	15.142858	-5.324344	-0.779507	0.000000	-0.626393
-6.625811	15.071428	-5.324344	-0.779507	0.000000	-0.626393
-6.625811	16.785715	-5.324344	-0.779507	0.000000	-0.626393
-6.625811	15.000000	-5.324344	-0.779507	0.000000	-0.626393
-6.625811	17.000000	-5.324344	-0.779507	0.000000	-0.626393
-6.625811	16.928572	-5.324344	-0.779507	0.000000	-0.626393
-6.625811	16.857143	-5.324344	-0.779507	0.000000	-0.626393
-6.625811	16.714285	-5.324344	-0.779507	0.000000	-0.626393
-6.625811	16.642857	-5.324344	-0.779507	0.000000	-0.626393
-6.625811	16.571428	-5.324344	-0.779507	0.000000	-0.626393
-6.625811	16.500000	-5.324344	-0.779507	0.000000	-0.626393
-6.625811	16.428572	-5.324344	-0.779507	0.000000	-0.626393
-6.625811	16.357143	-5.324344	-0.779507	0.000000	-0.626393
-6.625811	16.285715	-5.324344	-0.779507	0.000000	-0.626393
-6.625811	16.214285	-5.324344	-0.779507	0.000000	-0.626393
-6.625811	16.142857	-5.324344	-0.779507	0.000000	-0.626393
-6.625811	16.071428	-5.324344	-0.779507	0.000000	-0.626393
-6.625811	16.000000	-5.324344	-0.779507	0.000000	-0.626393
-6.625811	15.928572	-5.324344	-0.779507	0.000000	-0.626393
-6.625811	15.857142	-5.324344	-0.779507	0.000000	-0.626393
-6.625811	15.785714	-5.324344	-0.779507	0.000000	-0.626393
-6.625811	15.714286	-5.324344	-0.779507	0.000000	-0.626393
-6.625811	15.642858	-5.324344	-0.779507	0.000000	-0.626393
-6.625811	15.571428	-5.324344	-0.779507	0.000000	-0.626393
-6.625811	15.500000	-5.324344	-0.779507	0.000000	-0.626393
-6.625811	15.428572	-5.324344	-0.779507	0.000000	-0.626393
-6.625811	15.357142	-5.324344	-0.779507	0.000000	-0.626393
-6.625811	15.285714	-5.324344	-0.779507	0.000000	-0.626393
-6.625811	15.214286	-5.324344	-0.779507	0.000000	-0.626393
6.625811	15.785714	-5.324344	0.779507	0.000000	-0.626393
6.625811	15.500000	-5.324344	0.779507	0.000000	-0.626393
6.625811	16.142857	-5.324344	0.779507	0.000000	-0.626393
6.625811	15.928572	-5.324344	0.779507	0.000000	-0.626393
6.625811	16.071428	-5.324344	0.779507	0.000000	-0.626393
6.625811	15.642858	-5.324344	0.779507	0.000000	-0.626393
6.625811	16.214285	-5.324344	0.779507	0.000000	-0.626393
6.625811	16.285715	-5.324344	0.779507	0.000000	-0.626393
6.625811	15.214286	-5.324344	0.779507	0.000000	-0.626393
6.625811	16.357143	-5.324344	0.779507	0.000000	-0.626393
6.625811	16.428572	-5.324344	0.779507	0.000000	-0.626393
6.625811	16.500000	-5.324344	0.779507	0.000000	-0.626393
6.625811	16.571428	-5.324344	0.779507	0.000000	-0.626393
6.625811	16.642857	-5.324344	0.779507	0.000000	-0.626393
6.625811	16.714285	-5.324344	0.779507	0.000000	-0.626393
6.625811	16.785715	-5.324344	0.779507	0.000000	-0.626393
