-4.968000	0.000000	0.460000	0.000000	-1.000000	0.000000
-5.060000	0.000000	0.460000	0.000000	-1.000000	0.000000
-5.106000	0.000000	0.460000	0.000000	-1.000000	0.000000
-5.152000	0.000000	0.460000	0.000000	-1.000000	0.000000
-5.198000	0.000000	0.460000	0.000000	-1.000000	0.000000
-5.014000	0.000000	0.460000	0.000000	-1.000000	0.000000
5.480681	0.000000	0.460000	0.996496	0.000000	0.083637
4.094000	0.000000	0.460000	0.000000	-1.000000	0.000000
-5.290000	0.000000	0.460000	0.000000	-1.000000	0.000000
-5.336000	0.000000	0.460000	0.000000	-1.000000	0.000000
-5.382000	0.000000	0.460000	0.000000	-1.000000	0.000000
-5.428000	0.000000	0.460000	0.000000	-1.000000	0.000000
4.140000	0.000000	0.460000	0.000000	-1.000000	0.000000
4.186000	0.000000	0.460000	0.000000	-1.000000	0.000000
4.232000	0.000000	0.460000	0.000000	-1.000000	0.000000
4.278000	0.000000	0.460000	0.000000	-1.000000	0.000000
5.244000	0.000000	0.460000	0.000000	-1.000000	0.000000
4.324000	0.000000	0.460000	0.000000	-1.000000	0.000000
4.370000	0.000000	0.460000	0.000000	-1.000000	0.000000
4.416000	0.000000	0.460000	0.000000	-1.000000	0.000000
5.478735	0.136364	0.483182	0.996134	0.000000	0.087851
5.478735	0.181818	0.483182	0.996134	0.000000	0.087851
5.478735	0.227273	0.483182	0.996134	0.000000	0.087851
5.478735	0.272727	0.483182	0.996134	0.000000	0.087851
5.478735	0.318182	0.483182	0.996134	0.000000	0.087851
5.478735	0.363636	0.483182	0.996134	0.000000	0.087851
5.478735	0.409091	0.483182	0.996134	0.000000	0.087851
5.478735	0.454545	0.483182	0.996134	0.000000	0.087851
5.478735	0.500000	0.483182	0.996134	0.000000	0.087851
5.478735	-0.000000	0.483182	0.996134	0.000000	0.087851
5.478735	0.045455	0.483182	0.996134	0.000000	0.087851
5.478735	0.090909	0.483182	0.996134	0.000000	0.087851
-5.478735	-0.000000	0.483182	-0.996134	0.000000	0.087851
-5.478735	0.500000	0.483182	-0.996134	0.000000	0.087851
-5.478735	0.318182	0.483182	-0.996134	0.000000	0.087851
-5.478735	0.363636	0.483182	-0.996134	0.000000	0.087851
-5.478735	0.409091	0.483182	-0.996134	0.000000	0.087851
-5.478735	0.136364	0.483182	-0.996134	0.000000	0.087851
-5.478735	0.454545	0.483182	-0.996134	0.000000	0.087851
-5.478735	0.272727	0.483182	-0.996134	0.000000	0.087851
-5.478735	0.227273	0.483182	-0.996134	0.000000	0.087851
-5.478735	0.181818	0.483182	-0.996134	0.000000	0.087851
-5.478735	0.045455	0.483182	-0.996134	0.000000	0.087851
-5.478735	0.090909	0.483182	-0.996134	0.000000	0.087851
-3.967646	0.000000	0.506000	0.000000	-1.000000	0.000000
-5.474000	0.000000	0.506000	0.000000	-1.000000	0.000000
4.002000	0.000000	0.506000	0.000000	-1.000000	0.000000
5.474000	0.000000	0.506000	0.000000	-1.000000	0.000000
5.428000	0.000000	0.506000	0.000000	-1.000000	0.000000
5.382000	0.000000	0.506000	0.000000	-1.000000	0.000000
5.336000	0.000000	0.506000	0.000000	-1.000000	0.000000
5.290000	0.000000	0.506000	0.000000	-1.000000	0.000000
5.244000	0.000000	0.506000	0.000000	-1.000000	0.000000
5.198000	0.000000	0.506000	0.000000	-1.000000	0.000000
5.152000	0.000000	0.506000	0.000000	-1.000000	0.000000
5.106000	0.000000	0.506000	0.000000	-1.000000	0.000000
5.060000	0.000000	0.506000	0.000000	-1.000000	0.000000
5.014000	0.000000	0.506000	0.000000	-1.000000	0.000000
4.968000	0.000000	0.506000	0.000000	-1.000000	0.000000
4.922000	0.000000	0.506000	0.000000	-1.000000	0.000000
4.876000	0.000000	0.506000	0.000000	-1.000000	0.000000
4.830000	0.000000	0.506000	0.000000	-1.000000	0.000000
4.784000	0.000000	0.506000	0.000000	-1.000000	0.000000
4.738000	0.000000	0.506000	0.000000	-1.000000	0.000000
4.692000	0.000000	0.506000	0.000000	-1.000000	0.000000
4.646000	0.000000	0.506000	0.000000	-1.000000	0.000000
4.600000	0.000000	0.506000	0.000000	-1.000000	0.000000
4.554000	0.000000	0.506000	0.000000	-1.000000	0.000000
4.508000	0.000000	0.506000	0.000000	-1.000000	0.000000
4.462000	0.000000	0.506000	0.000000	-1.000000	0.000000
4.416000	0.000000	0.506000	0.000000	-1.000000	0.000000
4.370000	0.000000	0.506000	0.000000	-1.000000	0.000000
4.324000	0.000000	0.506000	0.000000	-1.000000	0.000000
4.278000	0.000000	0.506000	0.000000	-1.000000	0.000000
4.232000	0.000000	0.506000	0.000000	-1.000000	0.000000
4.186000	0.000000	0.506000	0.000000	-1.000000	0.000000
4.140000	0.000000	0.506000	0.000000	-1.000000	0.000000
4.094000	0.000000	0.506000	0.000000	-1.000000	0.000000
4.048000	0.000000	0.506000	0.000000	-1.000000	0.000000
-4.002000	0.000000	0.506000	0.000000	-1.000000	0.000000
-4.048000	0.000000	0.506000	0.000000	-1.000000	0.000000
-4.094000	0.000000	0.506000	0.000000	-1.000000	0.000000
-4.140000	0.000000	0.506000	0.000000	-1.000000	0.000000
-4.186000	0.000000	0.506000	0.000000	-1.000000	0.000000
-4.232000	0.000000	0.506000	0.000000	-1.000000	0.000000
-4.278000	0.000000	0.506000	0.000000	-1.000000	0.000000
-4.324000	0.000000	0.506000	0.000000	-1.000000	0.000000
-4.370000	0.000000	0.506000	0.000000	-1.000000	0.000000
-4.416000	0.000000	0.506000	0.000000	-1.000000	0.000000
-4.462000	0.000000	0.506000	0.000000	-1.000000	0.000000
-4.508000	0.000000	0.506000	0.000000	-1.000000	0.000000
-4.554000	0.000000	0.506000	0.000000	-1.000000	0.000000
-4.646000	0.000000	0.506000	0.000000	-1.000000	0.000000
-4.692000	0.000000	0.506000	0.000000	-1.000000	0.000000
-4.738000	0.000000	0.506000	0.000000	-1.000000	0.000000
-4.784000	0.000000	0.506000	0.000000	-1.000000	0.000000
-4.830000	0.000000	0.506000	0.000000	-1.000000	0.000000
-4.876000	0.000000	0.506000	0.000000	-1.000000	0.000000
-4.922000	0.000000	0.506000	0.000000	-1.000000	0.000000
-4.968000	0.000000	0.506000	0.000000	-1.000000	0.000000
-5.014000	0.000000	0.506000	0.000000	-1.000000	0.000000
-5.060000	0.000000	0.506000	0.000000	-1.000000	0.000000
-5.106000	0.000000	0.506000	0.000000	-1.000000	0.000000
-5.152000	0.000000	0.506000	0.000000	-1.000000	0.000000
-5.198000	0.000000	0.506000	0.000000	-1.000000	0.000000
-5.244000	0.000000	0.506000	0.000000	-1.000000	0.000000
-5.290000	0.000000	0.506000	0.000000	-1.000000	0.000000
-5.336000	0.000000	0.506000	0.000000	-1.000000	0.000000
-5.382000	0.000000	0.506000	0.000000	-1.000000	0.000000
-5.428000	0.000000	0.506000	0.000000	-1.000000	0.000000
-5.476626	0.000000	0.506000	-0.995759	0.000000	0.092001
-4.600000	0.000000	0.506000	0.000000	-1.000000	0.000000
3.967646	0.000000	0.506000	0.000000	-1.000000	0.000000
5.476626	0.000000	0.506000	0.995759	0.000000	0.092001
5.474495	0.272727	0.529063	0.995363	0.000000	0.096193
5.474495	0.500000	0.529063	0.995363	0.000000	0.096193
5.474495	0.454545	0.529063	0.995363	0.000000	0.096193
5.474495	0.409091	0.529063	0.995363	0.000000	0.096193
5.474495	0.363636	0.529063	0.995363	0.000000	0.096193
5.474495	0.318182	0.529063	0.995363	0.000000	0.096193
5.474495	0.227273	0.529063	0.995363	0.000000	0.096193
5.474495	0.181818	0.529063	0.995363	0.000000	0.096193
5.474495	0.136364	0.529063	0.995363	0.000000	0.096193
5.474495	0.090909	0.529063	0.995363	0.000000	0.096193
5.474495	0.045455	0.529063	0.995363	0.000000	0.096193
5.474495	-0.000000	0.529063	0.995363	0.000000	0.096193
-5.474495	0.272727	0.529063	-0.995363	0.000000	0.096193
-5.474495	0.318182	0.529063	-0.995363	0.000000	0.096193
-5.474495	0.363636	0.529063	-0.995363	0.000000	0.096193
-5.474495	0.409091	0.529063	-0.995363	0.000000	0.096193
-5.474495	0.454545	0.529063	-0.995363	0.000000	0.096193
-5.474495	0.500000	0.529063	-0.995363	0.000000	0.096193
-5.474495	0.045455	0.529063	-0.995363	0.000000	0.096193
-5.474495	0.090909	0.529063	-0.995363	0.000000	0.096193
-5.474495	0.136364	0.529063	-0.995363	0.000000	0.096193
-5.474495	0.181818	0.529063	-0.995363	0.000000	0.096193
-5.474495	0.227273	0.529063	-0.995363	0.000000	0.096193
-5.474495	-0.000000	0.529063	-0.995363	0.000000	0.096193
-5.474000	0.000000	0.533967	-0.995276	0.000000	0.097085
5.474000	0.000000	0.533967	0.995276	0.000000	0.097085
-3.963633	0.000000	0.538156	0.000000	-1.000000	0.000000
3.963633	0.000000	0.538156	0.000000	-1.000000	0.000000
3.961601	0.000000	0.552000	0.000000	-1.000000	0.000000
-5.014000	0.000000	0.552000	0.000000	-1.000000	0.000000
-4.968000	0.000000	0.552000	0.000000	-1.000000	0.000000
-4.922000	0.000000	0.552000	0.000000	-1.000000	0.000000
-4.876000	0.000000	0.552000	0.000000	-1.000000	0.000000
-4.830000	0.000000	0.552000	0.000000	-1.000000	0.000000
-4.784000	0.000000	0.552000	0.000000	-1.000000	0.000000
-4.738000	0.000000	0.552000	0.000000	-1.000000	0.000000
5.060000	0.000000	0.552000	0.000000	-1.000000	0.000000
5.472181	0.000000	0.552000	0.994951	0.000000	0.100365
4.002000	0.000000	0.552000	0.000000	-1.000000	0.000000
-5.428000	0.000000	0.552000	0.000000	-1.000000	0.000000
5.428000	0.000000	0.552000	0.000000	-1.000000	0.000000
5.382000	0.000000	0.552000	0.000000	-1.000000	0.000000
5.336000	0.000000	0.552000	0.000000	-1.000000	0.000000
5.290000	0.000000	0.552000	0.000000	-1.000000	0.000000
5.244000	0.000000	0.552000	0.000000	-1.000000	0.000000
5.198000	0.000000	0.552000	0.000000	-1.000000	0.000000
5.152000	0.000000	0.552000	0.000000	-1.000000	0.000000
5.106000	0.000000	0.552000	0.000000	-1.000000	0.000000
5.014000	0.000000	0.552000	0.000000	-1.000000	0.000000
4.968000	0.000000	0.552000	0.000000	-1.000000	0.000000
4.922000	0.000000	0.552000	0.000000	-1.000000	0.000000
4.876000	0.000000	0.552000	0.000000	-1.000000	0.000000
4.830000	0.000000	0.552000	0.000000	-1.000000	0.000000
4.784000	0.000000	0.552000	0.000000	-1.000000	0.000000
4.738000	0.000000	0.552000	0.000000	-1.000000	0.000000
4.692000	0.000000	0.552000	0.000000	-1.000000	0.000000
4.646000	0.000000	0.552000	0.000000	-1.000000	0.000000
4.600000	0.000000	0.552000	0.000000	-1.000000	0.000000
4.554000	0.000000	0.552000	0.000000	-1.000000	0.000000
-4.692000	0.000000	0.552000	0.000000	-1.000000	0.000000
4.508000	0.000000	0.552000	0.000000	-1.000000	0.000000
-4.186000	0.000000	0.552000	0.000000	-1.000000	0.000000
4.462000	0.000000	0.552000	0.000000	-1.000000	0.000000
4.416000	0.000000	0.552000	0.000000	-1.000000	0.000000
4.370000	0.000000	0.552000	0.000000	-1.000000	0.000000
4.324000	0.000000	0.552000	0.000000	-1.000000	0.000000
4.278000	0.000000	0.552000	0.000000	-1.000000	0.000000
-4.554000	0.000000	0.552000	0.000000	-1.000000	0.000000
4.232000	0.000000	0.552000	0.000000	-1.000000	0.000000
4.186000	0.000000	0.552000	0.000000	-1.000000	0.000000
-4.646000	0.000000	0.552000	0.000000	-1.000000	0.000000
-4.600000	0.000000	0.552000	0.000000	-1.000000	0.000000
-3.961601	0.000000	0.552000	0.000000	-1.000000	0.000000
-5.106000	0.000000	0.552000	0.000000	-1.000000	0.000000
-5.472181	0.000000	0.552000	-0.994951	0.000000	0.100365
-5.060000	0.000000	0.552000	0.000000	-1.000000	0.000000
4.140000	0.000000	0.552000	0.000000	-1.000000	0.000000
4.048000	0.000000	0.552000	0.000000	-1.000000	0.000000
-4.002000	0.000000	0.552000	0.000000	-1.000000	0.000000
-4.048000	0.000000	0.552000	0.000000	-1.000000	0.000000
-4.094000	0.000000	0.552000	0.000000	-1.000000	0.000000
-4.140000	0.000000	0.552000	0.000000	-1.000000	0.000000
-4.232000	0.000000	0.552000	0.000000	-1.000000	0.000000
-4.278000	0.000000	0.552000	0.000000	-1.000000	0.000000
-4.324000	0.000000	0.552000	0.000000	-1.000000	0.000000
-4.370000	0.000000	0.552000	0.000000	-1.000000	0.000000
-4.416000	0.000000	0.552000	0.000000	-1.000000	0.000000
4.094000	0.000000	0.552000	0.000000	-1.000000	0.000000
-4.462000	0.000000	0.552000	0.000000	-1.000000	0.000000
-4.508000	0.000000	0.552000	0.000000	-1.000000	0.000000
-5.382000	0.000000	0.552000	0.000000	-1.000000	0.000000
-5.336000	0.000000	0.552000	0.000000	-1.000000	0.000000
-5.290000	0.000000	0.552000	0.000000	-1.000000	0.000000
-5.244000	0.000000	0.552000	0.000000	-1.000000	0.000000
-5.198000	0.000000	0.552000	0.000000	-1.000000	0.000000
-5.152000	0.000000	0.552000	0.000000	-1.000000	0.000000
5.469871	0.454545	0.574907	0.994522	0.000000	0.104528
5.469871	0.500000	0.574907	0.994522	0.000000	0.104528
5.469871	0.181818	0.574907	0.994522	0.000000	0.104528
5.469871	-0.000000	0.574907	0.994522	0.000000	0.104528
5.469871	0.045455	0.574907	0.994522	0.000000	0.104528
5.469871	0.090909	0.574907	0.994522	0.000000	0.104528
5.469871	0.136364	0.574907	0.994522	0.000000	0.104528
5.469871	0.227273	0.574907	0.994522	0.000000	0.104528
5.469871	0.272727	0.574907	0.994522	0.000000	0.104528
5.469871	0.318182	0.574907	0.994522	0.000000	0.104528
5.469871	0.363636	0.574907	0.994522	0.000000	0.104528
5.469871	0.409091	0.574907	0.994522	0.000000	0.104528
-5.469871	0.363636	0.574907	-0.994522	0.000000	0.104528
-5.469871	0.318182	0.574907	-0.994522	0.000000	0.104528
-5.469871	0.272727	0.574907	-0.994522	0.000000	0.104528
-5.469871	0.227273	0.574907	-0.994522	0.000000	0.104528
-5.469871	0.181818	0.574907	-0.994522	0.000000	0.104528
-5.469871	0.136364	0.574907	-0.994522	0.000000	0.104528
-5.469871	0.090909	0.574907	-0.994522	0.000000	0.104528
-5.469871	0.045455	0.574907	-0.994522	0.000000	0.104528
-5.469871	-0.000000	0.574907	-0.994522	0.000000	0.104528
-5.469871	0.500000	0.574907	-0.994522	0.000000	0.104528
-5.469871	0.454545	0.574907	-0.994522	0.000000	0.104528
-5.469871	0.409091	0.574907	-0.994522	0.000000	0.104528
3.956000	0.000000	0.590159	0.000000	-1.000000	0.000000
-3.956000	0.000000	0.590159	0.000000	-1.000000	0.000000
3.954849	0.000000	0.598000	0.000000	-1.000000	0.000000
-4.968000	0.000000	0.598000	0.000000	-1.000000	0.000000
-4.922000	0.000000	0.598000	0.000000	-1.000000	0.000000
-4.876000	0.000000	0.598000	0.000000	-1.000000	0.000000
-4.830000	0.000000	0.598000	0.000000	-1.000000	0.000000
-4.784000	0.000000	0.598000	0.000000	-1.000000	0.000000
-4.738000	0.000000	0.598000	0.000000	-1.000000	0.000000
-4.692000	0.000000	0.598000	0.000000	-1.000000	0.000000
-4.646000	0.000000	0.598000	0.000000	-1.000000	0.000000
-4.600000	0.000000	0.598000	0.000000	-1.000000	0.000000
-4.554000	0.000000	0.598000	0.000000	-1.000000	0.000000
-4.462000	0.000000	0.598000	0.000000	-1.000000	0.000000
-4.416000	0.000000	0.598000	0.000000	-1.000000	0.000000
-3.954849	0.000000	0.598000	0.000000	-1.000000	0.000000
-4.370000	0.000000	0.598000	0.000000	-1.000000	0.000000
-4.324000	0.000000	0.598000	0.000000	-1.000000	0.000000
-4.278000	0.000000	0.598000	0.000000	-1.000000	0.000000
-4.232000	0.000000	0.598000	0.000000	-1.000000	0.000000
-4.186000	0.000000	0.598000	0.000000	-1.000000	0.000000
-4.140000	0.000000	0.598000	0.000000	-1.000000	0.000000
-4.094000	0.000000	0.598000	0.000000	-1.000000	0.000000
-4.048000	0.000000	0.598000	0.000000	-1.000000	0.000000
-3.956000	0.000000	0.598000	0.000000	-1.000000	0.000000
-4.002000	0.000000	0.598000	0.000000	-1.000000	0.000000
4.048000	0.000000	0.598000	0.000000	-1.000000	0.000000
4.094000	0.000000	0.598000	0.000000	-1.000000	0.000000
4.140000	0.000000	0.598000	0.000000	-1.000000	0.000000
4.186000	0.000000	0.598000	0.000000	-1.000000	0.000000
4.232000	0.000000	0.598000	0.000000	-1.000000	0.000000
4.278000	0.000000	0.598000	0.000000	-1.000000	0.000000
4.324000	0.000000	0.598000	0.000000	-1.000000	0.000000
4.370000	0.000000	0.598000	0.000000	-1.000000	0.000000
4.416000	0.000000	0.598000	0.000000	-1.000000	0.000000
4.462000	0.000000	0.598000	0.000000	-1.000000	0.000000
4.508000	0.000000	0.598000	0.000000	-1.000000	0.000000
4.554000	0.000000	0.598000	0.000000	-1.000000	0.000000
4.600000	0.000000	0.598000	0.000000	-1.000000	0.000000
4.646000	0.000000	0.598000	0.000000	-1.000000	0.000000
4.692000	0.000000	0.598000	0.000000	-1.000000	0.000000
4.738000	0.000000	0.598000	0.000000	-1.000000	0.000000
4.784000	0.000000	0.598000	0.000000	-1.000000	0.000000
4.830000	0.000000	0.598000	0.000000	-1.000000	0.000000
4.876000	0.000000	0.598000	0.000000	-1.000000	0.000000
4.922000	0.000000	0.598000	0.000000	-1.000000	0.000000
4.968000	0.000000	0.598000	0.000000	-1.000000	0.000000
5.014000	0.000000	0.598000	0.000000	-1.000000	0.000000
5.060000	0.000000	0.598000	0.000000	-1.000000	0.000000
5.106000	0.000000	0.598000	0.000000	-1.000000	0.000000
5.152000	0.000000	0.598000	0.000000	-1.000000	0.000000
5.198000	0.000000	0.598000	0.000000	-1.000000	0.000000
5.244000	0.000000	0.598000	0.000000	-1.000000	0.000000
5.290000	0.000000	0.598000	0.000000	-1.000000	0.000000
5.336000	0.000000	0.598000	0.000000	-1.000000	0.000000
5.382000	0.000000	0.598000	0.000000	-1.000000	0.000000
5.428000	0.000000	0.598000	0.000000	-1.000000	0.000000
-5.428000	0.000000	0.598000	0.000000	-1.000000	0.000000
5.467345	0.000000	0.598000	0.994071	0.000000	0.108728
4.002000	0.000000	0.598000	0.000000	-1.000000	0.000000
3.956000	0.000000	0.598000	0.000000	-1.000000	0.000000
-5.467345	0.000000	0.598000	-0.994071	0.000000	0.108728
-4.508000	0.000000	0.598000	0.000000	-1.000000	0.000000
-5.382000	0.000000	0.598000	0.000000	-1.000000	0.000000
-5.336000	0.000000	0.598000	0.000000	-1.000000	0.000000
-5.290000	0.000000	0.598000	0.000000	-1.000000	0.000000
-5.244000	0.000000	0.598000	0.000000	-1.000000	0.000000
-5.198000	0.000000	0.598000	0.000000	-1.000000	0.000000
-5.152000	0.000000	0.598000	0.000000	-1.000000	0.000000
-5.106000	0.000000	0.598000	0.000000	-1.000000	0.000000
-5.060000	0.000000	0.598000	0.000000	-1.000000	0.000000
-5.014000	0.000000	0.598000	0.000000	-1.000000	0.000000
5.464862	0.363636	0.620710	0.993611	0.000000	0.112856
5.464862	0.500000	0.620710	0.993611	0.000000	0.112856
5.464862	0.454545	0.620710	0.993611	0.000000	0.112856
5.464862	0.409091	0.620710	0.993611	0.000000	0.112856
5.464862	0.318182	0.620710	0.993611	0.000000	0.112856
5.464862	0.272727	0.620710	0.993611	0.000000	0.112856
5.464862	0.227273	0.620710	0.993611	0.000000	0.112856
5.464862	0.181818	0.620710	0.993611	0.000000	0.112856
5.464862	0.136364	0.620710	0.993611	0.000000	0.112856
5.464862	0.090909	0.620710	0.993611	0.000000	0.112856
5.464862	-0.000000	0.620710	0.993611	0.000000	0.112856
5.464862	0.045455	0.620710	0.993611	0.000000	0.112856
-5.464862	0.136364	0.620710	-0.993611	0.000000	0.112856
-5.464862	0.272727	0.620710	-0.993611	0.000000	0.112856
-5.464862	0.318182	0.620710	-0.993611	0.000000	0.112856
-5.464862	0.363636	0.620710	-0.993611	0.000000	0.112856
-5.464862	0.090909	0.620710	-0.993611	0.000000	0.112856
-5.464862	0.409091	0.620710	-0.993611	0.000000	0.112856
-5.464862	0.454545	0.620710	-0.993611	0.000000	0.112856
-5.464862	0.045455	0.620710	-0.993611	0.000000	0.112856
-5.464862	0.181818	0.620710	-0.993611	0.000000	0.112856
-5.464862	-0.000000	0.620710	-0.993611	0.000000	0.112856
-5.464862	0.500000	0.620710	-0.993611	0.000000	0.112856
-5.464862	0.227273	0.620710	-0.993611	0.000000	0.112856
-3.951091	0.000000	0.623605	0.000000	-1.000000	0.000000
3.951091	0.000000	0.623605	0.000000	-1.000000	0.000000
3.947646	0.000000	0.644000	0.000000	-1.000000	0.000000
-4.738000	0.000000	0.644000	0.000000	-1.000000	0.000000
-4.002000	0.000000	0.644000	0.000000	-1.000000	0.000000
-4.048000	0.000000	0.644000	0.000000	-1.000000	0.000000
4.278000	0.000000	0.644000	0.000000	-1.000000	0.000000
4.232000	0.000000	0.644000	0.000000	-1.000000	0.000000
4.140000	0.000000	0.644000	0.000000	-1.000000	0.000000
4.094000	0.000000	0.644000	0.000000	-1.000000	0.000000
4.048000	0.000000	0.644000	0.000000	-1.000000	0.000000
-4.554000	0.000000	0.644000	0.000000	-1.000000	0.000000
5.244000	0.000000	0.644000	0.000000	-1.000000	0.000000
5.198000	0.000000	0.644000	0.000000	-1.000000	0.000000
5.152000	0.000000	0.644000	0.000000	-1.000000	0.000000
5.106000	0.000000	0.644000	0.000000	-1.000000	0.000000
5.060000	0.000000	0.644000	0.000000	-1.000000	0.000000
-5.382000	0.000000	0.644000	0.000000	-1.000000	0.000000
5.462118	0.000000	0.644000	0.993121	0.000000	0.117092
-4.232000	0.000000	0.644000	0.000000	-1.000000	0.000000
4.324000	0.000000	0.644000	0.000000	-1.000000	0.000000
-5.462118	0.000000	0.644000	-0.993121	0.000000	0.117092
-4.508000	0.000000	0.644000	0.000000	-1.000000	0.000000
-4.462000	0.000000	0.644000	0.000000	-1.000000	0.000000
-4.416000	0.000000	0.644000	0.000000	-1.000000	0.000000
-4.370000	0.000000	0.644000	0.000000	-1.000000	0.000000
-4.324000	0.000000	0.644000	0.000000	-1.000000	0.000000
-4.278000	0.000000	0.644000	0.000000	-1.000000	0.000000
4.186000	0.000000	0.644000	0.000000	-1.000000	0.000000
-4.186000	0.000000	0.644000	0.000000	-1.000000	0.000000
3.956000	0.000000	0.644000	0.000000	-1.000000	0.000000
4.002000	0.000000	0.644000	0.000000	-1.000000	0.000000
4.370000	0.000000	0.644000	0.000000	-1.000000	0.000000
4.416000	0.000000	0.644000	0.000000	-1.000000	0.000000
-4.094000	0.000000	0.644000	0.000000	-1.000000	0.000000
-3.956000	0.000000	0.644000	0.000000	-1.000000	0.000000
4.462000	0.000000	0.644000	0.000000	-1.000000	0.000000
4.508000	0.000000	0.644000	0.000000	-1.000000	0.000000
4.554000	0.000000	0.644000	0.000000	-1.000000	0.000000
4.600000	0.000000	0.644000	0.000000	-1.000000	0.000000
4.646000	0.000000	0.644000	0.000000	-1.000000	0.000000
4.692000	0.000000	0.644000	0.000000	-1.000000	0.000000
4.738000	0.000000	0.644000	0.000000	-1.000000	0.000000
4.784000	0.000000	0.644000	0.000000	-1.000000	0.000000
-5.336000	0.000000	0.644000	0.000000	-1.000000	0.000000
4.830000	0.000000	0.644000	0.000000	-1.000000	0.000000
-4.140000	0.000000	0.644000	0.000000	-1.000000	0.000000
4.876000	0.000000	0.644000	0.000000	-1.000000	0.000000
4.922000	0.000000	0.644000	0.000000	-1.000000	0.000000
-3.947646	0.000000	0.644000	0.000000	-1.000000	0.000000
5.014000	0.000000	0.644000	0.000000	-1.000000	0.000000
4.968000	0.000000	0.644000	0.000000	-1.000000	0.000000
-5.428000	0.000000	0.644000	0.000000	-1.000000	0.000000
5.428000	0.000000	0.644000	0.000000	-1.000000	0.000000
-5.290000	0.000000	0.644000	0.000000	-1.000000	0.000000
-5.244000	0.000000	0.644000	0.000000	-1.000000	0.000000
-5.198000	0.000000	0.644000	0.000000	-1.000000	0.000000
-5.152000	0.000000	0.644000	0.000000	-1.000000	0.000000
-5.106000	0.000000	0.644000	0.000000	-1.000000	0.000000
-5.060000	0.000000	0.644000	0.000000	-1.000000	0.000000
-5.014000	0.000000	0.644000	0.000000	-1.000000	0.000000
-4.968000	0.000000	0.644000	0.000000	-1.000000	0.000000
-4.922000	0.000000	0.644000	0.000000	-1.000000	0.000000
-4.876000	0.000000	0.644000	0.000000	-1.000000	0.000000
-4.830000	0.000000	0.644000	0.000000	-1.000000	0.000000
-4.784000	0.000000	0.644000	0.000000	-1.000000	0.000000
-4.692000	0.000000	0.644000	0.000000	-1.000000	0.000000
-4.646000	0.000000	0.644000	0.000000	-1.000000	0.000000
-4.600000	0.000000	0.644000	0.000000	-1.000000	0.000000
5.382000	0.000000	0.644000	0.000000	-1.000000	0.000000
5.336000	0.000000	0.644000	0.000000	-1.000000	0.000000
5.290000	0.000000	0.644000	0.000000	-1.000000	0.000000
5.459470	0.454545	0.666470	0.992631	0.000000	0.121176
5.459470	0.409091	0.666470	0.992631	0.000000	0.121176
5.459470	0.363636	0.666470	0.992631	0.000000	0.121176
5.459470	0.318182	0.666470	0.992631	0.000000	0.121176
5.459470	0.272727	0.666470	0.992631	0.000000	0.121176
5.459470	0.500000	0.666470	0.992631	0.000000	0.121176
5.459470	-0.000000	0.666470	0.992631	0.000000	0.121176
5.459470	0.045455	0.666470	0.992631	0.000000	0.121176
5.459470	0.090909	0.666470	0.992631	0.000000	0.121176
5.459470	0.136364	0.666470	0.992631	0.000000	0.121176
5.459470	0.181818	0.666470	0.992631	0.000000	0.121176
5.459470	0.227273	0.666470	0.992631	0.000000	0.121176
-5.459470	0.136364	0.666470	-0.992631	0.000000	0.121176
-5.459470	-0.000000	0.666470	-0.992631	0.000000	0.121176
-5.459470	0.045455	0.666470	-0.992631	0.000000	0.121176
-5.459470	0.090909	0.666470	-0.992631	0.000000	0.121176
-5.459470	0.181818	0.666470	-0.992631	0.000000	0.121176
-5.459470	0.227273	0.666470	-0.992631	0.000000	0.121176
-5.459470	0.272727	0.666470	-0.992631	0.000000	0.121176
-5.459470	0.318182	0.666470	-0.992631	0.000000	0.121176
-5.459470	0.363636	0.666470	-0.992631	0.000000	0.121176
-5.459470	0.409091	0.666470	-0.992631	0.000000	0.121176
-5.459470	0.454545	0.666470	-0.992631	0.000000	0.121176
-5.459470	0.500000	0.666470	-0.992631	0.000000	0.121176
3.939875	0.000000	0.690000	0.000000	-1.000000	0.000000
-4.922000	0.000000	0.690000	0.000000	-1.000000	0.000000
5.106000	0.000000	0.690000	0.000000	-1.000000	0.000000
-4.876000	0.000000	0.690000	0.000000	-1.000000	0.000000
-4.830000	0.000000	0.690000	0.000000	-1.000000	0.000000
-4.784000	0.000000	0.690000	0.000000	-1.000000	0.000000
-4.738000	0.000000	0.690000	0.000000	-1.000000	0.000000
-4.692000	0.000000	0.690000	0.000000	-1.000000	0.000000
-4.646000	0.000000	0.690000	0.000000	-1.000000	0.000000
-4.600000	0.000000	0.690000	0.000000	-1.000000	0.000000
-5.456498	0.000000	0.690000	-0.992099	0.000000	0.125456
-5.382000	0.000000	0.690000	0.000000	-1.000000	0.000000
-3.939875	0.000000	0.690000	0.000000	-1.000000	0.000000
5.152000	0.000000	0.690000	0.000000	-1.000000	0.000000
5.198000	0.000000	0.690000	0.000000	-1.000000	0.000000
-5.336000	0.000000	0.690000	0.000000	-1.000000	0.000000
-5.290000	0.000000	0.690000	0.000000	-1.000000	0.000000
-5.244000	0.000000	0.690000	0.000000	-1.000000	0.000000
-5.198000	0.000000	0.690000	0.000000	-1.000000	0.000000
-5.152000	0.000000	0.690000	0.000000	-1.000000	0.000000
-5.106000	0.000000	0.690000	0.000000	-1.000000	0.000000
-5.060000	0.000000	0.690000	0.000000	-1.000000	0.000000
-5.014000	0.000000	0.690000	0.000000	-1.000000	0.000000
-4.968000	0.000000	0.690000	0.000000	-1.000000	0.000000
-4.554000	0.000000	0.690000	0.000000	-1.000000	0.000000
3.956000	0.000000	0.690000	0.000000	-1.000000	0.000000
5.244000	0.000000	0.690000	0.000000	-1.000000	0.000000
5.290000	0.000000	0.690000	0.000000	-1.000000	0.000000
-4.508000	0.000000	0.690000	0.000000	-1.000000	0.000000
-4.462000	0.000000	0.690000	0.000000	-1.000000	0.000000
-4.416000	0.000000	0.690000	0.000000	-1.000000	0.000000
-4.370000	0.000000	0.690000	0.000000	-1.000000	0.000000
-4.324000	0.000000	0.690000	0.000000	-1.000000	0.000000
-4.278000	0.000000	0.690000	0.000000	-1.000000	0.000000
-4.232000	0.000000	0.690000	0.000000	-1.000000	0.000000
-4.186000	0.000000	0.690000	0.000000	-1.000000	0.000000
-4.140000	0.000000	0.690000	0.000000	-1.000000	0.000000
-4.094000	0.000000	0.690000	0.000000	-1.000000	0.000000
-4.048000	0.000000	0.690000	0.000000	-1.000000	0.000000
-4.002000	0.000000	0.690000	0.000000	-1.000000	0.000000
5.336000	0.000000	0.690000	0.000000	-1.000000	0.000000
-3.956000	0.000000	0.690000	0.000000	-1.000000	0.000000
4.002000	0.000000	0.690000	0.000000	-1.000000	0.000000
4.048000	0.000000	0.690000	0.000000	-1.000000	0.000000
5.382000	0.000000	0.690000	0.000000	-1.000000	0.000000
5.456498	0.000000	0.690000	0.992099	0.000000	0.125456
5.428000	0.000000	0.690000	0.000000	-1.000000	0.000000
-5.428000	0.000000	0.690000	0.000000	-1.000000	0.000000
4.278000	0.000000	0.690000	0.000000	-1.000000	0.000000
4.094000	0.000000	0.690000	0.000000	-1.000000	0.000000
4.140000	0.000000	0.690000	0.000000	-1.000000	0.000000
4.186000	0.000000	0.690000	0.000000	-1.000000	0.000000
4.232000	0.000000	0.690000	0.000000	-1.000000	0.000000
4.324000	0.000000	0.690000	0.000000	-1.000000	0.000000
4.370000	0.000000	0.690000	0.000000	-1.000000	0.000000
4.462000	0.000000	0.690000	0.000000	-1.000000	0.000000
4.508000	0.000000	0.690000	0.000000	-1.000000	0.000000
4.554000	0.000000	0.690000	0.000000	-1.000000	0.000000
4.600000	0.000000	0.690000	0.000000	-1.000000	0.000000
4.646000	0.000000	0.690000	0.000000	-1.000000	0.000000
4.416000	0.000000	0.690000	0.000000	-1.000000	0.000000
4.692000	0.000000	0.690000	0.000000	-1.000000	0.000000
4.738000	0.000000	0.690000	0.000000	-1.000000	0.000000
4.784000	0.000000	0.690000	0.000000	-1.000000	0.000000
4.830000	0.000000	0.690000	0.000000	-1.000000	0.000000
4.876000	0.000000	0.690000	0.000000	-1.000000	0.000000
4.922000	0.000000	0.690000	0.000000	-1.000000	0.000000
4.968000	0.000000	0.690000	0.000000	-1.000000	0.000000
5.014000	0.000000	0.690000	0.000000	-1.000000	0.000000
5.060000	0.000000	0.690000	0.000000	-1.000000	0.000000
-3.936706	0.000000	0.708764	0.000000	-1.000000	0.000000
3.936706	0.000000	0.708764	0.000000	-1.000000	0.000000
5.453695	0.090909	0.712183	0.991581	0.000000	0.129488
5.453695	-0.000000	0.712183	0.991581	0.000000	0.129488
5.453695	0.045455	0.712183	0.991581	0.000000	0.129488
5.453695	0.136364	0.712183	0.991581	0.000000	0.129488
5.453695	0.227273	0.712183	0.991581	0.000000	0.129488
5.453695	0.272727	0.712183	0.991581	0.000000	0.129488
5.453695	0.318182	0.712183	0.991581	0.000000	0.129488
5.453695	0.363636	0.712183	0.991581	0.000000	0.129488
5.453695	0.181818	0.712183	0.991581	0.000000	0.129488
5.453695	0.409091	0.712183	0.991581	0.000000	0.129488
5.453695	0.454545	0.712183	0.991581	0.000000	0.129488
5.453695	0.500000	0.712183	0.991581	0.000000	0.129488
-5.453695	0.136364	0.712183	-0.991581	0.000000	0.129488
-5.453695	-0.000000	0.712183	-0.991581	0.000000	0.129488
-5.453695	0.045455	0.712183	-0.991581	0.000000	0.129488
-5.453695	0.090909	0.712183	-0.991581	0.000000	0.129488
-5.453695	0.181818	0.712183	-0.991581	0.000000	0.129488
-5.453695	0.227273	0.712183	-0.991581	0.000000	0.129488
-5.453695	0.318182	0.712183	-0.991581	0.000000	0.129488
-5.453695	0.363636	0.712183	-0.991581	0.000000	0.129488
-5.453695	0.409091	0.712183	-0.991581	0.000000	0.129488
-5.453695	0.454545	0.712183	-0.991581	0.000000	0.129488
-5.453695	0.500000	0.712183	-0.991581	0.000000	0.129488
-5.453695	0.272727	0.712183	-0.991581	0.000000	0.129488
4.922000	0.000000	0.736000	0.000000	-1.000000	0.000000
4.968000	0.000000	0.736000	0.000000	-1.000000	0.000000
5.014000	0.000000	0.736000	0.000000	-1.000000	0.000000
5.060000	0.000000	0.736000	0.000000	-1.000000	0.000000
5.106000	0.000000	0.736000	0.000000	-1.000000	0.000000
5.152000	0.000000	0.736000	0.000000	-1.000000	0.000000
5.198000	0.000000	0.736000	0.000000	-1.000000	0.000000
5.244000	0.000000	0.736000	0.000000	-1.000000	0.000000
5.290000	0.000000	0.736000	0.000000	-1.000000	0.000000
5.336000	0.000000	0.736000	0.000000	-1.000000	0.000000
5.382000	0.000000	0.736000	0.000000	-1.000000	0.000000
5.428000	0.000000	0.736000	0.000000	-1.000000	0.000000
-5.428000	0.000000	0.736000	0.000000	-1.000000	0.000000
-5.244000	0.000000	0.736000	0.000000	-1.000000	0.000000
-5.290000	0.000000	0.736000	0.000000	-1.000000	0.000000
-5.336000	0.000000	0.736000	0.000000	-1.000000	0.000000
-5.382000	0.000000	0.736000	0.000000	-1.000000	0.000000
3.931498	0.000000	0.736000	0.000000	-1.000000	0.000000
-4.462000	0.000000	0.736000	0.000000	-1.000000	0.000000
-5.198000	0.000000	0.736000	0.000000	-1.000000	0.000000
-5.152000	0.000000	0.736000	0.000000	-1.000000	0.000000
-5.106000	0.000000	0.736000	0.000000	-1.000000	0.000000
-5.060000	0.000000	0.736000	0.000000	-1.000000	0.000000
-5.014000	0.000000	0.736000	0.000000	-1.000000	0.000000
-4.968000	0.000000	0.736000	0.000000	-1.000000	0.000000
-4.922000	0.000000	0.736000	0.000000	-1.000000	0.000000
-4.876000	0.000000	0.736000	0.000000	-1.000000	0.000000
-4.830000	0.000000	0.736000	0.000000	-1.000000	0.000000
-4.784000	0.000000	0.736000	0.000000	-1.000000	0.000000
-4.738000	0.000000	0.736000	0.000000	-1.000000	0.000000
-4.692000	0.000000	0.736000	0.000000	-1.000000	0.000000
-4.646000	0.000000	0.736000	0.000000	-1.000000	0.000000
-4.600000	0.000000	0.736000	0.000000	-1.000000	0.000000
-4.554000	0.000000	0.736000	0.000000	-1.000000	0.000000
-4.508000	0.000000	0.736000	0.000000	-1.000000	0.000000
-3.931498	0.000000	0.736000	0.000000	-1.000000	0.000000
-4.416000	0.000000	0.736000	0.000000	-1.000000	0.000000
-4.370000	0.000000	0.736000	0.000000	-1.000000	0.000000
-4.324000	0.000000	0.736000	0.000000	-1.000000	0.000000
-4.278000	0.000000	0.736000	0.000000	-1.000000	0.000000
-4.232000	0.000000	0.736000	0.000000	-1.000000	0.000000
-4.186000	0.000000	0.736000	0.000000	-1.000000	0.000000
-4.140000	0.000000	0.736000	0.000000	-1.000000	0.000000
3.956000	0.000000	0.736000	0.000000	-1.000000	0.000000
-4.094000	0.000000	0.736000	0.000000	-1.000000	0.000000
-4.048000	0.000000	0.736000	0.000000	-1.000000	0.000000
-4.002000	0.000000	0.736000	0.000000	-1.000000	0.000000
-3.956000	0.000000	0.736000	0.000000	-1.000000	0.000000
-5.450484	0.000000	0.736000	-0.991006	0.000000	0.133819
4.002000	0.000000	0.736000	0.000000	-1.000000	0.000000
4.048000	0.000000	0.736000	0.000000	-1.000000	0.000000
4.094000	0.000000	0.736000	0.000000	-1.000000	0.000000
4.140000	0.000000	0.736000	0.000000	-1.000000	0.000000
4.186000	0.000000	0.736000	0.000000	-1.000000	0.000000
4.232000	0.000000	0.736000	0.000000	-1.000000	0.000000
4.278000	0.000000	0.736000	0.000000	-1.000000	0.000000
4.324000	0.000000	0.736000	0.000000	-1.000000	0.000000
4.370000	0.000000	0.736000	0.000000	-1.000000	0.000000
4.416000	0.000000	0.736000	0.000000	-1.000000	0.000000
4.462000	0.000000	0.736000	0.000000	-1.000000	0.000000
4.508000	0.000000	0.736000	0.000000	-1.000000	0.000000
4.554000	0.000000	0.736000	0.000000	-1.000000	0.000000
4.600000	0.000000	0.736000	0.000000	-1.000000	0.000000
4.646000	0.000000	0.736000	0.000000	-1.000000	0.000000
4.692000	0.000000	0.736000	0.000000	-1.000000	0.000000
4.738000	0.000000	0.736000	0.000000	-1.000000	0.000000
4.784000	0.000000	0.736000	0.000000	-1.000000	0.000000
4.830000	0.000000	0.736000	0.000000	-1.000000	0.000000
4.876000	0.000000	0.736000	0.000000	-1.000000	0.000000
5.450484	0.000000	0.736000	0.991006	0.000000	0.133819
5.447538	0.409091	0.757847	0.990461	0.000000	0.137790
5.447538	0.090909	0.757847	0.990461	0.000000	0.137790
5.447538	0.136364	0.757847	0.990461	0.000000	0.137790
5.447538	0.181818	0.757847	0.990461	0.000000	0.137790
5.447538	0.227273	0.757847	0.990461	0.000000	0.137790
5.447538	0.272727	0.757847	0.990461	0.000000	0.137790
5.447538	0.318182	0.757847	0.990461	0.000000	0.137790
5.447538	0.363636	0.757847	0.990461	0.000000	0.137790
5.447538	0.454545	0.757847	0.990461	0.000000	0.137790
5.447538	0.500000	0.757847	0.990461	0.000000	0.137790
5.447538	-0.000000	0.757847	0.990461	0.000000	0.137790
5.447538	0.045455	0.757847	0.990461	0.000000	0.137790
-5.447538	-0.000000	0.757847	-0.990461	0.000000	0.137790
-5.447538	0.045455	0.757847	-0.990461	0.000000	0.137790
-5.447538	0.090909	0.757847	-0.990461	0.000000	0.137790
-5.447538	0.136364	0.757847	-0.990461	0.000000	0.137790
-5.447538	0.181818	0.757847	-0.990461	0.000000	0.137790
-5.447538	0.227273	0.757847	-0.990461	0.000000	0.137790
-5.447538	0.272727	0.757847	-0.990461	0.000000	0.137790
-5.447538	0.318182	0.757847	-0.990461	0.000000	0.137790
-5.447538	0.363636	0.757847	-0.990461	0.000000	0.137790
-5.447538	0.409091	0.757847	-0.990461	0.000000	0.137790
-5.447538	0.454545	0.757847	-0.990461	0.000000	0.137790
-5.447538	0.500000	0.757847	-0.990461	0.000000	0.137790
3.922703	0.000000	0.782000	0.000000	-1.000000	0.000000
5.198000	0.000000	0.782000	0.000000	-1.000000	0.000000
5.152000	0.000000	0.782000	0.000000	-1.000000	0.000000
5.106000	0.000000	0.782000	0.000000	-1.000000	0.000000
5.060000	0.000000	0.782000	0.000000	-1.000000	0.000000
5.014000	0.000000	0.782000	0.000000	-1.000000	0.000000
4.968000	0.000000	0.782000	0.000000	-1.000000	0.000000
4.922000	0.000000	0.782000	0.000000	-1.000000	0.000000
4.876000	0.000000	0.782000	0.000000	-1.000000	0.000000
4.830000	0.000000	0.782000	0.000000	-1.000000	0.000000
4.784000	0.000000	0.782000	0.000000	-1.000000	0.000000
-5.444075	0.000000	0.782000	-0.989840	0.000000	0.142183
4.738000	0.000000	0.782000	0.000000	-1.000000	0.000000
4.232000	0.000000	0.782000	0.000000	-1.000000	0.000000
4.278000	0.000000	0.782000	0.000000	-1.000000	0.000000
4.324000	0.000000	0.782000	0.000000	-1.000000	0.000000
4.370000	0.000000	0.782000	0.000000	-1.000000	0.000000
4.416000	0.000000	0.782000	0.000000	-1.000000	0.000000
4.462000	0.000000	0.782000	0.000000	-1.000000	0.000000
4.508000	0.000000	0.782000	0.000000	-1.000000	0.000000
4.554000	0.000000	0.782000	0.000000	-1.000000	0.000000
4.600000	0.000000	0.782000	0.000000	-1.000000	0.000000
4.646000	0.000000	0.782000	0.000000	-1.000000	0.000000
4.692000	0.000000	0.782000	0.000000	-1.000000	0.000000
5.290000	0.000000	0.782000	0.000000	-1.000000	0.000000
-5.382000	0.000000	0.782000	0.000000	-1.000000	0.000000
-5.336000	0.000000	0.782000	0.000000	-1.000000	0.000000
-5.290000	0.000000	0.782000	0.000000	-1.000000	0.000000
-5.244000	0.000000	0.782000	0.000000	-1.000000	0.000000
3.956000	0.000000	0.782000	0.000000	-1.000000	0.000000
-3.922703	0.000000	0.782000	0.000000	-1.000000	0.000000
-5.014000	0.000000	0.782000	0.000000	-1.000000	0.000000
5.444075	0.000000	0.782000	0.989840	0.000000	0.142183
-5.428000	0.000000	0.782000	0.000000	-1.000000	0.000000
5.428000	0.000000	0.782000	0.000000	-1.000000	0.000000
5.382000	0.000000	0.782000	0.000000	-1.000000	0.000000
5.336000	0.000000	0.782000	0.000000	-1.000000	0.000000
-5.198000	0.000000	0.782000	0.000000	-1.000000	0.000000
-5.152000	0.000000	0.782000	0.000000	-1.000000	0.000000
-5.106000	0.000000	0.782000	0.000000	-1.000000	0.000000
-5.060000	0.000000	0.782000	0.000000	-1.000000	0.000000
-4.968000	0.000000	0.782000	0.000000	-1.000000	0.000000
-4.922000	0.000000	0.782000	0.000000	-1.000000	0.000000
-4.876000	0.000000	0.782000	0.000000	-1.000000	0.000000
-4.830000	0.000000	0.782000	0.000000	-1.000000	0.000000
-4.784000	0.000000	0.782000	0.000000	-1.000000	0.000000
-4.738000	0.000000	0.782000	0.000000	-1.000000	0.000000
-4.692000	0.000000	0.782000	0.000000	-1.000000	0.000000
-4.646000	0.000000	0.782000	0.000000	-1.000000	0.000000
-4.600000	0.000000	0.782000	0.000000	-1.000000	0.000000
-4.554000	0.000000	0.782000	0.000000	-1.000000	0.000000
-4.508000	0.000000	0.782000	0.000000	-1.000000	0.000000
-4.462000	0.000000	0.782000	0.000000	-1.000000	0.000000
-4.416000	0.000000	0.782000	0.000000	-1.000000	0.000000
-4.370000	0.000000	0.782000	0.000000	-1.000000	0.000000
-4.324000	0.000000	0.782000	0.000000	-1.000000	0.000000
-4.278000	0.000000	0.782000	0.000000	-1.000000	0.000000
-4.232000	0.000000	0.782000	0.000000	-1.000000	0.000000
-4.186000	0.000000	0.782000	0.000000	-1.000000	0.000000
-4.140000	0.000000	0.782000	0.000000	-1.000000	0.000000
-4.094000	0.000000	0.782000	0.000000	-1.000000	0.000000
-4.048000	0.000000	0.782000	0.000000	-1.000000	0.000000
-4.002000	0.000000	0.782000	0.000000	-1.000000	0.000000
-3.956000	0.000000	0.782000	0.000000	-1.000000	0.000000
5.244000	0.000000	0.782000	0.000000	-1.000000	0.000000
4.002000	0.000000	0.782000	0.000000	-1.000000	0.000000
4.048000	0.000000	0.782000	0.000000	-1.000000	0.000000
4.094000	0.000000	0.782000	0.000000	-1.000000	0.000000
4.140000	0.000000	0.782000	0.000000	-1.000000	0.000000
4.186000	0.000000	0.782000	0.000000	-1.000000	0.000000
-3.920486	0.000000	0.793592	0.000000	-1.000000	0.000000
3.920486	0.000000	0.793592	0.000000	-1.000000	0.000000
5.440998	0.363636	0.803457	0.989272	0.000000	0.146083
5.440998	0.409091	0.803457	0.989272	0.000000	0.146083
5.440998	0.454545	0.803457	0.989272	0.000000	0.146083
5.440998	0.500000	0.803457	0.989272	0.000000	0.146083
5.440998	-0.000000	0.803457	0.989272	0.000000	0.146083
5.440998	0.045455	0.803457	0.989272	0.000000	0.146083
5.440998	0.090909	0.803457	0.989272	0.000000	0.146083
5.440998	0.136364	0.803457	0.989272	0.000000	0.146083
5.440998	0.181818	0.803457	0.989272	0.000000	0.146083
5.440998	0.227273	0.803457	0.989272	0.000000	0.146083
5.440998	0.272727	0.803457	0.989272	0.000000	0.146083
5.440998	0.318182	0.803457	0.989272	0.000000	0.146083
-5.440998	-0.000000	0.803457	-0.989272	0.000000	0.146083
-5.440998	0.045455	0.803457	-0.989272	0.000000	0.146083
-5.440998	0.090909	0.803457	-0.989272	0.000000	0.146083
-5.440998	0.136364	0.803457	-0.989272	0.000000	0.146083
-5.440998	0.181818	0.803457	-0.989272	0.000000	0.146083
-5.440998	0.227273	0.803457	-0.989272	0.000000	0.146083
-5.440998	0.272727	0.803457	-0.989272	0.000000	0.146083
-5.440998	0.318182	0.803457	-0.989272	0.000000	0.146083
-5.440998	0.363636	0.803457	-0.989272	0.000000	0.146083
-5.440998	0.409091	0.803457	-0.989272	0.000000	0.146083
-5.440998	0.454545	0.803457	-0.989272	0.000000	0.146083
-5.440998	0.500000	0.803457	-0.989272	0.000000	0.146083
-4.324000	0.000000	0.828000	0.000000	-1.000000	0.000000
3.956000	0.000000	0.828000	0.000000	-1.000000	0.000000
-5.428000	0.000000	0.828000	0.000000	-1.000000	0.000000
5.428000	0.000000	0.828000	0.000000	-1.000000	0.000000
5.382000	0.000000	0.828000	0.000000	-1.000000	0.000000
5.336000	0.000000	0.828000	0.000000	-1.000000	0.000000
5.290000	0.000000	0.828000	0.000000	-1.000000	0.000000
-5.382000	0.000000	0.828000	0.000000	-1.000000	0.000000
-5.336000	0.000000	0.828000	0.000000	-1.000000	0.000000
-5.290000	0.000000	0.828000	0.000000	-1.000000	0.000000
5.244000	0.000000	0.828000	0.000000	-1.000000	0.000000
-3.913134	0.000000	0.828000	0.000000	-1.000000	0.000000
-4.416000	0.000000	0.828000	0.000000	-1.000000	0.000000
-5.244000	0.000000	0.828000	0.000000	-1.000000	0.000000
-4.278000	0.000000	0.828000	0.000000	-1.000000	0.000000
-5.198000	0.000000	0.828000	0.000000	-1.000000	0.000000
-4.232000	0.000000	0.828000	0.000000	-1.000000	0.000000
4.738000	0.000000	0.828000	0.000000	-1.000000	0.000000
-4.186000	0.000000	0.828000	0.000000	-1.000000	0.000000
-4.140000	0.000000	0.828000	0.000000	-1.000000	0.000000
-4.094000	0.000000	0.828000	0.000000	-1.000000	0.000000
-4.048000	0.000000	0.828000	0.000000	-1.000000	0.000000
-4.002000	0.000000	0.828000	0.000000	-1.000000	0.000000
-3.956000	0.000000	0.828000	0.000000	-1.000000	0.000000
4.002000	0.000000	0.828000	0.000000	-1.000000	0.000000
4.048000	0.000000	0.828000	0.000000	-1.000000	0.000000
4.094000	0.000000	0.828000	0.000000	-1.000000	0.000000
4.140000	0.000000	0.828000	0.000000	-1.000000	0.000000
4.186000	0.000000	0.828000	0.000000	-1.000000	0.000000
4.232000	0.000000	0.828000	0.000000	-1.000000	0.000000
4.278000	0.000000	0.828000	0.000000	-1.000000	0.000000
4.324000	0.000000	0.828000	0.000000	-1.000000	0.000000
4.370000	0.000000	0.828000	0.000000	-1.000000	0.000000
4.416000	0.000000	0.828000	0.000000	-1.000000	0.000000
4.462000	0.000000	0.828000	0.000000	-1.000000	0.000000
4.508000	0.000000	0.828000	0.000000	-1.000000	0.000000
4.554000	0.000000	0.828000	0.000000	-1.000000	0.000000
4.600000	0.000000	0.828000	0.000000	-1.000000	0.000000
4.646000	0.000000	0.828000	0.000000	-1.000000	0.000000
4.692000	0.000000	0.828000	0.000000	-1.000000	0.000000
-5.152000	0.000000	0.828000	0.000000	-1.000000	0.000000
4.784000	0.000000	0.828000	0.000000	-1.000000	0.000000
4.830000	0.000000	0.828000	0.000000	-1.000000	0.000000
4.876000	0.000000	0.828000	0.000000	-1.000000	0.000000
-5.106000	0.000000	0.828000	0.000000	-1.000000	0.000000
-5.060000	0.000000	0.828000	0.000000	-1.000000	0.000000
4.922000	0.000000	0.828000	0.000000	-1.000000	0.000000
-5.014000	0.000000	0.828000	0.000000	-1.000000	0.000000
4.968000	0.000000	0.828000	0.000000	-1.000000	0.000000
5.014000	0.000000	0.828000	0.000000	-1.000000	0.000000
5.060000	0.000000	0.828000	0.000000	-1.000000	0.000000
5.106000	0.000000	0.828000	0.000000	-1.000000	0.000000
5.152000	0.000000	0.828000	0.000000	-1.000000	0.000000
-4.968000	0.000000	0.828000	0.000000	-1.000000	0.000000
5.198000	0.000000	0.828000	0.000000	-1.000000	0.000000
-4.922000	0.000000	0.828000	0.000000	-1.000000	0.000000
-4.876000	0.000000	0.828000	0.000000	-1.000000	0.000000
-4.830000	0.000000	0.828000	0.000000	-1.000000	0.000000
-4.784000	0.000000	0.828000	0.000000	-1.000000	0.000000
-4.738000	0.000000	0.828000	0.000000	-1.000000	0.000000
-4.692000	0.000000	0.828000	0.000000	-1.000000	0.000000
-4.646000	0.000000	0.828000	0.000000	-1.000000	0.000000
-4.600000	0.000000	0.828000	0.000000	-1.000000	0.000000
-4.554000	0.000000	0.828000	0.000000	-1.000000	0.000000
-4.508000	0.000000	0.828000	0.000000	-1.000000	0.000000
-4.462000	0.000000	0.828000	0.000000	-1.000000	0.000000
-4.370000	0.000000	0.828000	0.000000	-1.000000	0.000000
5.437268	0.000000	0.828000	0.988603	0.000000	0.150547
-5.437268	0.000000	0.828000	-0.988603	0.000000	0.150547
3.913134	0.000000	0.828000	0.000000	-1.000000	0.000000
3.910000	0.000000	0.842665	0.000000	-1.000000	0.000000
-3.910000	0.000000	0.842665	0.000000	-1.000000	0.000000
5.434076	0.500000	0.849010	0.988014	0.000000	0.154366
5.434076	-0.000000	0.849010	0.988014	0.000000	0.154366
5.434076	0.045455	0.849010	0.988014	0.000000	0.154366
5.434076	0.090909	0.849010	0.988014	0.000000	0.154366
5.434076	0.136364	0.849010	0.988014	0.000000	0.154366
5.434076	0.227273	0.849010	0.988014	0.000000	0.154366
5.434076	0.272727	0.849010	0.988014	0.000000	0.154366
5.434076	0.318182	0.849010	0.988014	0.000000	0.154366
5.434076	0.363636	0.849010	0.988014	0.000000	0.154366
5.434076	0.409091	0.849010	0.988014	0.000000	0.154366
5.434076	0.181818	0.849010	0.988014	0.000000	0.154366
5.434076	0.454545	0.849010	0.988014	0.000000	0.154366
-5.434076	0.136364	0.849010	-0.988014	0.000000	0.154366
-5.434076	0.181818	0.849010	-0.988014	0.000000	0.154366
-5.434076	0.227273	0.849010	-0.988014	0.000000	0.154366
-5.434076	0.090909	0.849010	-0.988014	0.000000	0.154366
-5.434076	0.272727	0.849010	-0.988014	0.000000	0.154366
-5.434076	0.318182	0.849010	-0.988014	0.000000	0.154366
-5.434076	0.363636	0.849010	-0.988014	0.000000	0.154366
-5.434076	0.409091	0.849010	-0.988014	0.000000	0.154366
-5.434076	0.454545	0.849010	-0.988014	0.000000	0.154366
-5.434076	0.500000	0.849010	-0.988014	0.000000	0.154366
-5.434076	-0.000000	0.849010	-0.988014	0.000000	0.154366
-5.434076	0.045455	0.849010	-0.988014	0.000000	0.154366
-4.922000	0.000000	0.874000	0.000000	-1.000000	0.000000
-4.968000	0.000000	0.874000	0.000000	-1.000000	0.000000
-5.014000	0.000000	0.874000	0.000000	-1.000000	0.000000
-5.060000	0.000000	0.874000	0.000000	-1.000000	0.000000
3.956000	0.000000	0.874000	0.000000	-1.000000	0.000000
3.910000	0.000000	0.874000	0.000000	-1.000000	0.000000
-3.910000	0.000000	0.874000	0.000000	-1.000000	0.000000
-5.428000	0.000000	0.874000	0.000000	-1.000000	0.000000
-4.370000	0.000000	0.874000	0.000000	-1.000000	0.000000
-4.508000	0.000000	0.874000	0.000000	-1.000000	0.000000
-5.106000	0.000000	0.874000	0.000000	-1.000000	0.000000
-5.152000	0.000000	0.874000	0.000000	-1.000000	0.000000
-5.198000	0.000000	0.874000	0.000000	-1.000000	0.000000
-5.244000	0.000000	0.874000	0.000000	-1.000000	0.000000
-4.416000	0.000000	0.874000	0.000000	-1.000000	0.000000
-5.290000	0.000000	0.874000	0.000000	-1.000000	0.000000
-5.336000	0.000000	0.874000	0.000000	-1.000000	0.000000
-5.382000	0.000000	0.874000	0.000000	-1.000000	0.000000
-3.903304	0.000000	0.874000	0.000000	-1.000000	0.000000
-4.462000	0.000000	0.874000	0.000000	-1.000000	0.000000
-4.324000	0.000000	0.874000	0.000000	-1.000000	0.000000
-4.278000	0.000000	0.874000	0.000000	-1.000000	0.000000
-4.232000	0.000000	0.874000	0.000000	-1.000000	0.000000
-4.186000	0.000000	0.874000	0.000000	-1.000000	0.000000
-4.140000	0.000000	0.874000	0.000000	-1.000000	0.000000
-4.094000	0.000000	0.874000	0.000000	-1.000000	0.000000
-4.048000	0.000000	0.874000	0.000000	-1.000000	0.000000
-4.002000	0.000000	0.874000	0.000000	-1.000000	0.000000
-3.956000	0.000000	0.874000	0.000000	-1.000000	0.000000
4.600000	0.000000	0.874000	0.000000	-1.000000	0.000000
4.002000	0.000000	0.874000	0.000000	-1.000000	0.000000
4.048000	0.000000	0.874000	0.000000	-1.000000	0.000000
4.094000	0.000000	0.874000	0.000000	-1.000000	0.000000
4.140000	0.000000	0.874000	0.000000	-1.000000	0.000000
4.186000	0.000000	0.874000	0.000000	-1.000000	0.000000
4.232000	0.000000	0.874000	0.000000	-1.000000	0.000000
4.278000	0.000000	0.874000	0.000000	-1.000000	0.000000
4.324000	0.000000	0.874000	0.000000	-1.000000	0.000000
4.370000	0.000000	0.874000	0.000000	-1.000000	0.000000
4.416000	0.000000	0.874000	0.000000	-1.000000	0.000000
4.462000	0.000000	0.874000	0.000000	-1.000000	0.000000
4.508000	0.000000	0.874000	0.000000	-1.000000	0.000000
4.554000	0.000000	0.874000	0.000000	-1.000000	0.000000
4.646000	0.000000	0.874000	0.000000	-1.000000	0.000000
4.692000	0.000000	0.874000	0.000000	-1.000000	0.000000
4.738000	0.000000	0.874000	0.000000	-1.000000	0.000000
4.784000	0.000000	0.874000	0.000000	-1.000000	0.000000
4.830000	0.000000	0.874000	0.000000	-1.000000	0.000000
4.876000	0.000000	0.874000	0.000000	-1.000000	0.000000
4.922000	0.000000	0.874000	0.000000	-1.000000	0.000000
4.968000	0.000000	0.874000	0.000000	-1.000000	0.000000
5.014000	0.000000	0.874000	0.000000	-1.000000	0.000000
5.060000	0.000000	0.874000	0.000000	-1.000000	0.000000
5.106000	0.000000	0.874000	0.000000	-1.000000	0.000000
5.152000	0.000000	0.874000	0.000000	-1.000000	0.000000
5.198000	0.000000	0.874000	0.000000	-1.000000	0.000000
5.244000	0.000000	0.874000	0.000000	-1.000000	0.000000
5.290000	0.000000	0.874000	0.000000	-1.000000	0.000000
