3.558763	9.887096	-8.808247	0.374607	0.000000	-0.927184
3.558763	9.806452	-8.808247	0.374607	0.000000	-0.927184
3.558763	9.725806	-8.808247	0.374607	0.000000	-0.927184
3.558763	9.645162	-8.808247	0.374607	0.000000	-0.927184
3.558763	9.564516	-8.808247	0.374607	0.000000	-0.927184
3.558763	9.483871	-8.808247	0.374607	0.000000	-0.927184
3.558763	9.403226	-8.808247	0.374607	0.000000	-0.927184
3.563810	9.000000	-8.806182	0.375139	0.000000	-0.926969
-3.563810	9.000000	-8.806182	-0.375139	0.000000	-0.926969
-0.745914	9.000000	-8.785207	0.000000	-1.000000	0.000000
-0.663034	9.000000	-8.785207	0.000000	-1.000000	0.000000
-0.580155	9.000000	-8.785207	0.000000	-1.000000	0.000000
2.983655	9.000000	-8.785207	0.000000	-1.000000	0.000000
-3.398052	9.000000	-8.785207	0.000000	-1.000000	0.000000
-3.480931	9.000000	-8.785207	0.000000	-1.000000	0.000000
-3.563810	9.000000	-8.785207	0.000000	-1.000000	0.000000
3.398052	9.000000	-8.785207	0.000000	-1.000000	0.000000
3.315172	9.000000	-8.785207	0.000000	-1.000000	0.000000
-1.408948	9.000000	-8.785207	0.000000	-1.000000	0.000000
3.232293	9.000000	-8.785207	0.000000	-1.000000	0.000000
3.149414	9.000000	-8.785207	0.000000	-1.000000	0.000000
3.066535	9.000000	-8.785207	0.000000	-1.000000	0.000000
2.900776	9.000000	-8.785207	0.000000	-1.000000	0.000000
2.817897	9.000000	-8.785207	0.000000	-1.000000	0.000000
2.735017	9.000000	-8.785207	0.000000	-1.000000	0.000000
2.652138	9.000000	-8.785207	0.000000	-1.000000	0.000000
2.569259	9.000000	-8.785207	0.000000	-1.000000	0.000000
2.486379	9.000000	-8.785207	0.000000	-1.000000	0.000000
-3.232293	9.000000	-8.785207	0.000000	-1.000000	0.000000
2.403500	9.000000	-8.785207	0.000000	-1.000000	0.000000
2.320621	9.000000	-8.785207	0.000000	-1.000000	0.000000
2.237741	9.000000	-8.785207	0.000000	-1.000000	0.000000
2.154862	9.000000	-8.785207	0.000000	-1.000000	0.000000
2.071983	9.000000	-8.785207	0.000000	-1.000000	0.000000
1.989103	9.000000	-8.785207	0.000000	-1.000000	0.000000
1.906224	9.000000	-8.785207	0.000000	-1.000000	0.000000
1.823345	9.000000	-8.785207	0.000000	-1.000000	0.000000
1.657586	9.000000	-8.785207	0.000000	-1.000000	0.000000
1.574707	9.000000	-8.785207	0.000000	-1.000000	0.000000
1.491828	9.000000	-8.785207	0.000000	-1.000000	0.000000
1.408948	9.000000	-8.785207	0.000000	-1.000000	0.000000
1.326069	9.000000	-8.785207	0.000000	-1.000000	0.000000
1.243190	9.000000	-8.785207	0.000000	-1.000000	0.000000
1.160310	9.000000	-8.785207	0.000000	-1.000000	0.000000
0.082879	9.000000	-8.785207	0.000000	-1.000000	0.000000
1.077431	9.000000	-8.785207	0.000000	-1.000000	0.000000
0.994552	9.000000	-8.785207	0.000000	-1.000000	0.000000
0.911672	9.000000	-8.785207	0.000000	-1.000000	0.000000
0.828793	9.000000	-8.785207	0.000000	-1.000000	0.000000
0.745914	9.000000	-8.785207	0.000000	-1.000000	0.000000
0.663034	9.000000	-8.785207	0.000000	-1.000000	0.000000
0.580155	9.000000	-8.785207	0.000000	-1.000000	0.000000
0.497276	9.000000	-8.785207	0.000000	-1.000000	0.000000
-0.497276	9.000000	-8.785207	0.000000	-1.000000	0.000000
-0.414397	9.000000	-8.785207	0.000000	-1.000000	0.000000
-0.331517	9.000000	-8.785207	0.000000	-1.000000	0.000000
-0.248638	9.000000	-8.785207	0.000000	-1.000000	0.000000
-0.165759	9.000000	-8.785207	0.000000	-1.000000	0.000000
-0.082879	9.000000	-8.785207	0.000000	-1.000000	0.000000
-0.000000	9.000000	-8.785207	0.000000	-1.000000	0.000000
-1.491828	9.000000	-8.785207	0.000000	-1.000000	0.000000
-1.574707	9.000000	-8.785207	0.000000	-1.000000	0.000000
0.414397	9.000000	-8.785207	0.000000	-1.000000	0.000000
0.331517	9.000000	-8.785207	0.000000	-1.000000	0.000000
0.248638	9.000000	-8.785207	0.000000	-1.000000	0.000000
0.165759	9.000000	-8.785207	0.000000	-1.000000	0.000000
-1.657586	9.000000	-8.785207	0.000000	-1.000000	0.000000
-1.740466	9.000000	-8.785207	0.000000	-1.000000	0.000000
-1.823345	9.000000	-8.785207	0.000000	-1.000000	0.000000
-1.906224	9.000000	-8.785207	0.000000	-1.000000	0.000000
-1.989103	9.000000	-8.785207	0.000000	-1.000000	0.000000
-2.071983	9.000000	-8.785207	0.000000	-1.000000	0.000000
-2.154862	9.000000	-8.785207	0.000000	-1.000000	0.000000
-2.237741	9.000000	-8.785207	0.000000	-1.000000	0.000000
-2.320621	9.000000	-8.785207	0.000000	-1.000000	0.000000
-2.403500	9.000000	-8.785207	0.000000	-1.000000	0.000000
-2.486379	9.000000	-8.785207	0.000000	-1.000000	0.000000
-2.569259	9.000000	-8.785207	0.000000	-1.000000	0.000000
-2.652138	9.000000	-8.785207	0.000000	-1.000000	0.000000
-2.735017	9.000000	-8.785207	0.000000	-1.000000	0.000000
-2.817897	9.000000	-8.785207	0.000000	-1.000000	0.000000
-2.900776	9.000000	-8.785207	0.000000	-1.000000	0.000000
-2.983655	9.000000	-8.785207	0.000000	-1.000000	0.000000
-3.066535	9.000000	-8.785207	0.000000	-1.000000	0.000000
-3.149414	9.000000	-8.785207	0.000000	-1.000000	0.000000
1.740466	9.000000	-8.785207	0.000000	-1.000000	0.000000
-3.315172	9.000000	-8.785207	0.000000	-1.000000	0.000000
-3.615079	9.000000	-8.785207	-0.380537	0.000000	-0.924765
3.563810	9.000000	-8.785207	0.000000	-1.000000	0.000000
3.480931	9.000000	-8.785207	0.000000	-1.000000	0.000000
3.615079	9.000000	-8.785207	0.380537	0.000000	-0.924765
-1.326069	9.000000	-8.785207	0.000000	-1.000000	0.000000
-1.243190	9.000000	-8.785207	0.000000	-1.000000	0.000000
-1.160310	9.000000	-8.785207	0.000000	-1.000000	0.000000
-1.077431	9.000000	-8.785207	0.000000	-1.000000	0.000000
-0.994552	9.000000	-8.785207	0.000000	-1.000000	0.000000
-0.911672	9.000000	-8.785207	0.000000	-1.000000	0.000000
-0.828793	9.000000	-8.785207	0.000000	-1.000000	0.000000
3.635493	11.016129	-8.776855	0.382683	0.000000	-0.923880
3.635493	10.451612	-8.776855	0.382683	0.000000	-0.923880
3.635493	10.532258	-8.776855	0.382683	0.000000	-0.923880
3.635493	10.612904	-8.776855	0.382683	0.000000	-0.923880
3.635493	10.693548	-8.776855	0.382683	0.000000	-0.923880
3.635493	10.774194	-8.776855	0.382683	0.000000	-0.923880
3.635493	10.854838	-8.776855	0.382683	0.000000	-0.923880
3.635493	10.935484	-8.776855	0.382683	0.000000	-0.923880
3.635493	9.080646	-8.776855	0.382683	0.000000	-0.923880
3.635493	11.096774	-8.776855	0.382683	0.000000	-0.923880
3.635493	11.177420	-8.776855	0.382683	0.000000	-0.923880
3.635493	11.258064	-8.776855	0.382683	0.000000	-0.923880
3.635493	11.338710	-8.776855	0.382683	0.000000	-0.923880
3.635493	11.419354	-8.776855	0.382683	0.000000	-0.923880
3.635493	9.806452	-8.776855	0.382683	0.000000	-0.923880
3.635493	9.887096	-8.776855	0.382683	0.000000	-0.923880
3.635493	9.967742	-8.776855	0.382683	0.000000	-0.923880
3.635493	10.048388	-8.776855	0.382683	0.000000	-0.923880
3.635493	10.129032	-8.776855	0.382683	0.000000	-0.923880
3.635493	10.209678	-8.776855	0.382683	0.000000	-0.923880
3.635493	10.290322	-8.776855	0.382683	0.000000	-0.923880
3.635493	10.370968	-8.776855	0.382683	0.000000	-0.923880
3.635493	11.500000	-8.776855	0.382683	0.000000	-0.923880
3.635493	9.000000	-8.776855	0.382683	0.000000	-0.923880
3.635493	9.161290	-8.776855	0.382683	0.000000	-0.923880
3.635493	9.241936	-8.776855	0.382683	0.000000	-0.923880
3.635493	9.322580	-8.776855	0.382683	0.000000	-0.923880
3.635493	9.403226	-8.776855	0.382683	0.000000	-0.923880
3.635493	9.483871	-8.776855	0.382683	0.000000	-0.923880
3.635493	9.564516	-8.776855	0.382683	0.000000	-0.923880
3.635493	9.645162	-8.776855	0.382683	0.000000	-0.923880
3.635493	9.725806	-8.776855	0.382683	0.000000	-0.923880
-3.635493	9.645162	-8.776855	-0.382683	0.000000	-0.923880
-3.635493	9.564516	-8.776855	-0.382683	0.000000	-0.923880
-3.635493	9.403226	-8.776855	-0.382683	0.000000	-0.923880
-3.635493	9.322580	-8.776855	-0.382683	0.000000	-0.923880
-3.635493	9.241936	-8.776855	-0.382683	0.000000	-0.923880
-3.635493	9.161290	-8.776855	-0.382683	0.000000	-0.923880
-3.635493	9.080646	-8.776855	-0.382683	0.000000	-0.923880
-3.635493	9.000000	-8.776855	-0.382683	0.000000	-0.923880
-3.635493	9.483871	-8.776855	-0.382683	0.000000	-0.923880
-3.635493	11.500000	-8.776855	-0.382683	0.000000	-0.923880
-3.635493	11.419354	-8.776855	-0.382683	0.000000	-0.923880
-3.635493	11.338710	-8.776855	-0.382683	0.000000	-0.923880
-3.635493	11.258064	-8.776855	-0.382683	0.000000	-0.923880
-3.635493	10.854838	-8.776855	-0.382683	0.000000	-0.923880
-3.635493	11.177420	-8.776855	-0.382683	0.000000	-0.923880
-3.635493	11.096774	-8.776855	-0.382683	0.000000	-0.923880
-3.635493	11.016129	-8.776855	-0.382683	0.000000	-0.923880
-3.635493	10.935484	-8.776855	-0.382683	0.000000	-0.923880
-3.635493	10.774194	-8.776855	-0.382683	0.000000	-0.923880
-3.635493	10.693548	-8.776855	-0.382683	0.000000	-0.923880
-3.635493	10.612904	-8.776855	-0.382683	0.000000	-0.923880
-3.635493	10.532258	-8.776855	-0.382683	0.000000	-0.923880
-3.635493	10.451612	-8.776855	-0.382683	0.000000	-0.923880
-3.635493	10.209678	-8.776855	-0.382683	0.000000	-0.923880
-3.635493	10.370968	-8.776855	-0.382683	0.000000	-0.923880
-3.635493	10.290322	-8.776855	-0.382683	0.000000	-0.923880
-3.635493	10.129032	-8.776855	-0.382683	0.000000	-0.923880
-3.635493	10.048388	-8.776855	-0.382683	0.000000	-0.923880
-3.635493	9.967742	-8.776855	-0.382683	0.000000	-0.923880
-3.635493	9.887096	-8.776855	-0.382683	0.000000	-0.923880
-3.635493	9.806452	-8.776855	-0.382683	0.000000	-0.923880
-3.635493	9.725806	-8.776855	-0.382683	0.000000	-0.923880
3.646690	9.000000	-8.772161	0.383864	0.000000	-0.923390
-3.646690	9.000000	-8.772161	-0.383864	0.000000	-0.923390
-3.711946	11.500000	-8.744796	-0.390731	0.000000	-0.920505
-3.711946	11.419354	-8.744796	-0.390731	0.000000	-0.920505
-3.711946	11.338710	-8.744796	-0.390731	0.000000	-0.920505
-3.711946	11.258064	-8.744796	-0.390731	0.000000	-0.920505
-3.711946	11.177420	-8.744796	-0.390731	0.000000	-0.920505
-3.711946	11.096774	-8.744796	-0.390731	0.000000	-0.920505
-3.711946	11.016129	-8.744796	-0.390731	0.000000	-0.920505
-3.711946	10.935484	-8.744796	-0.390731	0.000000	-0.920505
-3.711946	10.854838	-8.744796	-0.390731	0.000000	-0.920505
-3.711946	10.774194	-8.744796	-0.390731	0.000000	-0.920505
-3.711946	10.693548	-8.744796	-0.390731	0.000000	-0.920505
-3.711946	10.612904	-8.744796	-0.390731	0.000000	-0.920505
-3.711946	10.532258	-8.744796	-0.390731	0.000000	-0.920505
-3.711946	10.451612	-8.744796	-0.390731	0.000000	-0.920505
-3.711946	10.370968	-8.744796	-0.390731	0.000000	-0.920505
-3.711946	10.290322	-8.744796	-0.390731	0.000000	-0.920505
-3.711946	10.209678	-8.744796	-0.390731	0.000000	-0.920505
-3.711946	10.129032	-8.744796	-0.390731	0.000000	-0.920505
3.711946	9.322580	-8.744796	0.390731	0.000000	-0.920505
-3.711946	10.048388	-8.744796	-0.390731	0.000000	-0.920505
3.711946	9.403226	-8.744796	0.390731	0.000000	-0.920505
3.711946	9.483871	-8.744796	0.390731	0.000000	-0.920505
3.711946	9.564516	-8.744796	0.390731	0.000000	-0.920505
-3.711946	9.967742	-8.744796	-0.390731	0.000000	-0.920505
3.711946	9.645162	-8.744796	0.390731	0.000000	-0.920505
-3.711946	9.887096	-8.744796	-0.390731	0.000000	-0.920505
3.711946	9.725806	-8.744796	0.390731	0.000000	-0.920505
-3.711946	9.806452	-8.744796	-0.390731	0.000000	-0.920505
3.711946	9.806452	-8.744796	0.390731	0.000000	-0.920505
3.711946	9.887096	-8.744796	0.390731	0.000000	-0.920505
3.711946	9.967742	-8.744796	0.390731	0.000000	-0.920505
3.711946	10.048388	-8.744796	0.390731	0.000000	-0.920505
3.711946	10.129032	-8.744796	0.390731	0.000000	-0.920505
3.711946	10.209678	-8.744796	0.390731	0.000000	-0.920505
3.711946	10.290322	-8.744796	0.390731	0.000000	-0.920505
3.711946	10.370968	-8.744796	0.390731	0.000000	-0.920505
3.711946	10.451612	-8.744796	0.390731	0.000000	-0.920505
3.711946	10.532258	-8.744796	0.390731	0.000000	-0.920505
3.711946	10.612904	-8.744796	0.390731	0.000000	-0.920505
3.711946	10.693548	-8.744796	0.390731	0.000000	-0.920505
3.711946	10.774194	-8.744796	0.390731	0.000000	-0.920505
3.711946	10.854838	-8.744796	0.390731	0.000000	-0.920505
3.711946	10.935484	-8.744796	0.390731	0.000000	-0.920505
3.711946	11.016129	-8.744796	0.390731	0.000000	-0.920505
3.711946	11.096774	-8.744796	0.390731	0.000000	-0.920505
3.711946	11.177420	-8.744796	0.390731	0.000000	-0.920505
3.711946	11.258064	-8.744796	0.390731	0.000000	-0.920505
3.711946	11.338710	-8.744796	0.390731	0.000000	-0.920505
3.711946	11.419354	-8.744796	0.390731	0.000000	-0.920505
3.711946	11.500000	-8.744796	0.390731	0.000000	-0.920505
-3.711946	9.725806	-8.744796	-0.390731	0.000000	-0.920505
3.711946	9.000000	-8.744796	0.390731	0.000000	-0.920505
3.711946	9.080646	-8.744796	0.390731	0.000000	-0.920505
-3.711946	9.645162	-8.744796	-0.390731	0.000000	-0.920505
-3.711946	9.564516	-8.744796	-0.390731	0.000000	-0.920505
-3.711946	9.483871	-8.744796	-0.390731	0.000000	-0.920505
-3.711946	9.403226	-8.744796	-0.390731	0.000000	-0.920505
-3.711946	9.322580	-8.744796	-0.390731	0.000000	-0.920505
-3.711946	9.241936	-8.744796	-0.390731	0.000000	-0.920505
-3.711946	9.161290	-8.744796	-0.390731	0.000000	-0.920505
-3.711946	9.080646	-8.744796	-0.390731	0.000000	-0.920505
-3.711946	9.000000	-8.744796	-0.390731	0.000000	-0.920505
3.711946	9.161290	-8.744796	0.390731	0.000000	-0.920505
3.711946	9.241936	-8.744796	0.390731	0.000000	-0.920505
3.729569	9.000000	-8.737225	0.392589	0.000000	-0.919714
-3.729569	9.000000	-8.737225	-0.392589	0.000000	-0.919714
3.788116	10.451612	-8.712070	0.398749	0.000000	-0.917060
3.788116	10.370968	-8.712070	0.398749	0.000000	-0.917060
3.788116	10.290322	-8.712070	0.398749	0.000000	-0.917060
3.788116	10.209678	-8.712070	0.398749	0.000000	-0.917060
3.788116	10.129032	-8.712070	0.398749	0.000000	-0.917060
3.788116	11.096774	-8.712070	0.398749	0.000000	-0.917060
3.788116	9.887096	-8.712070	0.398749	0.000000	-0.917060
3.788116	10.693548	-8.712070	0.398749	0.000000	-0.917060
3.788116	10.048388	-8.712070	0.398749	0.000000	-0.917060
3.788116	10.612904	-8.712070	0.398749	0.000000	-0.917060
3.788116	9.806452	-8.712070	0.398749	0.000000	-0.917060
3.788116	9.725806	-8.712070	0.398749	0.000000	-0.917060
3.788116	9.645162	-8.712070	0.398749	0.000000	-0.917060
3.788116	9.564516	-8.712070	0.398749	0.000000	-0.917060
3.788116	9.483871	-8.712070	0.398749	0.000000	-0.917060
3.788116	9.403226	-8.712070	0.398749	0.000000	-0.917060
3.788116	9.322580	-8.712070	0.398749	0.000000	-0.917060
3.788116	9.241936	-8.712070	0.398749	0.000000	-0.917060
3.788116	9.161290	-8.712070	0.398749	0.000000	-0.917060
3.788116	9.080646	-8.712070	0.398749	0.000000	-0.917060
3.788116	9.000000	-8.712070	0.398749	0.000000	-0.917060
3.788116	9.967742	-8.712070	0.398749	0.000000	-0.917060
3.788116	10.532258	-8.712070	0.398749	0.000000	-0.917060
3.788116	11.338710	-8.712070	0.398749	0.000000	-0.917060
3.788116	11.419354	-8.712070	0.398749	0.000000	-0.917060
3.788116	11.500000	-8.712070	0.398749	0.000000	-0.917060
3.788116	11.016129	-8.712070	0.398749	0.000000	-0.917060
3.788116	11.177420	-8.712070	0.398749	0.000000	-0.917060
3.788116	10.935484	-8.712070	0.398749	0.000000	-0.917060
3.788116	10.854838	-8.712070	0.398749	0.000000	-0.917060
3.788116	10.774194	-8.712070	0.398749	0.000000	-0.917060
3.788116	11.258064	-8.712070	0.398749	0.000000	-0.917060
-3.788116	11.338710	-8.712070	-0.398749	0.000000	-0.917060
-3.788116	11.258064	-8.712070	-0.398749	0.000000	-0.917060
-3.788116	11.177420	-8.712070	-0.398749	0.000000	-0.917060
-3.788116	11.096774	-8.712070	-0.398749	0.000000	-0.917060
-3.788116	11.016129	-8.712070	-0.398749	0.000000	-0.917060
-3.788116	10.935484	-8.712070	-0.398749	0.000000	-0.917060
-3.788116	10.854838	-8.712070	-0.398749	0.000000	-0.917060
-3.788116	10.774194	-8.712070	-0.398749	0.000000	-0.917060
-3.788116	10.612904	-8.712070	-0.398749	0.000000	-0.917060
-3.788116	10.532258	-8.712070	-0.398749	0.000000	-0.917060
-3.788116	10.451612	-8.712070	-0.398749	0.000000	-0.917060
-3.788116	10.370968	-8.712070	-0.398749	0.000000	-0.917060
-3.788116	10.290322	-8.712070	-0.398749	0.000000	-0.917060
-3.788116	10.209678	-8.712070	-0.398749	0.000000	-0.917060
-3.788116	10.129032	-8.712070	-0.398749	0.000000	-0.917060
-3.788116	10.048388	-8.712070	-0.398749	0.000000	-0.917060
-3.788116	9.967742	-8.712070	-0.398749	0.000000	-0.917060
-3.788116	9.887096	-8.712070	-0.398749	0.000000	-0.917060
-3.788116	9.806452	-8.712070	-0.398749	0.000000	-0.917060
-3.788116	9.725806	-8.712070	-0.398749	0.000000	-0.917060
-3.788116	9.645162	-8.712070	-0.398749	0.000000	-0.917060
-3.788116	10.693548	-8.712070	-0.398749	0.000000	-0.917060
-3.788116	11.500000	-8.712070	-0.398749	0.000000	-0.917060
-3.788116	9.564516	-8.712070	-0.398749	0.000000	-0.917060
-3.788116	9.483871	-8.712070	-0.398749	0.000000	-0.917060
-3.788116	9.403226	-8.712070	-0.398749	0.000000	-0.917060
-3.788116	11.419354	-8.712070	-0.398749	0.000000	-0.917060
-3.788116	9.241936	-8.712070	-0.398749	0.000000	-0.917060
-3.788116	9.161290	-8.712070	-0.398749	0.000000	-0.917060
-3.788116	9.080646	-8.712070	-0.398749	0.000000	-0.917060
-3.788116	9.000000	-8.712070	-0.398749	0.000000	-0.917060
-3.788116	9.322580	-8.712070	-0.398749	0.000000	-0.917060
-2.569259	9.000000	-8.702328	0.000000	-1.000000	0.000000
-2.652138	9.000000	-8.702328	0.000000	-1.000000	0.000000
-2.735017	9.000000	-8.702328	0.000000	-1.000000	0.000000
-2.817897	9.000000	-8.702328	0.000000	-1.000000	0.000000
-2.900776	9.000000	-8.702328	0.000000	-1.000000	0.000000
-2.983655	9.000000	-8.702328	0.000000	-1.000000	0.000000
-3.066535	9.000000	-8.702328	0.000000	-1.000000	0.000000
-3.232293	9.000000	-8.702328	0.000000	-1.000000	0.000000
-3.315172	9.000000	-8.702328	0.000000	-1.000000	0.000000
-3.398052	9.000000	-8.702328	0.000000	-1.000000	0.000000
-1.160310	9.000000	-8.702328	0.000000	-1.000000	0.000000
-3.149414	9.000000	-8.702328	0.000000	-1.000000	0.000000
-3.480931	9.000000	-8.702328	0.000000	-1.000000	0.000000
-3.810259	9.000000	-8.702328	-0.401083	0.000000	-0.916042
-1.077431	9.000000	-8.702328	0.000000	-1.000000	0.000000
3.729569	9.000000	-8.702328	0.000000	-1.000000	0.000000
3.646690	9.000000	-8.702328	0.000000	-1.000000	0.000000
-3.563810	9.000000	-8.702328	0.000000	-1.000000	0.000000
-3.646690	9.000000	-8.702328	0.000000	-1.000000	0.000000
-3.729569	9.000000	-8.702328	0.000000	-1.000000	0.000000
3.563810	9.000000	-8.702328	0.000000	-1.000000	0.000000
3.480931	9.000000	-8.702328	0.000000	-1.000000	0.000000
3.398052	9.000000	-8.702328	0.000000	-1.000000	0.000000
3.315172	9.000000	-8.702328	0.000000	-1.000000	0.000000
3.232293	9.000000	-8.702328	0.000000	-1.000000	0.000000
3.149414	9.000000	-8.702328	0.000000	-1.000000	0.000000
3.066535	9.000000	-8.702328	0.000000	-1.000000	0.000000
2.983655	9.000000	-8.702328	0.000000	-1.000000	0.000000
2.900776	9.000000	-8.702328	0.000000	-1.000000	0.000000
2.817897	9.000000	-8.702328	0.000000	-1.000000	0.000000
2.735017	9.000000	-8.702328	0.000000	-1.000000	0.000000
2.652138	9.000000	-8.702328	0.000000	-1.000000	0.000000
2.569259	9.000000	-8.702328	0.000000	-1.000000	0.000000
3.810259	9.000000	-8.702328	0.401083	0.000000	-0.916042
2.486379	9.000000	-8.702328	0.000000	-1.000000	0.000000
2.403500	9.000000	-8.702328	0.000000	-1.000000	0.000000
2.320621	9.000000	-8.702328	0.000000	-1.000000	0.000000
2.237741	9.000000	-8.702328	0.000000	-1.000000	0.000000
2.154862	9.000000	-8.702328	0.000000	-1.000000	0.000000
2.071983	9.000000	-8.702328	0.000000	-1.000000	0.000000
1.989103	9.000000	-8.702328	0.000000	-1.000000	0.000000
1.906224	9.000000	-8.702328	0.000000	-1.000000	0.000000
1.823345	9.000000	-8.702328	0.000000	-1.000000	0.000000
1.740466	9.000000	-8.702328	0.000000	-1.000000	0.000000
1.657586	9.000000	-8.702328	0.000000	-1.000000	0.000000
1.574707	9.000000	-8.702328	0.000000	-1.000000	0.000000
1.491828	9.000000	-8.702328	0.000000	-1.000000	0.000000
1.408948	9.000000	-8.702328	0.000000	-1.000000	0.000000
1.326069	9.000000	-8.702328	0.000000	-1.000000	0.000000
1.243190	9.000000	-8.702328	0.000000	-1.000000	0.000000
1.160310	9.000000	-8.702328	0.000000	-1.000000	0.000000
1.077431	9.000000	-8.702328	0.000000	-1.000000	0.000000
0.994552	9.000000	-8.702328	0.000000	-1.000000	0.000000
0.911672	9.000000	-8.702328	0.000000	-1.000000	0.000000
0.828793	9.000000	-8.702328	0.000000	-1.000000	0.000000
0.745914	9.000000	-8.702328	0.000000	-1.000000	0.000000
0.663034	9.000000	-8.702328	0.000000	-1.000000	0.000000
0.580155	9.000000	-8.702328	0.000000	-1.000000	0.000000
0.497276	9.000000	-8.702328	0.000000	-1.000000	0.000000
0.414397	9.000000	-8.702328	0.000000	-1.000000	0.000000
0.331517	9.000000	-8.702328	0.000000	-1.000000	0.000000
0.248638	9.000000	-8.702328	0.000000	-1.000000	0.000000
0.165759	9.000000	-8.702328	0.000000	-1.000000	0.000000
0.082879	9.000000	-8.702328	0.000000	-1.000000	0.000000
-0.000000	9.000000	-8.702328	0.000000	-1.000000	0.000000
-0.082879	9.000000	-8.702328	0.000000	-1.000000	0.000000
-0.165759	9.000000	-8.702328	0.000000	-1.000000	0.000000
-0.248638	9.000000	-8.702328	0.000000	-1.000000	0.000000
-0.331517	9.000000	-8.702328	0.000000	-1.000000	0.000000
-0.414397	9.000000	-8.702328	0.000000	-1.000000	0.000000
-0.497276	9.000000	-8.702328	0.000000	-1.000000	0.000000
-0.580155	9.000000	-8.702328	0.000000	-1.000000	0.000000
-0.663034	9.000000	-8.702328	0.000000	-1.000000	0.000000
-0.745914	9.000000	-8.702328	0.000000	-1.000000	0.000000
-0.828793	9.000000	-8.702328	0.000000	-1.000000	0.000000
-0.911672	9.000000	-8.702328	0.000000	-1.000000	0.000000
-0.994552	9.000000	-8.702328	0.000000	-1.000000	0.000000
-1.243190	9.000000	-8.702328	0.000000	-1.000000	0.000000
-1.326069	9.000000	-8.702328	0.000000	-1.000000	0.000000
-1.408948	9.000000	-8.702328	0.000000	-1.000000	0.000000
-1.491828	9.000000	-8.702328	0.000000	-1.000000	0.000000
-1.574707	9.000000	-8.702328	0.000000	-1.000000	0.000000
-1.657586	9.000000	-8.702328	0.000000	-1.000000	0.000000
-1.740466	9.000000	-8.702328	0.000000	-1.000000	0.000000
-1.823345	9.000000	-8.702328	0.000000	-1.000000	0.000000
-1.906224	9.000000	-8.702328	0.000000	-1.000000	0.000000
-1.989103	9.000000	-8.702328	0.000000	-1.000000	0.000000
-2.071983	9.000000	-8.702328	0.000000	-1.000000	0.000000
-2.154862	9.000000	-8.702328	0.000000	-1.000000	0.000000
-2.237741	9.000000	-8.702328	0.000000	-1.000000	0.000000
-2.320621	9.000000	-8.702328	0.000000	-1.000000	0.000000
-2.403500	9.000000	-8.702328	0.000000	-1.000000	0.000000
-2.486379	9.000000	-8.702328	0.000000	-1.000000	0.000000
3.812448	9.000000	-8.701365	0.401314	0.000000	-0.915941
-3.812448	9.000000	-8.701365	-0.401314	0.000000	-0.915941
-3.863998	9.967742	-8.678681	-0.406737	0.000000	-0.913545
-3.863998	9.887096	-8.678681	-0.406737	0.000000	-0.913545
-3.863998	9.806452	-8.678681	-0.406737	0.000000	-0.913545
-3.863998	9.725806	-8.678681	-0.406737	0.000000	-0.913545
-3.863998	9.645162	-8.678681	-0.406737	0.000000	-0.913545
-3.863998	9.564516	-8.678681	-0.406737	0.000000	-0.913545
-3.863998	9.483871	-8.678681	-0.406737	0.000000	-0.913545
-3.863998	9.403226	-8.678681	-0.406737	0.000000	-0.913545
-3.863998	9.322580	-8.678681	-0.406737	0.000000	-0.913545
-3.863998	9.241936	-8.678681	-0.406737	0.000000	-0.913545
-3.863998	9.161290	-8.678681	-0.406737	0.000000	-0.913545
-3.863998	9.080646	-8.678681	-0.406737	0.000000	-0.913545
-3.863998	9.000000	-8.678681	-0.406737	0.000000	-0.913545
-3.863998	10.048388	-8.678681	-0.406737	0.000000	-0.913545
-3.863998	11.338710	-8.678681	-0.406737	0.000000	-0.913545
-3.863998	11.500000	-8.678681	-0.406737	0.000000	-0.913545
-3.863998	11.419354	-8.678681	-0.406737	0.000000	-0.913545
-3.863998	10.209678	-8.678681	-0.406737	0.000000	-0.913545
-3.863998	11.258064	-8.678681	-0.406737	0.000000	-0.913545
-3.863998	11.177420	-8.678681	-0.406737	0.000000	-0.913545
-3.863998	11.096774	-8.678681	-0.406737	0.000000	-0.913545
-3.863998	11.016129	-8.678681	-0.406737	0.000000	-0.913545
-3.863998	10.129032	-8.678681	-0.406737	0.000000	-0.913545
-3.863998	10.935484	-8.678681	-0.406737	0.000000	-0.913545
-3.863998	10.854838	-8.678681	-0.406737	0.000000	-0.913545
-3.863998	10.774194	-8.678681	-0.406737	0.000000	-0.913545
-3.863998	10.693548	-8.678681	-0.406737	0.000000	-0.913545
-3.863998	10.612904	-8.678681	-0.406737	0.000000	-0.913545
-3.863998	10.532258	-8.678681	-0.406737	0.000000	-0.913545
-3.863998	10.451612	-8.678681	-0.406737	0.000000	-0.913545
-3.863998	10.370968	-8.678681	-0.406737	0.000000	-0.913545
-3.863998	10.290322	-8.678681	-0.406737	0.000000	-0.913545
3.863998	11.419354	-8.678681	0.406737	0.000000	-0.913545
3.863998	11.338710	-8.678681	0.406737	0.000000	-0.913545
3.863998	11.258064	-8.678681	0.406737	0.000000	-0.913545
3.863998	11.177420	-8.678681	0.406737	0.000000	-0.913545
3.863998	11.096774	-8.678681	0.406737	0.000000	-0.913545
3.863998	11.016129	-8.678681	0.406737	0.000000	-0.913545
3.863998	10.935484	-8.678681	0.406737	0.000000	-0.913545
3.863998	10.854838	-8.678681	0.406737	0.000000	-0.913545
3.863998	10.774194	-8.678681	0.406737	0.000000	-0.913545
3.863998	10.693548	-8.678681	0.406737	0.000000	-0.913545
3.863998	10.612904	-8.678681	0.406737	0.000000	-0.913545
3.863998	10.532258	-8.678681	0.406737	0.000000	-0.913545
3.863998	10.451612	-8.678681	0.406737	0.000000	-0.913545
3.863998	10.370968	-8.678681	0.406737	0.000000	-0.913545
3.863998	10.290322	-8.678681	0.406737	0.000000	-0.913545
3.863998	10.129032	-8.678681	0.406737	0.000000	-0.913545
3.863998	10.048388	-8.678681	0.406737	0.000000	-0.913545
3.863998	9.967742	-8.678681	0.406737	0.000000	-0.913545
3.863998	9.887096	-8.678681	0.406737	0.000000	-0.913545
3.863998	9.806452	-8.678681	0.406737	0.000000	-0.913545
3.863998	9.725806	-8.678681	0.406737	0.000000	-0.913545
3.863998	9.645162	-8.678681	0.406737	0.000000	-0.913545
3.863998	9.564516	-8.678681	0.406737	0.000000	-0.913545
3.863998	9.483871	-8.678681	0.406737	0.000000	-0.913545
3.863998	9.403226	-8.678681	0.406737	0.000000	-0.913545
3.863998	9.322580	-8.678681	0.406737	0.000000	-0.913545
3.863998	9.241936	-8.678681	0.406737	0.000000	-0.913545
3.863998	9.161290	-8.678681	0.406737	0.000000	-0.913545
3.863998	9.080646	-8.678681	0.406737	0.000000	-0.913545
3.863998	9.000000	-8.678681	0.406737	0.000000	-0.913545
3.863998	10.209678	-8.678681	0.406737	0.000000	-0.913545
3.863998	11.500000	-8.678681	0.406737	0.000000	-0.913545
3.895328	9.000000	-8.664569	0.410038	0.000000	-0.912068
-3.895328	9.000000	-8.664569	-0.410038	0.000000	-0.912068
3.939586	11.500000	-8.644632	0.414693	0.000000	-0.909961
3.939586	11.419354	-8.644632	0.414693	0.000000	-0.909961
3.939586	9.000000	-8.644632	0.414693	0.000000	-0.909961
3.939586	9.080646	-8.644632	0.414693	0.000000	-0.909961
3.939586	9.161290	-8.644632	0.414693	0.000000	-0.909961
3.939586	9.241936	-8.644632	0.414693	0.000000	-0.909961
3.939586	9.322580	-8.644632	0.414693	0.000000	-0.909961
3.939586	9.403226	-8.644632	0.414693	0.000000	-0.909961
3.939586	9.483871	-8.644632	0.414693	0.000000	-0.909961
3.939586	9.564516	-8.644632	0.414693	0.000000	-0.909961
3.939586	9.645162	-8.644632	0.414693	0.000000	-0.909961
3.939586	9.725806	-8.644632	0.414693	0.000000	-0.909961
3.939586	9.806452	-8.644632	0.414693	0.000000	-0.909961
3.939586	9.887096	-8.644632	0.414693	0.000000	-0.909961
-3.939586	10.693548	-8.644632	-0.414693	0.000000	-0.909961
3.939586	9.967742	-8.644632	0.414693	0.000000	-0.909961
3.939586	10.048388	-8.644632	0.414693	0.000000	-0.909961
3.939586	10.129032	-8.644632	0.414693	0.000000	-0.909961
3.939586	10.209678	-8.644632	0.414693	0.000000	-0.909961
-3.939586	10.532258	-8.644632	-0.414693	0.000000	-0.909961
-3.939586	9.000000	-8.644632	-0.414693	0.000000	-0.909961
-3.939586	9.080646	-8.644632	-0.414693	0.000000	-0.909961
-3.939586	9.161290	-8.644632	-0.414693	0.000000	-0.909961
-3.939586	9.241936	-8.644632	-0.414693	0.000000	-0.909961
-3.939586	9.322580	-8.644632	-0.414693	0.000000	-0.909961
-3.939586	9.483871	-8.644632	-0.414693	0.000000	-0.909961
-3.939586	9.564516	-8.644632	-0.414693	0.000000	-0.909961
-3.939586	9.645162	-8.644632	-0.414693	0.000000	-0.909961
-3.939586	9.725806	-8.644632	-0.414693	0.000000	-0.909961
-3.939586	9.806452	-8.644632	-0.414693	0.000000	-0.909961
-3.939586	9.887096	-8.644632	-0.414693	0.000000	-0.909961
-3.939586	10.774194	-8.644632	-0.414693	0.000000	-0.909961
-3.939586	9.403226	-8.644632	-0.414693	0.000000	-0.909961
3.939586	10.290322	-8.644632	0.414693	0.000000	-0.909961
-3.939586	10.935484	-8.644632	-0.414693	0.000000	-0.909961
-3.939586	11.016129	-8.644632	-0.414693	0.000000	-0.909961
-3.939586	11.096774	-8.644632	-0.414693	0.000000	-0.909961
-3.939586	11.177420	-8.644632	-0.414693	0.000000	-0.909961
-3.939586	11.258064	-8.644632	-0.414693	0.000000	-0.909961
-3.939586	11.338710	-8.644632	-0.414693	0.000000	-0.909961
-3.939586	11.419354	-8.644632	-0.414693	0.000000	-0.909961
-3.939586	11.500000	-8.644632	-0.414693	0.000000	-0.909961
-3.939586	9.967742	-8.644632	-0.414693	0.000000	-0.909961
-3.939586	10.048388	-8.644632	-0.414693	0.000000	-0.909961
-3.939586	10.129032	-8.644632	-0.414693	0.000000	-0.909961
-3.939586	10.209678	-8.644632	-0.414693	0.000000	-0.909961
-3.939586	10.290322	-8.644632	-0.414693	0.000000	-0.909961
-3.939586	10.370968	-8.644632	-0.414693	0.000000	-0.909961
-3.939586	10.451612	-8.644632	-0.414693	0.000000	-0.909961
-3.939586	10.854838	-8.644632	-0.414693	0.000000	-0.909961
-3.939586	10.612904	-8.644632	-0.414693	0.000000	-0.909961
3.939586	10.370968	-8.644632	0.414693	0.000000	-0.909961
3.939586	10.451612	-8.644632	0.414693	0.000000	-0.909961
3.939586	10.532258	-8.644632	0.414693	0.000000	-0.909961
3.939586	10.612904	-8.644632	0.414693	0.000000	-0.909961
3.939586	10.693548	-8.644632	0.414693	0.000000	-0.909961
3.939586	10.774194	-8.644632	0.414693	0.000000	-0.909961
3.939586	10.854838	-8.644632	0.414693	0.000000	-0.909961
3.939586	10.935484	-8.644632	0.414693	0.000000	-0.909961
3.939586	11.016129	-8.644632	0.414693	0.000000	-0.909961
3.939586	11.096774	-8.644632	0.414693	0.000000	-0.909961
3.939586	11.177420	-8.644632	0.414693	0.000000	-0.909961
3.939586	11.258064	-8.644632	0.414693	0.000000	-0.909961
3.939586	11.338710	-8.644632	0.414693	0.000000	-0.909961
3.978207	9.000000	-8.626827	0.418763	0.000000	-0.908096
-3.978207	9.000000	-8.626827	-0.418763	0.000000	-0.908096
0.663034	9.000000	-8.619449	0.000000	-1.000000	0.000000
0.580155	9.000000	-8.619449	0.000000	-1.000000	0.000000
0.414397	9.000000	-8.619449	0.000000	-1.000000	0.000000
0.331517	9.000000	-8.619449	0.000000	-1.000000	0.000000
0.248638	9.000000	-8.619449	0.000000	-1.000000	0.000000
0.165759	9.000000	-8.619449	0.000000	-1.000000	0.000000
-0.000000	9.000000	-8.619449	0.000000	-1.000000	0.000000
-0.082879	9.000000	-8.619449	0.000000	-1.000000	0.000000
-0.165759	9.000000	-8.619449	0.000000	-1.000000	0.000000
-0.248638	9.000000	-8.619449	0.000000	-1.000000	0.000000
-0.331517	9.000000	-8.619449	0.000000	-1.000000	0.000000
-0.414397	9.000000	-8.619449	0.000000	-1.000000	0.000000
-0.497276	9.000000	-8.619449	0.000000	-1.000000	0.000000
-0.580155	9.000000	-8.619449	0.000000	-1.000000	0.000000
-0.663034	9.000000	-8.619449	0.000000	-1.000000	0.000000
-0.745914	9.000000	-8.619449	0.000000	-1.000000	0.000000
-0.828793	9.000000	-8.619449	0.000000	-1.000000	0.000000
-0.911672	9.000000	-8.619449	0.000000	-1.000000	0.000000
-0.994552	9.000000	-8.619449	0.000000	-1.000000	0.000000
-1.077431	9.000000	-8.619449	0.000000	-1.000000	0.000000
-1.160310	9.000000	-8.619449	0.000000	-1.000000	0.000000
-1.243190	9.000000	-8.619449	0.000000	-1.000000	0.000000
-1.326069	9.000000	-8.619449	0.000000	-1.000000	0.000000
-1.408948	9.000000	-8.619449	0.000000	-1.000000	0.000000
-1.491828	9.000000	-8.619449	0.000000	-1.000000	0.000000
-1.574707	9.000000	-8.619449	0.000000	-1.000000	0.000000
-1.657586	9.000000	-8.619449	0.000000	-1.000000	0.000000
-1.740466	9.000000	-8.619449	0.000000	-1.000000	0.000000
-1.823345	9.000000	-8.619449	0.000000	-1.000000	0.000000
-1.906224	9.000000	-8.619449	0.000000	-1.000000	0.000000
-1.989103	9.000000	-8.619449	0.000000	-1.000000	0.000000
3.994214	9.000000	-8.619449	0.420447	0.000000	-0.907317
-2.071983	9.000000	-8.619449	0.000000	-1.000000	0.000000
-2.154862	9.000000	-8.619449	0.000000	-1.000000	0.000000
-2.237741	9.000000	-8.619449	0.000000	-1.000000	0.000000
-2.320621	9.000000	-8.619449	0.000000	-1.000000	0.000000
-2.403500	9.000000	-8.619449	0.000000	-1.000000	0.000000
-2.486379	9.000000	-8.619449	0.000000	-1.000000	0.000000
-2.569259	9.000000	-8.619449	0.000000	-1.000000	0.000000
-2.652138	9.000000	-8.619449	0.000000	-1.000000	0.000000
-2.735017	9.000000	-8.619449	0.000000	-1.000000	0.000000
-2.817897	9.000000	-8.619449	0.000000	-1.000000	0.000000
-2.900776	9.000000	-8.619449	0.000000	-1.000000	0.000000
-2.983655	9.000000	-8.619449	0.000000	-1.000000	0.000000
-3.066535	9.000000	-8.619449	0.000000	-1.000000	0.000000
-3.149414	9.000000	-8.619449	0.000000	-1.000000	0.000000
-3.232293	9.000000	-8.619449	0.000000	-1.000000	0.000000
-3.315172	9.000000	-8.619449	0.000000	-1.000000	0.000000
-3.398052	9.000000	-8.619449	0.000000	-1.000000	0.000000
-3.480931	9.000000	-8.619449	0.000000	-1.000000	0.000000
-3.563810	9.000000	-8.619449	0.000000	-1.000000	0.000000
-3.646690	9.000000	-8.619449	0.000000	-1.000000	0.000000
3.895328	9.000000	-8.619449	0.000000	-1.000000	0.000000
3.315172	9.000000	-8.619449	0.000000	-1.000000	0.000000
3.398052	9.000000	-8.619449	0.000000	-1.000000	0.000000
3.480931	9.000000	-8.619449	0.000000	-1.000000	0.000000
3.563810	9.000000	-8.619449	0.000000	-1.000000	0.000000
3.646690	9.000000	-8.619449	0.000000	-1.000000	0.000000
3.729569	9.000000	-8.619449	0.000000	-1.000000	0.000000
-3.978207	9.000000	-8.619449	0.000000	-1.000000	0.000000
-3.895328	9.000000	-8.619449	0.000000	-1.000000	0.000000
-3.812448	9.000000	-8.619449	0.000000	-1.000000	0.000000
-3.729569	9.000000	-8.619449	0.000000	-1.000000	0.000000
2.900776	9.000000	-8.619449	0.000000	-1.000000	0.000000
0.497276	9.000000	-8.619449	0.000000	-1.000000	0.000000
0.082879	9.000000	-8.619449	0.000000	-1.000000	0.000000
3.812448	9.000000	-8.619449	0.000000	-1.000000	0.000000
3.978207	9.000000	-8.619449	0.000000	-1.000000	0.000000
2.486379	9.000000	-8.619449	0.000000	-1.000000	0.000000
-3.994214	9.000000	-8.619449	-0.420447	0.000000	-0.907317
3.232293	9.000000	-8.619449	0.000000	-1.000000	0.000000
3.149414	9.000000	-8.619449	0.000000	-1.000000	0.000000
3.066535	9.000000	-8.619449	0.000000	-1.000000	0.000000
2.983655	9.000000	-8.619449	0.000000	-1.000000	0.000000
2.817897	9.000000	-8.619449	0.000000	-1.000000	0.000000
2.735017	9.000000	-8.619449	0.000000	-1.000000	0.000000
2.652138	9.000000	-8.619449	0.000000	-1.000000	0.000000
2.569259	9.000000	-8.619449	0.000000	-1.000000	0.000000
2.403500	9.000000	-8.619449	0.000000	-1.000000	0.000000
2.320621	9.000000	-8.619449	0.000000	-1.000000	0.000000
2.237741	9.000000	-8.619449	0.000000	-1.000000	0.000000
2.154862	9.000000	-8.619449	0.000000	-1.000000	0.000000
2.071983	9.000000	-8.619449	0.000000	-1.000000	0.000000
1.989103	9.000000	-8.619449	0.000000	-1.000000	0.000000
1.906224	9.000000	-8.619449	0.000000	-1.000000	0.000000
1.823345	9.000000	-8.619449	0.000000	-1.000000	0.000000
1.740466	9.000000	-8.619449	0.000000	-1.000000	0.000000
1.657586	9.000000	-8.619449	0.000000	-1.000000	0.000000
1.574707	9.000000	-8.619449	0.000000	-1.000000	0.000000
1.491828	9.000000	-8.619449	0.000000	-1.000000	0.000000
1.408948	9.000000	-8.619449	0.000000	-1.000000	0.000000
1.326069	9.000000	-8.619449	0.000000	-1.000000	0.000000
1.243190	9.000000	-8.619449	0.000000	-1.000000	0.000000
1.160310	9.000000	-8.619449	0.000000	-1.000000	0.000000
1.077431	9.000000	-8.619449	0.000000	-1.000000	0.000000
0.994552	9.000000	-8.619449	0.000000	-1.000000	0.000000
0.911672	9.000000	-8.619449	0.000000	-1.000000	0.000000
0.828793	9.000000	-8.619449	0.000000	-1.000000	0.000000
0.745914	9.000000	-8.619449	0.000000	-1.000000	0.000000
-4.014874	10.129032	-8.609924	-0.422618	0.000000	-0.906308
-4.014874	9.564516	-8.609924	-0.422618	0.000000	-0.906308
-4.014874	10.290322	-8.609924	-0.422618	0.000000	-0.906308
-4.014874	10.370968	-8.609924	-0.422618	0.000000	-0.906308
-4.014874	10.451612	-8.609924	-0.422618	0.000000	-0.906308
-4.014874	10.612904	-8.609924	-0.422618	0.000000	-0.906308
-4.014874	10.693548	-8.609924	-0.422618	0.000000	-0.906308
-4.014874	10.774194	-8.609924	-0.422618	0.000000	-0.906308
-4.014874	10.935484	-8.609924	-0.422618	0.000000	-0.906308
-4.014874	10.854838	-8.609924	-0.422618	0.000000	-0.906308
-4.014874	11.016129	-8.609924	-0.422618	0.000000	-0.906308
-4.014874	10.532258	-8.609924	-0.422618	0.000000	-0.906308
-4.014874	11.096774	-8.609924	-0.422618	0.000000	-0.906308
-4.014874	11.177420	-8.609924	-0.422618	0.000000	-0.906308
-4.014874	11.258064	-8.609924	-0.422618	0.000000	-0.906308
-4.014874	11.338710	-8.609924	-0.422618	0.000000	-0.906308
-4.014874	11.419354	-8.609924	-0.422618	0.000000	-0.906308
-4.014874	11.500000	-8.609924	-0.422618	0.000000	-0.906308
-4.014874	10.048388	-8.609924	-0.422618	0.000000	-0.906308
-4.014874	9.967742	-8.609924	-0.422618	0.000000	-0.906308
-4.014874	9.887096	-8.609924	-0.422618	0.000000	-0.906308
-4.014874	9.806452	-8.609924	-0.422618	0.000000	-0.906308
-4.014874	9.725806	-8.609924	-0.422618	0.000000	-0.906308
-4.014874	9.645162	-8.609924	-0.422618	0.000000	-0.906308
-4.014874	9.403226	-8.609924	-0.422618	0.000000	-0.906308
-4.014874	10.209678	-8.609924	-0.422618	0.000000	-0.906308
-4.014874	9.483871	-8.609924	-0.422618	0.000000	-0.906308
-4.014874	9.322580	-8.609924	-0.422618	0.000000	-0.906308
-4.014874	9.241936	-8.609924	-0.422618	0.000000	-0.906308
-4.014874	9.161290	-8.609924	-0.422618	0.000000	-0.906308
-4.014874	9.080646	-8.609924	-0.422618	0.000000	-0.906308
-4.014874	9.000000	-8.609924	-0.422618	0.000000	-0.906308
4.014874	11.500000	-8.609924	0.422618	0.000000	-0.906308
4.014874	11.419354	-8.609924	0.422618	0.000000	-0.906308
4.014874	11.338710	-8.609924	0.422618	0.000000	-0.906308
4.014874	11.258064	-8.609924	0.422618	0.000000	-0.906308
4.014874	11.177420	-8.609924	0.422618	0.000000	-0.906308
4.014874	11.096774	-8.609924	0.422618	0.000000	-0.906308
4.014874	11.016129	-8.609924	0.422618	0.000000	-0.906308
4.014874	10.935484	-8.609924	0.422618	0.000000	-0.906308
4.014874	10.774194	-8.609924	0.422618	0.000000	-0.906308
4.014874	10.693548	-8.609924	0.422618	0.000000	-0.906308
4.014874	10.612904	-8.609924	0.422618	0.000000	-0.906308
4.014874	10.532258	-8.609924	0.422618	0.000000	-0.906308
4.014874	10.451612	-8.609924	0.422618	0.000000	-0.906308
4.014874	10.370968	-8.609924	0.422618	0.000000	-0.906308
4.014874	10.290322	-8.609924	0.422618	0.000000	-0.906308
4.014874	10.209678	-8.609924	0.422618	0.000000	-0.906308
4.014874	10.129032	-8.609924	0.422618	0.000000	-0.906308
4.014874	10.048388	-8.609924	0.422618	0.000000	-0.906308
4.014874	9.967742	-8.609924	0.422618	0.000000	-0.906308
4.014874	9.887096	-8.609924	0.422618	0.000000	-0.906308
4.014874	9.806452	-8.609924	0.422618	0.000000	-0.906308
4.014874	9.725806	-8.609924	0.422618	0.000000	-0.906308
4.014874	9.645162	-8.609924	0.422618	0.000000	-0.906308
4.014874	9.564516	-8.609924	0.422618	0.000000	-0.906308
4.014874	9.403226	-8.609924	0.422618	0.000000	-0.906308
4.014874	9.322580	-8.609924	0.422618	0.000000	-0.906308
4.014874	9.241936	-8.609924	0.422618	0.000000	-0.906308
4.014874	9.161290	-8.609924	0.422618	0.000000	-0.906308
4.014874	9.080646	-8.609924	0.422618	0.000000	-0.906308
4.014874	9.000000	-8.609924	0.422618	0.000000	-0.906308
4.014874	10.854838	-8.609924	0.422618	0.000000	-0.906308
4.014874	9.483871	-8.609924	0.422618	0.000000	-0.906308
4.061086	9.000000	-8.588129	0.427487	0.000000	-0.904022
-4.061086	9.000000	-8.588129	-0.427487	0.000000	-0.904022
4.089855	10.290322	-8.574560	0.430511	0.000000	-0.902585
4.089855	10.209678	-8.574560	0.430511	0.000000	-0.902585
4.089855	10.129032	-8.574560	0.430511	0.000000	-0.902585
4.089855	10.048388	-8.574560	0.430511	0.000000	-0.902585
4.089855	9.000000	-8.574560	0.430511	0.000000	-0.902585
4.089855	9.080646	-8.574560	0.430511	0.000000	-0.902585
4.089855	9.161290	-8.574560	0.430511	0.000000	-0.902585
4.089855	9.241936	-8.574560	0.430511	0.000000	-0.902585
4.089855	9.322580	-8.574560	0.430511	0.000000	-0.902585
4.089855	9.403226	-8.574560	0.430511	0.000000	-0.902585
4.089855	9.483871	-8.574560	0.430511	0.000000	-0.902585
4.089855	9.564516	-8.574560	0.430511	0.000000	-0.902585
4.089855	9.645162	-8.574560	0.430511	0.000000	-0.902585
4.089855	9.725806	-8.574560	0.430511	0.000000	-0.902585
4.089855	9.806452	-8.574560	0.430511	0.000000	-0.902585
4.089855	9.887096	-8.574560	0.430511	0.000000	-0.902585
4.089855	9.967742	-8.574560	0.430511	0.000000	-0.902585
-4.089855	9.322580	-8.574560	-0.430511	0.000000	-0.902585
-4.089855	9.241936	-8.574560	-0.430511	0.000000	-0.902585
-4.089855	9.161290	-8.574560	-0.430511	0.000000	-0.902585
-4.089855	9.080646	-8.574560	-0.430511	0.000000	-0.902585
-4.089855	9.000000	-8.574560	-0.430511	0.000000	-0.902585
-4.089855	9.725806	-8.574560	-0.430511	0.000000	-0.902585
4.089855	11.500000	-8.574560	0.430511	0.000000	-0.902585
4.089855	11.419354	-8.574560	0.430511	0.000000	-0.902585
4.089855	11.338710	-8.574560	0.430511	0.000000	-0.902585
4.089855	11.258064	-8.574560	0.430511	0.000000	-0.902585
4.089855	11.177420	-8.574560	0.430511	0.000000	-0.902585
4.089855	11.096774	-8.574560	0.430511	0.000000	-0.902585
-4.089855	9.806452	-8.574560	-0.430511	0.000000	-0.902585
4.089855	11.016129	-8.574560	0.430511	0.000000	-0.902585
4.089855	10.935484	-8.574560	0.430511	0.000000	-0.902585
4.089855	10.854838	-8.574560	0.430511	0.000000	-0.902585
4.089855	10.774194	-8.574560	0.430511	0.000000	-0.902585
4.089855	10.693548	-8.574560	0.430511	0.000000	-0.902585
4.089855	10.612904	-8.574560	0.430511	0.000000	-0.902585
4.089855	10.532258	-8.574560	0.430511	0.000000	-0.902585
4.089855	10.451612	-8.574560	0.430511	0.000000	-0.902585
4.089855	10.370968	-8.574560	0.430511	0.000000	-0.902585
-4.089855	9.887096	-8.574560	-0.430511	0.000000	-0.902585
-4.089855	9.645162	-8.574560	-0.430511	0.000000	-0.902585
-4.089855	9.967742	-8.574560	-0.430511	0.000000	-0.902585
-4.089855	10.048388	-8.574560	-0.430511	0.000000	-0.902585
-4.089855	9.564516	-8.574560	-0.430511	0.000000	-0.902585
-4.089855	10.129032	-8.574560	-0.430511	0.000000	-0.902585
-4.089855	10.209678	-8.574560	-0.430511	0.000000	-0.902585
-4.089855	10.290322	-8.574560	-0.430511	0.000000	-0.902585
-4.089855	10.370968	-8.574560	-0.430511	0.000000	-0.902585
-4.089855	9.483871	-8.574560	-0.430511	0.000000	-0.902585
-4.089855	10.451612	-8.574560	-0.430511	0.000000	-0.902585
-4.089855	10.532258	-8.574560	-0.430511	0.000000	-0.902585
-4.089855	10.612904	-8.574560	-0.430511	0.000000	-0.902585
-4.089855	10.693548	-8.574560	-0.430511	0.000000	-0.902585
-4.089855	10.774194	-8.574560	-0.430511	0.000000	-0.902585
-4.089855	10.854838	-8.574560	-0.430511	0.000000	-0.902585
-4.089855	10.935484	-8.574560	-0.430511	0.000000	-0.902585
-4.089855	11.016129	-8.574560	-0.430511	0.000000	-0.902585
-4.089855	11.096774	-8.574560	-0.430511	0.000000	-0.902585
-4.089855	11.177420	-8.574560	-0.430511	0.000000	-0.902585
-4.089855	11.258064	-8.574560	-0.430511	0.000000	-0.902585
-4.089855	11.338710	-8.574560	-0.430511	0.000000	-0.902585
-4.089855	11.419354	-8.574560	-0.430511	0.000000	-0.902585
-4.089855	11.500000	-8.574560	-0.430511	0.000000	-0.902585
-4.089855	9.403226	-8.574560	-0.430511	0.000000	-0.902585
4.143966	9.000000	-8.548461	0.436210	0.000000	-0.899845
-4.143966	9.000000	-8.548461	-0.436210	0.000000	-0.899845
4.164526	11.258064	-8.538544	0.438371	0.000000	-0.898794
4.164526	11.177420	-8.538544	0.438371	0.000000	-0.898794
4.164526	11.096774	-8.538544	0.438371	0.000000	-0.898794
4.164526	10.935484	-8.538544	0.438371	0.000000	-0.898794
4.164526	10.854838	-8.538544	0.438371	0.000000	-0.898794
4.164526	10.774194	-8.538544	0.438371	0.000000	-0.898794
4.164526	10.693548	-8.538544	0.438371	0.000000	-0.898794
4.164526	10.612904	-8.538544	0.438371	0.000000	-0.898794
4.164526	10.532258	-8.538544	0.438371	0.000000	-0.898794
4.164526	11.016129	-8.538544	0.438371	0.000000	-0.898794
4.164526	10.451612	-8.538544	0.438371	0.000000	-0.898794
4.164526	10.370968	-8.538544	0.438371	0.000000	-0.898794
4.164526	10.290322	-8.538544	0.438371	0.000000	-0.898794
4.164526	10.129032	-8.538544	0.438371	0.000000	-0.898794
4.164526	10.048388	-8.538544	0.438371	0.000000	-0.898794
4.164526	10.209678	-8.538544	0.438371	0.000000	-0.898794
4.164526	11.419354	-8.538544	0.438371	0.000000	-0.898794
4.164526	9.000000	-8.538544	0.438371	0.000000	-0.898794
4.164526	11.338710	-8.538544	0.438371	0.000000	-0.898794
4.164526	9.080646	-8.538544	0.438371	0.000000	-0.898794
4.164526	9.161290	-8.538544	0.438371	0.000000	-0.898794
4.164526	9.241936	-8.538544	0.438371	0.000000	-0.898794
4.164526	9.322580	-8.538544	0.438371	0.000000	-0.898794
4.164526	9.403226	-8.538544	0.438371	0.000000	-0.898794
4.164526	9.483871	-8.538544	0.438371	0.000000	-0.898794
4.164526	9.564516	-8.538544	0.438371	0.000000	-0.898794
4.164526	9.645162	-8.538544	0.438371	0.000000	-0.898794
4.164526	9.725806	-8.538544	0.438371	0.000000	-0.898794
4.164526	9.806452	-8.538544	0.438371	0.000000	-0.898794
4.164526	11.500000	-8.538544	0.438371	0.000000	-0.898794
4.164526	9.887096	-8.538544	0.438371	0.000000	-0.898794
4.164526	9.967742	-8.538544	0.438371	0.000000	-0.898794
-4.164526	10.290322	-8.538544	-0.438371	0.000000	-0.898794
-4.164526	10.451612	-8.538544	-0.438371	0.000000	-0.898794
-4.164526	10.532258	-8.538544	-0.438371	0.000000	-0.898794
-4.164526	10.612904	-8.538544	-0.438371	0.000000	-0.898794
-4.164526	10.693548	-8.538544	-0.438371	0.000000	-0.898794
-4.164526	10.774194	-8.538544	-0.438371	0.000000	-0.898794
-4.164526	10.854838	-8.538544	-0.438371	0.000000	-0.898794
-4.164526	10.935484	-8.538544	-0.438371	0.000000	-0.898794
-4.164526	11.016129	-8.538544	-0.438371	0.000000	-0.898794
-4.164526	11.096774	-8.538544	-0.438371	0.000000	-0.898794
-4.164526	11.177420	-8.538544	-0.438371	0.000000	-0.898794
-4.164526	11.258064	-8.538544	-0.438371	0.000000	-0.898794
-4.164526	11.338710	-8.538544	-0.438371	0.000000	-0.898794
-4.164526	11.419354	-8.538544	-0.438371	0.000000	-0.898794
-4.164526	11.500000	-8.538544	-0.438371	0.000000	-0.898794
-4.164526	10.370968	-8.538544	-0.438371	0.000000	-0.898794
-4.164526	9.000000	-8.538544	-0.438371	0.000000	-0.898794
-4.164526	9.080646	-8.538544	-0.438371	0.000000	-0.898794
-4.164526	9.161290	-8.538544	-0.438371	0.000000	-0.898794
-4.164526	9.241936	-8.538544	-0.438371	0.000000	-0.898794
-4.164526	9.322580	-8.538544	-0.438371	0.000000	-0.898794
-4.164526	9.403226	-8.538544	-0.438371	0.000000	-0.898794
-4.164526	9.483871	-8.538544	-0.438371	0.000000	-0.898794
-4.164526	9.564516	-8.538544	-0.438371	0.000000	-0.898794
-4.164526	9.645162	-8.538544	-0.438371	0.000000	-0.898794
-4.164526	9.725806	-8.538544	-0.438371	0.000000	-0.898794
-4.164526	9.806452	-8.538544	-0.438371	0.000000	-0.898794
-4.164526	9.887096	-8.538544	-0.438371	0.000000	-0.898794
-4.164526	9.967742	-8.538544	-0.438371	0.000000	-0.898794
-4.164526	10.048388	-8.538544	-0.438371	0.000000	-0.898794
-4.164526	10.129032	-8.538544	-0.438371	0.000000	-0.898794
-4.164526	10.209678	-8.538544	-0.438371	0.000000	-0.898794
0.165759	9.000000	-8.536569	0.000000	-1.000000	0.000000
0.082879	9.000000	-8.536569	0.000000	-1.000000	0.000000
-0.000000	9.000000	-8.536569	0.000000	-1.000000	0.000000
-0.082879	9.000000	-8.536569	0.000000	-1.000000	0.000000
-0.165759	9.000000	-8.536569	0.000000	-1.000000	0.000000
-0.248638	9.000000	-8.536569	0.000000	-1.000000	0.000000
-0.331517	9.000000	-8.536569	0.000000	-1.000000	0.000000
-0.414397	9.000000	-8.536569	0.000000	-1.000000	0.000000
-0.497276	9.000000	-8.536569	0.000000	-1.000000	0.000000
-0.580155	9.000000	-8.536569	0.000000	-1.000000	0.000000
-0.663034	9.000000	-8.536569	0.000000	-1.000000	0.000000
-0.745914	9.000000	-8.536569	0.000000	-1.000000	0.000000
-0.828793	9.000000	-8.536569	0.000000	-1.000000	0.000000
-0.911672	9.000000	-8.536569	0.000000	-1.000000	0.000000
-0.994552	9.000000	-8.536569	0.000000	-1.000000	0.000000
-1.077431	9.000000	-8.536569	0.000000	-1.000000	0.000000
-1.160310	9.000000	-8.536569	0.000000	-1.000000	0.000000
-1.243190	9.000000	-8.536569	0.000000	-1.000000	0.000000
-1.326069	9.000000	-8.536569	0.000000	-1.000000	0.000000
-1.408948	9.000000	-8.536569	0.000000	-1.000000	0.000000
-1.491828	9.000000	-8.536569	0.000000	-1.000000	0.000000
-1.574707	9.000000	-8.536569	0.000000	-1.000000	0.000000
-1.657586	9.000000	-8.536569	0.000000	-1.000000	0.000000
