-15.094599	10.000000	-30.637552	0.000000	1.000000	0.000000
-15.393502	10.000000	-30.637552	0.000000	1.000000	0.000000
-15.692405	10.000000	-30.637552	0.000000	1.000000	0.000000
-15.991308	10.000000	-30.637552	0.000000	1.000000	0.000000
-16.290211	10.000000	-30.637552	0.000000	1.000000	0.000000
-16.589113	10.000000	-30.637552	0.000000	1.000000	0.000000
-16.888018	10.000000	-30.637552	0.000000	1.000000	0.000000
16.888018	10.000000	-30.637552	0.000000	1.000000	0.000000
-0.149451	10.000000	-30.637552	0.000000	1.000000	0.000000
-14.795696	10.000000	-30.637552	0.000000	1.000000	0.000000
16.921518	10.000000	-30.637552	0.483472	0.000000	-0.875360
-16.921518	10.000000	-30.637552	-0.483472	0.000000	-0.875360
16.589113	10.000000	-30.637552	0.000000	1.000000	0.000000
16.290211	10.000000	-30.637552	0.000000	1.000000	0.000000
15.991308	10.000000	-30.637552	0.000000	1.000000	0.000000
15.692405	10.000000	-30.637552	0.000000	1.000000	0.000000
15.393502	10.000000	-30.637552	0.000000	1.000000	0.000000
15.094599	10.000000	-30.637552	0.000000	1.000000	0.000000
14.795696	10.000000	-30.637552	0.000000	1.000000	0.000000
14.496793	10.000000	-30.637552	0.000000	1.000000	0.000000
14.197890	10.000000	-30.637552	0.000000	1.000000	0.000000
13.898988	10.000000	-30.637552	0.000000	1.000000	0.000000
13.600084	10.000000	-30.637552	0.000000	1.000000	0.000000
13.301182	10.000000	-30.637552	0.000000	1.000000	0.000000
13.002278	10.000000	-30.637552	0.000000	1.000000	0.000000
12.703376	10.000000	-30.637552	0.000000	1.000000	0.000000
12.404472	10.000000	-30.637552	0.000000	1.000000	0.000000
12.105570	10.000000	-30.637552	0.000000	1.000000	0.000000
11.806666	10.000000	-30.637552	0.000000	1.000000	0.000000
11.507764	10.000000	-30.637552	0.000000	1.000000	0.000000
11.208860	10.000000	-30.637552	0.000000	1.000000	0.000000
10.909958	10.000000	-30.637552	0.000000	1.000000	0.000000
10.611054	10.000000	-30.637552	0.000000	1.000000	0.000000
10.312152	10.000000	-30.637552	0.000000	1.000000	0.000000
10.013249	10.000000	-30.637552	0.000000	1.000000	0.000000
9.714346	10.000000	-30.637552	0.000000	1.000000	0.000000
9.415443	10.000000	-30.637552	0.000000	1.000000	0.000000
9.116540	10.000000	-30.637552	0.000000	1.000000	0.000000
8.817637	10.000000	-30.637552	0.000000	1.000000	0.000000
8.518734	10.000000	-30.637552	0.000000	1.000000	0.000000
8.219831	10.000000	-30.637552	0.000000	1.000000	0.000000
7.920928	10.000000	-30.637552	0.000000	1.000000	0.000000
7.622025	10.000000	-30.637552	0.000000	1.000000	0.000000
7.323123	10.000000	-30.637552	0.000000	1.000000	0.000000
7.024220	10.000000	-30.637552	0.000000	1.000000	0.000000
6.725317	10.000000	-30.637552	0.000000	1.000000	0.000000
6.426414	10.000000	-30.637552	0.000000	1.000000	0.000000
6.127511	10.000000	-30.637552	0.000000	1.000000	0.000000
5.828608	10.000000	-30.637552	0.000000	1.000000	0.000000
5.529705	10.000000	-30.637552	0.000000	1.000000	0.000000
5.230802	10.000000	-30.637552	0.000000	1.000000	0.000000
4.931899	10.000000	-30.637552	0.000000	1.000000	0.000000
4.632996	10.000000	-30.637552	0.000000	1.000000	0.000000
4.334093	10.000000	-30.637552	0.000000	1.000000	0.000000
4.035190	10.000000	-30.637552	0.000000	1.000000	0.000000
3.736287	10.000000	-30.637552	0.000000	1.000000	0.000000
3.437384	10.000000	-30.637552	0.000000	1.000000	0.000000
17.175114	7.428571	-30.496155	0.490718	0.000000	-0.871319
17.175114	7.142857	-30.496155	0.490718	0.000000	-0.871319
17.175114	6.857143	-30.496155	0.490718	0.000000	-0.871319
17.175114	6.571429	-30.496155	0.490718	0.000000	-0.871319
17.175114	6.285714	-30.496155	0.490718	0.000000	-0.871319
17.175114	6.000000	-30.496155	0.490718	0.000000	-0.871319
17.175114	5.714286	-30.496155	0.490718	0.000000	-0.871319
17.175114	5.428571	-30.496155	0.490718	0.000000	-0.871319
17.175114	5.142857	-30.496155	0.490718	0.000000	-0.871319
17.175114	4.857143	-30.496155	0.490718	0.000000	-0.871319
17.175114	4.571429	-30.496155	0.490718	0.000000	-0.871319
17.175114	8.285714	-30.496155	0.490718	0.000000	-0.871319
17.175114	4.285714	-30.496155	0.490718	0.000000	-0.871319
17.175114	8.000000	-30.496155	0.490718	0.000000	-0.871319
17.175114	8.571428	-30.496155	0.490718	0.000000	-0.871319
17.175114	10.000000	-30.496155	0.490718	0.000000	-0.871319
17.175114	9.714286	-30.496155	0.490718	0.000000	-0.871319
17.175114	7.714286	-30.496155	0.490718	0.000000	-0.871319
17.175114	4.000000	-30.496155	0.490718	0.000000	-0.871319
17.175114	9.428572	-30.496155	0.490718	0.000000	-0.871319
17.175114	9.142858	-30.496155	0.490718	0.000000	-0.871319
17.175114	8.857142	-30.496155	0.490718	0.000000	-0.871319
-17.175114	8.857142	-30.496155	-0.490718	0.000000	-0.871319
-17.175114	9.428572	-30.496155	-0.490718	0.000000	-0.871319
-17.175114	8.571428	-30.496155	-0.490718	0.000000	-0.871319
-17.175114	4.000000	-30.496155	-0.490718	0.000000	-0.871319
-17.175114	10.000000	-30.496155	-0.490718	0.000000	-0.871319
-17.175114	4.285714	-30.496155	-0.490718	0.000000	-0.871319
-17.175114	4.571429	-30.496155	-0.490718	0.000000	-0.871319
-17.175114	4.857143	-30.496155	-0.490718	0.000000	-0.871319
-17.175114	5.142857	-30.496155	-0.490718	0.000000	-0.871319
-17.175114	5.428571	-30.496155	-0.490718	0.000000	-0.871319
-17.175114	5.714286	-30.496155	-0.490718	0.000000	-0.871319
-17.175114	6.000000	-30.496155	-0.490718	0.000000	-0.871319
-17.175114	6.285714	-30.496155	-0.490718	0.000000	-0.871319
-17.175114	6.571429	-30.496155	-0.490718	0.000000	-0.871319
-17.175114	6.857143	-30.496155	-0.490718	0.000000	-0.871319
-17.175114	7.142857	-30.496155	-0.490718	0.000000	-0.871319
-17.175114	7.428571	-30.496155	-0.490718	0.000000	-0.871319
-17.175114	7.714286	-30.496155	-0.490718	0.000000	-0.871319
-17.175114	8.000000	-30.496155	-0.490718	0.000000	-0.871319
-17.175114	8.285714	-30.496155	-0.490718	0.000000	-0.871319
-17.175114	9.142858	-30.496155	-0.490718	0.000000	-0.871319
-17.175114	9.714286	-30.496155	-0.490718	0.000000	-0.871319
-17.186920	10.000000	-30.489439	-0.491056	0.000000	-0.871128
17.186920	10.000000	-30.489439	0.491056	0.000000	-0.871128
17.435181	9.714286	-30.348219	0.498148	0.000000	-0.867092
17.435181	9.428572	-30.348219	0.498148	0.000000	-0.867092
17.435181	9.142858	-30.348219	0.498148	0.000000	-0.867092
17.435181	6.000000	-30.348219	0.498148	0.000000	-0.867092
17.435181	6.285714	-30.348219	0.498148	0.000000	-0.867092
17.435181	6.571429	-30.348219	0.498148	0.000000	-0.867092
17.435181	6.857143	-30.348219	0.498148	0.000000	-0.867092
17.435181	7.142857	-30.348219	0.498148	0.000000	-0.867092
17.435181	8.571428	-30.348219	0.498148	0.000000	-0.867092
17.435181	7.428571	-30.348219	0.498148	0.000000	-0.867092
17.435181	7.714286	-30.348219	0.498148	0.000000	-0.867092
17.435181	8.857142	-30.348219	0.498148	0.000000	-0.867092
17.435181	8.000000	-30.348219	0.498148	0.000000	-0.867092
17.435181	5.714286	-30.348219	0.498148	0.000000	-0.867092
17.435181	5.428571	-30.348219	0.498148	0.000000	-0.867092
17.435181	5.142857	-30.348219	0.498148	0.000000	-0.867092
17.435181	4.857143	-30.348219	0.498148	0.000000	-0.867092
17.435181	4.571429	-30.348219	0.498148	0.000000	-0.867092
17.435181	4.000000	-30.348219	0.498148	0.000000	-0.867092
17.435181	4.285714	-30.348219	0.498148	0.000000	-0.867092
17.435181	10.000000	-30.348219	0.498148	0.000000	-0.867092
17.435181	8.285714	-30.348219	0.498148	0.000000	-0.867092
-17.435181	7.428571	-30.348219	-0.498148	0.000000	-0.867092
-17.435181	9.428572	-30.348219	-0.498148	0.000000	-0.867092
-17.435181	6.571429	-30.348219	-0.498148	0.000000	-0.867092
-17.435181	9.142858	-30.348219	-0.498148	0.000000	-0.867092
-17.435181	8.857142	-30.348219	-0.498148	0.000000	-0.867092
-17.435181	8.571428	-30.348219	-0.498148	0.000000	-0.867092
-17.435181	8.285714	-30.348219	-0.498148	0.000000	-0.867092
-17.435181	8.000000	-30.348219	-0.498148	0.000000	-0.867092
-17.435181	7.714286	-30.348219	-0.498148	0.000000	-0.867092
-17.435181	4.000000	-30.348219	-0.498148	0.000000	-0.867092
-17.435181	7.142857	-30.348219	-0.498148	0.000000	-0.867092
-17.435181	6.000000	-30.348219	-0.498148	0.000000	-0.867092
-17.435181	6.857143	-30.348219	-0.498148	0.000000	-0.867092
-17.435181	9.714286	-30.348219	-0.498148	0.000000	-0.867092
-17.435181	10.000000	-30.348219	-0.498148	0.000000	-0.867092
-17.435181	4.285714	-30.348219	-0.498148	0.000000	-0.867092
-17.435181	4.571429	-30.348219	-0.498148	0.000000	-0.867092
-17.435181	4.857143	-30.348219	-0.498148	0.000000	-0.867092
-17.435181	5.142857	-30.348219	-0.498148	0.000000	-0.867092
-17.435181	6.285714	-30.348219	-0.498148	0.000000	-0.867092
-17.435181	5.428571	-30.348219	-0.498148	0.000000	-0.867092
-17.435181	5.714286	-30.348219	-0.498148	0.000000	-0.867092
-13.898988	10.000000	-30.338650	0.000000	1.000000	0.000000
-14.197890	10.000000	-30.338650	0.000000	1.000000	0.000000
-14.496793	10.000000	-30.338650	0.000000	1.000000	0.000000
-14.795696	10.000000	-30.338650	0.000000	1.000000	0.000000
-15.094599	10.000000	-30.338650	0.000000	1.000000	0.000000
-15.393502	10.000000	-30.338650	0.000000	1.000000	0.000000
-15.692405	10.000000	-30.338650	0.000000	1.000000	0.000000
-15.991308	10.000000	-30.338650	0.000000	1.000000	0.000000
-16.290211	10.000000	-30.338650	0.000000	1.000000	0.000000
-16.589113	10.000000	-30.338650	0.000000	1.000000	0.000000
-16.888018	10.000000	-30.338650	0.000000	1.000000	0.000000
-17.186920	10.000000	-30.338650	0.000000	1.000000	0.000000
8.817637	10.000000	-30.338650	0.000000	1.000000	0.000000
9.116540	10.000000	-30.338650	0.000000	1.000000	0.000000
9.415443	10.000000	-30.338650	0.000000	1.000000	0.000000
9.714346	10.000000	-30.338650	0.000000	1.000000	0.000000
10.013249	10.000000	-30.338650	0.000000	1.000000	0.000000
10.312152	10.000000	-30.338650	0.000000	1.000000	0.000000
10.611054	10.000000	-30.338650	0.000000	1.000000	0.000000
10.909958	10.000000	-30.338650	0.000000	1.000000	0.000000
11.208860	10.000000	-30.338650	0.000000	1.000000	0.000000
11.507764	10.000000	-30.338650	0.000000	1.000000	0.000000
11.806666	10.000000	-30.338650	0.000000	1.000000	0.000000
12.105570	10.000000	-30.338650	0.000000	1.000000	0.000000
12.404472	10.000000	-30.338650	0.000000	1.000000	0.000000
12.703376	10.000000	-30.338650	0.000000	1.000000	0.000000
13.002278	10.000000	-30.338650	0.000000	1.000000	0.000000
13.301182	10.000000	-30.338650	0.000000	1.000000	0.000000
13.600084	10.000000	-30.338650	0.000000	1.000000	0.000000
13.898988	10.000000	-30.338650	0.000000	1.000000	0.000000
14.197890	10.000000	-30.338650	0.000000	1.000000	0.000000
14.496793	10.000000	-30.338650	0.000000	1.000000	0.000000
14.795696	10.000000	-30.338650	0.000000	1.000000	0.000000
15.094599	10.000000	-30.338650	0.000000	1.000000	0.000000
15.393502	10.000000	-30.338650	0.000000	1.000000	0.000000
15.692405	10.000000	-30.338650	0.000000	1.000000	0.000000
15.991308	10.000000	-30.338650	0.000000	1.000000	0.000000
16.290211	10.000000	-30.338650	0.000000	1.000000	0.000000
-7.323123	10.000000	-30.338650	0.000000	1.000000	0.000000
2.241772	10.000000	-30.338650	0.000000	1.000000	0.000000
1.942869	10.000000	-30.338650	0.000000	1.000000	0.000000
1.643966	10.000000	-30.338650	0.000000	1.000000	0.000000
1.345063	10.000000	-30.338650	0.000000	1.000000	0.000000
1.046160	10.000000	-30.338650	0.000000	1.000000	0.000000
0.747257	10.000000	-30.338650	0.000000	1.000000	0.000000
0.448354	10.000000	-30.338650	0.000000	1.000000	0.000000
17.451675	10.000000	-30.338650	0.498620	0.000000	-0.866820
0.149451	10.000000	-30.338650	0.000000	1.000000	0.000000
-0.149451	10.000000	-30.338650	0.000000	1.000000	0.000000
-0.448354	10.000000	-30.338650	0.000000	1.000000	0.000000
-0.747257	10.000000	-30.338650	0.000000	1.000000	0.000000
-1.046160	10.000000	-30.338650	0.000000	1.000000	0.000000
-1.345063	10.000000	-30.338650	0.000000	1.000000	0.000000
-1.643966	10.000000	-30.338650	0.000000	1.000000	0.000000
-1.942869	10.000000	-30.338650	0.000000	1.000000	0.000000
-2.241772	10.000000	-30.338650	0.000000	1.000000	0.000000
-2.540675	10.000000	-30.338650	0.000000	1.000000	0.000000
-2.839578	10.000000	-30.338650	0.000000	1.000000	0.000000
17.186920	10.000000	-30.338650	0.000000	1.000000	0.000000
-17.451675	10.000000	-30.338650	-0.498620	0.000000	-0.866820
-3.138481	10.000000	-30.338650	0.000000	1.000000	0.000000
16.888018	10.000000	-30.338650	0.000000	1.000000	0.000000
-3.437384	10.000000	-30.338650	0.000000	1.000000	0.000000
16.589113	10.000000	-30.338650	0.000000	1.000000	0.000000
-3.736287	10.000000	-30.338650	0.000000	1.000000	0.000000
-4.035190	10.000000	-30.338650	0.000000	1.000000	0.000000
-4.334093	10.000000	-30.338650	0.000000	1.000000	0.000000
-4.632996	10.000000	-30.338650	0.000000	1.000000	0.000000
-4.931899	10.000000	-30.338650	0.000000	1.000000	0.000000
-5.230802	10.000000	-30.338650	0.000000	1.000000	0.000000
-5.529705	10.000000	-30.338650	0.000000	1.000000	0.000000
-5.828608	10.000000	-30.338650	0.000000	1.000000	0.000000
-6.127511	10.000000	-30.338650	0.000000	1.000000	0.000000
-6.426414	10.000000	-30.338650	0.000000	1.000000	0.000000
-6.725317	10.000000	-30.338650	0.000000	1.000000	0.000000
-7.024220	10.000000	-30.338650	0.000000	1.000000	0.000000
-7.622025	10.000000	-30.338650	0.000000	1.000000	0.000000
-7.920928	10.000000	-30.338650	0.000000	1.000000	0.000000
-8.219831	10.000000	-30.338650	0.000000	1.000000	0.000000
-8.518734	10.000000	-30.338650	0.000000	1.000000	0.000000
-8.817637	10.000000	-30.338650	0.000000	1.000000	0.000000
-9.116540	10.000000	-30.338650	0.000000	1.000000	0.000000
-9.415443	10.000000	-30.338650	0.000000	1.000000	0.000000
-9.714346	10.000000	-30.338650	0.000000	1.000000	0.000000
-10.013249	10.000000	-30.338650	0.000000	1.000000	0.000000
-10.312152	10.000000	-30.338650	0.000000	1.000000	0.000000
-10.611054	10.000000	-30.338650	0.000000	1.000000	0.000000
-10.909958	10.000000	-30.338650	0.000000	1.000000	0.000000
-11.208860	10.000000	-30.338650	0.000000	1.000000	0.000000
-11.507764	10.000000	-30.338650	0.000000	1.000000	0.000000
-11.806666	10.000000	-30.338650	0.000000	1.000000	0.000000
-12.105570	10.000000	-30.338650	0.000000	1.000000	0.000000
-12.404472	10.000000	-30.338650	0.000000	1.000000	0.000000
-12.703376	10.000000	-30.338650	0.000000	1.000000	0.000000
-13.002278	10.000000	-30.338650	0.000000	1.000000	0.000000
-13.301182	10.000000	-30.338650	0.000000	1.000000	0.000000
-13.600084	10.000000	-30.338650	0.000000	1.000000	0.000000
8.518734	10.000000	-30.338650	0.000000	1.000000	0.000000
8.219831	10.000000	-30.338650	0.000000	1.000000	0.000000
7.920928	10.000000	-30.338650	0.000000	1.000000	0.000000
7.622025	10.000000	-30.338650	0.000000	1.000000	0.000000
7.323123	10.000000	-30.338650	0.000000	1.000000	0.000000
7.024220	10.000000	-30.338650	0.000000	1.000000	0.000000
6.725317	10.000000	-30.338650	0.000000	1.000000	0.000000
6.426414	10.000000	-30.338650	0.000000	1.000000	0.000000
6.127511	10.000000	-30.338650	0.000000	1.000000	0.000000
5.828608	10.000000	-30.338650	0.000000	1.000000	0.000000
5.529705	10.000000	-30.338650	0.000000	1.000000	0.000000
5.230802	10.000000	-30.338650	0.000000	1.000000	0.000000
4.931899	10.000000	-30.338650	0.000000	1.000000	0.000000
4.632996	10.000000	-30.338650	0.000000	1.000000	0.000000
4.334093	10.000000	-30.338650	0.000000	1.000000	0.000000
4.035190	10.000000	-30.338650	0.000000	1.000000	0.000000
3.736287	10.000000	-30.338650	0.000000	1.000000	0.000000
3.437384	10.000000	-30.338650	0.000000	1.000000	0.000000
3.138481	10.000000	-30.338650	0.000000	1.000000	0.000000
2.839578	10.000000	-30.338650	0.000000	1.000000	0.000000
2.540675	10.000000	-30.338650	0.000000	1.000000	0.000000
-17.485823	10.000000	-30.318838	-0.499598	0.000000	-0.866257
17.485823	10.000000	-30.318838	0.499598	0.000000	-0.866257
17.693975	5.428571	-30.198067	0.505542	0.000000	-0.862802
17.693975	5.142857	-30.198067	0.505542	0.000000	-0.862802
17.693975	4.857143	-30.198067	0.505542	0.000000	-0.862802
17.693975	4.571429	-30.198067	0.505542	0.000000	-0.862802
17.693975	4.285714	-30.198067	0.505542	0.000000	-0.862802
17.693975	7.714286	-30.198067	0.505542	0.000000	-0.862802
17.693975	10.000000	-30.198067	0.505542	0.000000	-0.862802
17.693975	4.000000	-30.198067	0.505542	0.000000	-0.862802
17.693975	9.714286	-30.198067	0.505542	0.000000	-0.862802
17.693975	6.000000	-30.198067	0.505542	0.000000	-0.862802
17.693975	6.571429	-30.198067	0.505542	0.000000	-0.862802
17.693975	9.428572	-30.198067	0.505542	0.000000	-0.862802
17.693975	9.142858	-30.198067	0.505542	0.000000	-0.862802
17.693975	8.857142	-30.198067	0.505542	0.000000	-0.862802
17.693975	8.571428	-30.198067	0.505542	0.000000	-0.862802
17.693975	8.285714	-30.198067	0.505542	0.000000	-0.862802
17.693975	8.000000	-30.198067	0.505542	0.000000	-0.862802
17.693975	7.428571	-30.198067	0.505542	0.000000	-0.862802
17.693975	7.142857	-30.198067	0.505542	0.000000	-0.862802
17.693975	6.857143	-30.198067	0.505542	0.000000	-0.862802
17.693975	6.285714	-30.198067	0.505542	0.000000	-0.862802
17.693975	5.714286	-30.198067	0.505542	0.000000	-0.862802
-17.693975	6.285714	-30.198067	-0.505542	0.000000	-0.862802
-17.693975	8.857142	-30.198067	-0.505542	0.000000	-0.862802
-17.693975	9.142858	-30.198067	-0.505542	0.000000	-0.862802
-17.693975	9.428572	-30.198067	-0.505542	0.000000	-0.862802
-17.693975	7.428571	-30.198067	-0.505542	0.000000	-0.862802
-17.693975	8.285714	-30.198067	-0.505542	0.000000	-0.862802
-17.693975	9.714286	-30.198067	-0.505542	0.000000	-0.862802
-17.693975	7.142857	-30.198067	-0.505542	0.000000	-0.862802
-17.693975	6.857143	-30.198067	-0.505542	0.000000	-0.862802
-17.693975	6.571429	-30.198067	-0.505542	0.000000	-0.862802
-17.693975	6.000000	-30.198067	-0.505542	0.000000	-0.862802
-17.693975	10.000000	-30.198067	-0.505542	0.000000	-0.862802
-17.693975	5.714286	-30.198067	-0.505542	0.000000	-0.862802
-17.693975	7.714286	-30.198067	-0.505542	0.000000	-0.862802
-17.693975	5.428571	-30.198067	-0.505542	0.000000	-0.862802
-17.693975	5.142857	-30.198067	-0.505542	0.000000	-0.862802
-17.693975	4.857143	-30.198067	-0.505542	0.000000	-0.862802
-17.693975	4.000000	-30.198067	-0.505542	0.000000	-0.862802
-17.693975	4.571429	-30.198067	-0.505542	0.000000	-0.862802
-17.693975	4.285714	-30.198067	-0.505542	0.000000	-0.862802
-17.693975	8.571428	-30.198067	-0.505542	0.000000	-0.862802
-17.693975	8.000000	-30.198067	-0.505542	0.000000	-0.862802
-17.784725	10.000000	-30.144371	-0.508139	0.000000	-0.861275
17.784725	10.000000	-30.144371	0.508139	0.000000	-0.861275
17.951475	9.714286	-30.045708	0.512899	0.000000	-0.858449
17.951475	4.571429	-30.045708	0.512899	0.000000	-0.858449
17.951475	4.000000	-30.045708	0.512899	0.000000	-0.858449
17.951475	10.000000	-30.045708	0.512899	0.000000	-0.858449
17.951475	4.285714	-30.045708	0.512899	0.000000	-0.858449
17.951475	4.857143	-30.045708	0.512899	0.000000	-0.858449
17.951475	5.142857	-30.045708	0.512899	0.000000	-0.858449
17.951475	5.428571	-30.045708	0.512899	0.000000	-0.858449
17.951475	5.714286	-30.045708	0.512899	0.000000	-0.858449
17.951475	6.000000	-30.045708	0.512899	0.000000	-0.858449
17.951475	6.285714	-30.045708	0.512899	0.000000	-0.858449
17.951475	6.571429	-30.045708	0.512899	0.000000	-0.858449
17.951475	6.857143	-30.045708	0.512899	0.000000	-0.858449
17.951475	7.142857	-30.045708	0.512899	0.000000	-0.858449
17.951475	7.428571	-30.045708	0.512899	0.000000	-0.858449
17.951475	7.714286	-30.045708	0.512899	0.000000	-0.858449
17.951475	8.000000	-30.045708	0.512899	0.000000	-0.858449
17.951475	8.285714	-30.045708	0.512899	0.000000	-0.858449
17.951475	8.571428	-30.045708	0.512899	0.000000	-0.858449
17.951475	8.857142	-30.045708	0.512899	0.000000	-0.858449
17.951475	9.142858	-30.045708	0.512899	0.000000	-0.858449
17.951475	9.428572	-30.045708	0.512899	0.000000	-0.858449
-17.951475	4.000000	-30.045708	-0.512899	0.000000	-0.858449
-17.951475	4.285714	-30.045708	-0.512899	0.000000	-0.858449
-17.951475	5.714286	-30.045708	-0.512899	0.000000	-0.858449
-17.951475	10.000000	-30.045708	-0.512899	0.000000	-0.858449
-17.951475	4.571429	-30.045708	-0.512899	0.000000	-0.858449
-17.951475	4.857143	-30.045708	-0.512899	0.000000	-0.858449
-17.951475	5.142857	-30.045708	-0.512899	0.000000	-0.858449
-17.951475	5.428571	-30.045708	-0.512899	0.000000	-0.858449
-17.951475	6.000000	-30.045708	-0.512899	0.000000	-0.858449
-17.951475	6.285714	-30.045708	-0.512899	0.000000	-0.858449
-17.951475	6.571429	-30.045708	-0.512899	0.000000	-0.858449
-17.951475	6.857143	-30.045708	-0.512899	0.000000	-0.858449
-17.951475	7.142857	-30.045708	-0.512899	0.000000	-0.858449
-17.951475	7.428571	-30.045708	-0.512899	0.000000	-0.858449
-17.951475	7.714286	-30.045708	-0.512899	0.000000	-0.858449
-17.951475	8.000000	-30.045708	-0.512899	0.000000	-0.858449
-17.951475	8.285714	-30.045708	-0.512899	0.000000	-0.858449
-17.951475	8.571428	-30.045708	-0.512899	0.000000	-0.858449
-17.951475	8.857142	-30.045708	-0.512899	0.000000	-0.858449
-17.951475	9.142858	-30.045708	-0.512899	0.000000	-0.858449
-17.951475	9.428572	-30.045708	-0.512899	0.000000	-0.858449
-17.951475	9.714286	-30.045708	-0.512899	0.000000	-0.858449
7.323123	10.000000	-30.039747	0.000000	1.000000	0.000000
7.024220	10.000000	-30.039747	0.000000	1.000000	0.000000
4.931899	10.000000	-30.039747	0.000000	1.000000	0.000000
6.725317	10.000000	-30.039747	0.000000	1.000000	0.000000
6.426414	10.000000	-30.039747	0.000000	1.000000	0.000000
-1.942869	10.000000	-30.039747	0.000000	1.000000	0.000000
6.127511	10.000000	-30.039747	0.000000	1.000000	0.000000
17.784725	10.000000	-30.039747	0.000000	1.000000	0.000000
5.828608	10.000000	-30.039747	0.000000	1.000000	0.000000
-17.485823	10.000000	-30.039747	0.000000	1.000000	0.000000
-17.186920	10.000000	-30.039747	0.000000	1.000000	0.000000
-16.888018	10.000000	-30.039747	0.000000	1.000000	0.000000
-16.589113	10.000000	-30.039747	0.000000	1.000000	0.000000
-13.301182	10.000000	-30.039747	0.000000	1.000000	0.000000
-13.002278	10.000000	-30.039747	0.000000	1.000000	0.000000
-16.290211	10.000000	-30.039747	0.000000	1.000000	0.000000
-12.703376	10.000000	-30.039747	0.000000	1.000000	0.000000
-12.404472	10.000000	-30.039747	0.000000	1.000000	0.000000
-12.105570	10.000000	-30.039747	0.000000	1.000000	0.000000
-11.806666	10.000000	-30.039747	0.000000	1.000000	0.000000
-11.507764	10.000000	-30.039747	0.000000	1.000000	0.000000
-11.208860	10.000000	-30.039747	0.000000	1.000000	0.000000
-10.909958	10.000000	-30.039747	0.000000	1.000000	0.000000
-10.611054	10.000000	-30.039747	0.000000	1.000000	0.000000
-10.312152	10.000000	-30.039747	0.000000	1.000000	0.000000
-10.013249	10.000000	-30.039747	0.000000	1.000000	0.000000
-9.714346	10.000000	-30.039747	0.000000	1.000000	0.000000
-9.415443	10.000000	-30.039747	0.000000	1.000000	0.000000
5.529705	10.000000	-30.039747	0.000000	1.000000	0.000000
-8.817637	10.000000	-30.039747	0.000000	1.000000	0.000000
-8.518734	10.000000	-30.039747	0.000000	1.000000	0.000000
-8.219831	10.000000	-30.039747	0.000000	1.000000	0.000000
-7.920928	10.000000	-30.039747	0.000000	1.000000	0.000000
-7.622025	10.000000	-30.039747	0.000000	1.000000	0.000000
-7.323123	10.000000	-30.039747	0.000000	1.000000	0.000000
-6.725317	10.000000	-30.039747	0.000000	1.000000	0.000000
-6.426414	10.000000	-30.039747	0.000000	1.000000	0.000000
-6.127511	10.000000	-30.039747	0.000000	1.000000	0.000000
-5.828608	10.000000	-30.039747	0.000000	1.000000	0.000000
-5.529705	10.000000	-30.039747	0.000000	1.000000	0.000000
-5.230802	10.000000	-30.039747	0.000000	1.000000	0.000000
-4.931899	10.000000	-30.039747	0.000000	1.000000	0.000000
-4.632996	10.000000	-30.039747	0.000000	1.000000	0.000000
-4.334093	10.000000	-30.039747	0.000000	1.000000	0.000000
-4.035190	10.000000	-30.039747	0.000000	1.000000	0.000000
-3.736287	10.000000	-30.039747	0.000000	1.000000	0.000000
-3.437384	10.000000	-30.039747	0.000000	1.000000	0.000000
-3.138481	10.000000	-30.039747	0.000000	1.000000	0.000000
-2.839578	10.000000	-30.039747	0.000000	1.000000	0.000000
-2.540675	10.000000	-30.039747	0.000000	1.000000	0.000000
-2.241772	10.000000	-30.039747	0.000000	1.000000	0.000000
-7.024220	10.000000	-30.039747	0.000000	1.000000	0.000000
-1.345063	10.000000	-30.039747	0.000000	1.000000	0.000000
-1.046160	10.000000	-30.039747	0.000000	1.000000	0.000000
-0.747257	10.000000	-30.039747	0.000000	1.000000	0.000000
-0.448354	10.000000	-30.039747	0.000000	1.000000	0.000000
-0.149451	10.000000	-30.039747	0.000000	1.000000	0.000000
0.149451	10.000000	-30.039747	0.000000	1.000000	0.000000
0.448354	10.000000	-30.039747	0.000000	1.000000	0.000000
0.747257	10.000000	-30.039747	0.000000	1.000000	0.000000
1.046160	10.000000	-30.039747	0.000000	1.000000	0.000000
1.345063	10.000000	-30.039747	0.000000	1.000000	0.000000
1.643966	10.000000	-30.039747	0.000000	1.000000	0.000000
1.942869	10.000000	-30.039747	0.000000	1.000000	0.000000
9.116540	10.000000	-30.039747	0.000000	1.000000	0.000000
9.415443	10.000000	-30.039747	0.000000	1.000000	0.000000
9.714346	10.000000	-30.039747	0.000000	1.000000	0.000000
10.013249	10.000000	-30.039747	0.000000	1.000000	0.000000
-1.643966	10.000000	-30.039747	0.000000	1.000000	0.000000
-9.116540	10.000000	-30.039747	0.000000	1.000000	0.000000
2.241772	10.000000	-30.039747	0.000000	1.000000	0.000000
2.540675	10.000000	-30.039747	0.000000	1.000000	0.000000
2.839578	10.000000	-30.039747	0.000000	1.000000	0.000000
5.230802	10.000000	-30.039747	0.000000	1.000000	0.000000
3.138481	10.000000	-30.039747	0.000000	1.000000	0.000000
3.437384	10.000000	-30.039747	0.000000	1.000000	0.000000
3.736287	10.000000	-30.039747	0.000000	1.000000	0.000000
4.035190	10.000000	-30.039747	0.000000	1.000000	0.000000
4.334093	10.000000	-30.039747	0.000000	1.000000	0.000000
8.817637	10.000000	-30.039747	0.000000	1.000000	0.000000
4.632996	10.000000	-30.039747	0.000000	1.000000	0.000000
17.961355	10.000000	-30.039747	0.513182	0.000000	-0.858280
8.518734	10.000000	-30.039747	0.000000	1.000000	0.000000
-13.600084	10.000000	-30.039747	0.000000	1.000000	0.000000
-15.692405	10.000000	-30.039747	0.000000	1.000000	0.000000
8.219831	10.000000	-30.039747	0.000000	1.000000	0.000000
7.920928	10.000000	-30.039747	0.000000	1.000000	0.000000
-17.961355	10.000000	-30.039747	-0.513182	0.000000	-0.858280
7.622025	10.000000	-30.039747	0.000000	1.000000	0.000000
16.888018	10.000000	-30.039747	0.000000	1.000000	0.000000
10.312152	10.000000	-30.039747	0.000000	1.000000	0.000000
10.611054	10.000000	-30.039747	0.000000	1.000000	0.000000
10.909958	10.000000	-30.039747	0.000000	1.000000	0.000000
11.208860	10.000000	-30.039747	0.000000	1.000000	0.000000
11.507764	10.000000	-30.039747	0.000000	1.000000	0.000000
11.806666	10.000000	-30.039747	0.000000	1.000000	0.000000
12.105570	10.000000	-30.039747	0.000000	1.000000	0.000000
12.404472	10.000000	-30.039747	0.000000	1.000000	0.000000
12.703376	10.000000	-30.039747	0.000000	1.000000	0.000000
13.002278	10.000000	-30.039747	0.000000	1.000000	0.000000
13.301182	10.000000	-30.039747	0.000000	1.000000	0.000000
13.600084	10.000000	-30.039747	0.000000	1.000000	0.000000
13.898988	10.000000	-30.039747	0.000000	1.000000	0.000000
14.197890	10.000000	-30.039747	0.000000	1.000000	0.000000
14.496793	10.000000	-30.039747	0.000000	1.000000	0.000000
14.795696	10.000000	-30.039747	0.000000	1.000000	0.000000
15.094599	10.000000	-30.039747	0.000000	1.000000	0.000000
15.393502	10.000000	-30.039747	0.000000	1.000000	0.000000
15.692405	10.000000	-30.039747	0.000000	1.000000	0.000000
15.991308	10.000000	-30.039747	0.000000	1.000000	0.000000
16.290211	10.000000	-30.039747	0.000000	1.000000	0.000000
16.589113	10.000000	-30.039747	0.000000	1.000000	0.000000
17.186920	10.000000	-30.039747	0.000000	1.000000	0.000000
17.485823	10.000000	-30.039747	0.000000	1.000000	0.000000
-15.991308	10.000000	-30.039747	0.000000	1.000000	0.000000
-15.393502	10.000000	-30.039747	0.000000	1.000000	0.000000
-15.094599	10.000000	-30.039747	0.000000	1.000000	0.000000
-14.795696	10.000000	-30.039747	0.000000	1.000000	0.000000
-14.496793	10.000000	-30.039747	0.000000	1.000000	0.000000
-14.197890	10.000000	-30.039747	0.000000	1.000000	0.000000
-17.784725	10.000000	-30.039747	0.000000	1.000000	0.000000
-13.898988	10.000000	-30.039747	0.000000	1.000000	0.000000
-18.083630	10.000000	-29.965981	-0.516680	0.000000	-0.856179
18.083630	10.000000	-29.965981	0.516680	0.000000	-0.856179
18.207663	8.857142	-29.891153	0.520219	0.000000	-0.854033
18.207663	9.142858	-29.891153	0.520219	0.000000	-0.854033
18.207663	9.428572	-29.891153	0.520219	0.000000	-0.854033
18.207663	9.714286	-29.891153	0.520219	0.000000	-0.854033
18.207663	4.000000	-29.891153	0.520219	0.000000	-0.854033
18.207663	7.142857	-29.891153	0.520219	0.000000	-0.854033
18.207663	7.428571	-29.891153	0.520219	0.000000	-0.854033
18.207663	7.714286	-29.891153	0.520219	0.000000	-0.854033
18.207663	8.000000	-29.891153	0.520219	0.000000	-0.854033
18.207663	10.000000	-29.891153	0.520219	0.000000	-0.854033
18.207663	8.285714	-29.891153	0.520219	0.000000	-0.854033
18.207663	8.571428	-29.891153	0.520219	0.000000	-0.854033
18.207663	4.285714	-29.891153	0.520219	0.000000	-0.854033
18.207663	4.571429	-29.891153	0.520219	0.000000	-0.854033
18.207663	4.857143	-29.891153	0.520219	0.000000	-0.854033
18.207663	5.142857	-29.891153	0.520219	0.000000	-0.854033
18.207663	5.428571	-29.891153	0.520219	0.000000	-0.854033
18.207663	5.714286	-29.891153	0.520219	0.000000	-0.854033
18.207663	6.000000	-29.891153	0.520219	0.000000	-0.854033
18.207663	6.285714	-29.891153	0.520219	0.000000	-0.854033
18.207663	6.571429	-29.891153	0.520219	0.000000	-0.854033
18.207663	6.857143	-29.891153	0.520219	0.000000	-0.854033
-18.207663	8.285714	-29.891153	-0.520219	0.000000	-0.854033
-18.207663	4.000000	-29.891153	-0.520219	0.000000	-0.854033
-18.207663	8.000000	-29.891153	-0.520219	0.000000	-0.854033
-18.207663	7.714286	-29.891153	-0.520219	0.000000	-0.854033
-18.207663	7.428571	-29.891153	-0.520219	0.000000	-0.854033
-18.207663	7.142857	-29.891153	-0.520219	0.000000	-0.854033
-18.207663	6.857143	-29.891153	-0.520219	0.000000	-0.854033
-18.207663	10.000000	-29.891153	-0.520219	0.000000	-0.854033
-18.207663	6.571429	-29.891153	-0.520219	0.000000	-0.854033
-18.207663	9.428572	-29.891153	-0.520219	0.000000	-0.854033
-18.207663	4.285714	-29.891153	-0.520219	0.000000	-0.854033
-18.207663	6.285714	-29.891153	-0.520219	0.000000	-0.854033
-18.207663	4.571429	-29.891153	-0.520219	0.000000	-0.854033
-18.207663	4.857143	-29.891153	-0.520219	0.000000	-0.854033
-18.207663	5.142857	-29.891153	-0.520219	0.000000	-0.854033
-18.207663	5.428571	-29.891153	-0.520219	0.000000	-0.854033
-18.207663	9.714286	-29.891153	-0.520219	0.000000	-0.854033
-18.207663	6.000000	-29.891153	-0.520219	0.000000	-0.854033
-18.207663	8.857142	-29.891153	-0.520219	0.000000	-0.854033
-18.207663	8.571428	-29.891153	-0.520219	0.000000	-0.854033
-18.207663	5.714286	-29.891153	-0.520219	0.000000	-0.854033
-18.207663	9.142858	-29.891153	-0.520219	0.000000	-0.854033
-18.382532	10.000000	-29.783607	-0.525219	0.000000	-0.850967
18.382532	10.000000	-29.783607	0.525219	0.000000	-0.850967
8.219831	10.000000	-29.740845	0.000000	1.000000	0.000000
7.920928	10.000000	-29.740845	0.000000	1.000000	0.000000
7.622025	10.000000	-29.740845	0.000000	1.000000	0.000000
7.323123	10.000000	-29.740845	0.000000	1.000000	0.000000
7.024220	10.000000	-29.740845	0.000000	1.000000	0.000000
6.725317	10.000000	-29.740845	0.000000	1.000000	0.000000
6.426414	10.000000	-29.740845	0.000000	1.000000	0.000000
6.127511	10.000000	-29.740845	0.000000	1.000000	0.000000
5.828608	10.000000	-29.740845	0.000000	1.000000	0.000000
5.529705	10.000000	-29.740845	0.000000	1.000000	0.000000
5.230802	10.000000	-29.740845	0.000000	1.000000	0.000000
4.931899	10.000000	-29.740845	0.000000	1.000000	0.000000
4.632996	10.000000	-29.740845	0.000000	1.000000	0.000000
4.334093	10.000000	-29.740845	0.000000	1.000000	0.000000
4.035190	10.000000	-29.740845	0.000000	1.000000	0.000000
3.736287	10.000000	-29.740845	0.000000	1.000000	0.000000
3.437384	10.000000	-29.740845	0.000000	1.000000	0.000000
3.138481	10.000000	-29.740845	0.000000	1.000000	0.000000
2.839578	10.000000	-29.740845	0.000000	1.000000	0.000000
2.540675	10.000000	-29.740845	0.000000	1.000000	0.000000
2.241772	10.000000	-29.740845	0.000000	1.000000	0.000000
1.942869	10.000000	-29.740845	0.000000	1.000000	0.000000
1.643966	10.000000	-29.740845	0.000000	1.000000	0.000000
1.345063	10.000000	-29.740845	0.000000	1.000000	0.000000
1.046160	10.000000	-29.740845	0.000000	1.000000	0.000000
0.747257	10.000000	-29.740845	0.000000	1.000000	0.000000
0.448354	10.000000	-29.740845	0.000000	1.000000	0.000000
0.149451	10.000000	-29.740845	0.000000	1.000000	0.000000
-0.149451	10.000000	-29.740845	0.000000	1.000000	0.000000
-0.448354	10.000000	-29.740845	0.000000	1.000000	0.000000
-0.747257	10.000000	-29.740845	0.000000	1.000000	0.000000
-1.046160	10.000000	-29.740845	0.000000	1.000000	0.000000
-1.345063	10.000000	-29.740845	0.000000	1.000000	0.000000
-1.643966	10.000000	-29.740845	0.000000	1.000000	0.000000
-1.942869	10.000000	-29.740845	0.000000	1.000000	0.000000
-2.241772	10.000000	-29.740845	0.000000	1.000000	0.000000
-2.540675	10.000000	-29.740845	0.000000	1.000000	0.000000
-2.839578	10.000000	-29.740845	0.000000	1.000000	0.000000
-3.138481	10.000000	-29.740845	0.000000	1.000000	0.000000
-3.437384	10.000000	-29.740845	0.000000	1.000000	0.000000
-3.736287	10.000000	-29.740845	0.000000	1.000000	0.000000
-4.035190	10.000000	-29.740845	0.000000	1.000000	0.000000
-4.334093	10.000000	-29.740845	0.000000	1.000000	0.000000
-4.632996	10.000000	-29.740845	0.000000	1.000000	0.000000
-4.931899	10.000000	-29.740845	0.000000	1.000000	0.000000
-5.230802	10.000000	-29.740845	0.000000	1.000000	0.000000
-5.529705	10.000000	-29.740845	0.000000	1.000000	0.000000
-5.828608	10.000000	-29.740845	0.000000	1.000000	0.000000
-6.127511	10.000000	-29.740845	0.000000	1.000000	0.000000
-6.426414	10.000000	-29.740845	0.000000	1.000000	0.000000
-6.725317	10.000000	-29.740845	0.000000	1.000000	0.000000
-7.024220	10.000000	-29.740845	0.000000	1.000000	0.000000
-7.323123	10.000000	-29.740845	0.000000	1.000000	0.000000
-7.622025	10.000000	-29.740845	0.000000	1.000000	0.000000
-7.920928	10.000000	-29.740845	0.000000	1.000000	0.000000
-8.219831	10.000000	-29.740845	0.000000	1.000000	0.000000
-8.518734	10.000000	-29.740845	0.000000	1.000000	0.000000
-8.817637	10.000000	-29.740845	0.000000	1.000000	0.000000
-9.116540	10.000000	-29.740845	0.000000	1.000000	0.000000
-9.415443	10.000000	-29.740845	0.000000	1.000000	0.000000
-9.714346	10.000000	-29.740845	0.000000	1.000000	0.000000
-10.013249	10.000000	-29.740845	0.000000	1.000000	0.000000
-10.312152	10.000000	-29.740845	0.000000	1.000000	0.000000
-10.611054	10.000000	-29.740845	0.000000	1.000000	0.000000
-10.909958	10.000000	-29.740845	0.000000	1.000000	0.000000
-11.208860	10.000000	-29.740845	0.000000	1.000000	0.000000
-11.507764	10.000000	-29.740845	0.000000	1.000000	0.000000
-11.806666	10.000000	-29.740845	0.000000	1.000000	0.000000
-12.105570	10.000000	-29.740845	0.000000	1.000000	0.000000
-12.404472	10.000000	-29.740845	0.000000	1.000000	0.000000
-12.703376	10.000000	-29.740845	0.000000	1.000000	0.000000
-13.002278	10.000000	-29.740845	0.000000	1.000000	0.000000
-13.301182	10.000000	-29.740845	0.000000	1.000000	0.000000
-13.600084	10.000000	-29.740845	0.000000	1.000000	0.000000
-13.898988	10.000000	-29.740845	0.000000	1.000000	0.000000
-14.197890	10.000000	-29.740845	0.000000	1.000000	0.000000
-14.496793	10.000000	-29.740845	0.000000	1.000000	0.000000
-14.795696	10.000000	-29.740845	0.000000	1.000000	0.000000
-15.094599	10.000000	-29.740845	0.000000	1.000000	0.000000
-15.393502	10.000000	-29.740845	0.000000	1.000000	0.000000
-15.692405	10.000000	-29.740845	0.000000	1.000000	0.000000
-15.991308	10.000000	-29.740845	0.000000	1.000000	0.000000
-16.290211	10.000000	-29.740845	0.000000	1.000000	0.000000
-16.589113	10.000000	-29.740845	0.000000	1.000000	0.000000
-16.888018	10.000000	-29.740845	0.000000	1.000000	0.000000
-17.186920	10.000000	-29.740845	0.000000	1.000000	0.000000
-17.485823	10.000000	-29.740845	0.000000	1.000000	0.000000
-17.784725	10.000000	-29.740845	0.000000	1.000000	0.000000
-18.083630	10.000000	-29.740845	0.000000	1.000000	0.000000
-18.382532	10.000000	-29.740845	0.000000	1.000000	0.000000
18.382532	10.000000	-29.740845	0.000000	1.000000	0.000000
-18.452065	10.000000	-29.740845	-0.527203	0.000000	-0.849740
18.452065	10.000000	-29.740845	0.527203	0.000000	-0.849740
18.083630	10.000000	-29.740845	0.000000	1.000000	0.000000
17.784725	10.000000	-29.740845	0.000000	1.000000	0.000000
17.485823	10.000000	-29.740845	0.000000	1.000000	0.000000
17.186920	10.000000	-29.740845	0.000000	1.000000	0.000000
16.888018	10.000000	-29.740845	0.000000	1.000000	0.000000
16.589113	10.000000	-29.740845	0.000000	1.000000	0.000000
16.290211	10.000000	-29.740845	0.000000	1.000000	0.000000
15.991308	10.000000	-29.740845	0.000000	1.000000	0.000000
15.692405	10.000000	-29.740845	0.000000	1.000000	0.000000
15.393502	10.000000	-29.740845	0.000000	1.000000	0.000000
15.094599	10.000000	-29.740845	0.000000	1.000000	0.000000
14.795696	10.000000	-29.740845	0.000000	1.000000	0.000000
14.496793	10.000000	-29.740845	0.000000	1.000000	0.000000
14.197890	10.000000	-29.740845	0.000000	1.000000	0.000000
13.898988	10.000000	-29.740845	0.000000	1.000000	0.000000
13.600084	10.000000	-29.740845	0.000000	1.000000	0.000000
13.301182	10.000000	-29.740845	0.000000	1.000000	0.000000
13.002278	10.000000	-29.740845	0.000000	1.000000	0.000000
12.703376	10.000000	-29.740845	0.000000	1.000000	0.000000
12.404472	10.000000	-29.740845	0.000000	1.000000	0.000000
12.105570	10.000000	-29.740845	0.000000	1.000000	0.000000
11.806666	10.000000	-29.740845	0.000000	1.000000	0.000000
11.507764	10.000000	-29.740845	0.000000	1.000000	0.000000
11.208860	10.000000	-29.740845	0.000000	1.000000	0.000000
10.909958	10.000000	-29.740845	0.000000	1.000000	0.000000
10.611054	10.000000	-29.740845	0.000000	1.000000	0.000000
10.312152	10.000000	-29.740845	0.000000	1.000000	0.000000
10.013249	10.000000	-29.740845	0.000000	1.000000	0.000000
9.714346	10.000000	-29.740845	0.000000	1.000000	0.000000
9.415443	10.000000	-29.740845	0.000000	1.000000	0.000000
9.116540	10.000000	-29.740845	0.000000	1.000000	0.000000
8.817637	10.000000	-29.740845	0.000000	1.000000	0.000000
8.518734	10.000000	-29.740845	0.000000	1.000000	0.000000
18.462521	10.000000	-29.734413	0.527501	0.000000	-0.849555
18.462521	6.285714	-29.734413	0.527501	0.000000	-0.849555
18.462521	6.000000	-29.734413	0.527501	0.000000	-0.849555
18.462521	5.714286	-29.734413	0.527501	0.000000	-0.849555
18.462521	5.428571	-29.734413	0.527501	0.000000	-0.849555
18.462521	5.142857	-29.734413	0.527501	0.000000	-0.849555
18.462521	4.857143	-29.734413	0.527501	0.000000	-0.849555
18.462521	4.571429	-29.734413	0.527501	0.000000	-0.849555
18.462521	4.285714	-29.734413	0.527501	0.000000	-0.849555
18.462521	8.857142	-29.734413	0.527501	0.000000	-0.849555
18.462521	9.714286	-29.734413	0.527501	0.000000	-0.849555
18.462521	9.428572	-29.734413	0.527501	0.000000	-0.849555
18.462521	9.142858	-29.734413	0.527501	0.000000	-0.849555
18.462521	8.571428	-29.734413	0.527501	0.000000	-0.849555
18.462521	8.285714	-29.734413	0.527501	0.000000	-0.849555
18.462521	8.000000	-29.734413	0.527501	0.000000	-0.849555
18.462521	7.714286	-29.734413	0.527501	0.000000	-0.849555
18.462521	7.428571	-29.734413	0.527501	0.000000	-0.849555
18.462521	4.000000	-29.734413	0.527501	0.000000	-0.849555
18.462521	7.142857	-29.734413	0.527501	0.000000	-0.849555
18.462521	6.857143	-29.734413	0.527501	0.000000	-0.849555
18.462521	6.571429	-29.734413	0.527501	0.000000	-0.849555
-18.462521	9.714286	-29.734413	-0.527501	0.000000	-0.849555
-18.462521	7.714286	-29.734413	-0.527501	0.000000	-0.849555
-18.462521	4.571429	-29.734413	-0.527501	0.000000	-0.849555
-18.462521	6.000000	-29.734413	-0.527501	0.000000	-0.849555
-18.462521	8.571428	-29.734413	-0.527501	0.000000	-0.849555
-18.462521	4.000000	-29.734413	-0.527501	0.000000	-0.849555
-18.462521	10.000000	-29.734413	-0.527501	0.000000	-0.849555
-18.462521	4.285714	-29.734413	-0.527501	0.000000	-0.849555
-18.462521	6.285714	-29.734413	-0.527501	0.000000	-0.849555
-18.462521	7.428571	-29.734413	-0.527501	0.000000	-0.849555
-18.462521	5.142857	-29.734413	-0.527501	0.000000	-0.849555
-18.462521	5.428571	-29.734413	-0.527501	0.000000	-0.849555
-18.462521	5.714286	-29.734413	-0.527501	0.000000	-0.849555
-18.462521	6.571429	-29.734413	-0.527501	0.000000	-0.849555
-18.462521	6.857143	-29.734413	-0.527501	0.000000	-0.849555
-18.462521	8.000000	-29.734413	-0.527501	0.000000	-0.849555
-18.462521	8.285714	-29.734413	-0.527501	0.000000	-0.849555
-18.462521	7.142857	-29.734413	-0.527501	0.000000	-0.849555
-18.462521	9.428572	-29.734413	-0.527501	0.000000	-0.849555
-18.462521	9.142858	-29.734413	-0.527501	0.000000	-0.849555
-18.462521	8.857142	-29.734413	-0.527501	0.000000	-0.849555
-18.462521	4.857143	-29.734413	-0.527501	0.000000	-0.849555
-18.681435	10.000000	-29.597187	-0.533758	0.000000	-0.845638
18.681435	10.000000	-29.597187	0.533758	0.000000	-0.845638
18.716028	9.714286	-29.575500	0.534744	0.000000	-0.845014
18.716028	9.428572	-29.575500	0.534744	0.000000	-0.845014
18.716028	9.142858	-29.575500	0.534744	0.000000	-0.845014
18.716028	8.571428	-29.575500	0.534744	0.000000	-0.845014
18.716028	10.000000	-29.575500	0.534744	0.000000	-0.845014
18.716028	8.285714	-29.575500	0.534744	0.000000	-0.845014
18.716028	8.000000	-29.575500	0.534744	0.000000	-0.845014
18.716028	7.714286	-29.575500	0.534744	0.000000	-0.845014
18.716028	8.857142	-29.575500	0.534744	0.000000	-0.845014
18.716028	7.428571	-29.575500	0.534744	0.000000	-0.845014
18.716028	7.142857	-29.575500	0.534744	0.000000	-0.845014
18.716028	6.857143	-29.575500	0.534744	0.000000	-0.845014
18.716028	6.571429	-29.575500	0.534744	0.000000	-0.845014
18.716028	6.285714	-29.575500	0.534744	0.000000	-0.845014
18.716028	6.000000	-29.575500	0.534744	0.000000	-0.845014
18.716028	5.142857	-29.575500	0.534744	0.000000	-0.845014
18.716028	5.428571	-29.575500	0.534744	0.000000	-0.845014
18.716028	5.714286	-29.575500	0.534744	0.000000	-0.845014
18.716028	4.857143	-29.575500	0.534744	0.000000	-0.845014
18.716028	4.571429	-29.575500	0.534744	0.000000	-0.845014
18.716028	4.285714	-29.575500	0.534744	0.000000	-0.845014
18.716028	4.000000	-29.575500	0.534744	0.000000	-0.845014
-18.716028	7.714286	-29.575500	-0.534744	0.000000	-0.845014
-18.716028	10.000000	-29.575500	-0.534744	0.000000	-0.845014
-18.716028	8.000000	-29.575500	-0.534744	0.000000	-0.845014
-18.716028	4.000000	-29.575500	-0.534744	0.000000	-0.845014
-18.716028	7.428571	-29.575500	-0.534744	0.000000	-0.845014
-18.716028	7.142857	-29.575500	-0.534744	0.000000	-0.845014
-18.716028	6.857143	-29.575500	-0.534744	0.000000	-0.845014
-18.716028	6.571429	-29.575500	-0.534744	0.000000	-0.845014
-18.716028	6.285714	-29.575500	-0.534744	0.000000	-0.845014
-18.716028	6.000000	-29.575500	-0.534744	0.000000	-0.845014
-18.716028	5.714286	-29.575500	-0.534744	0.000000	-0.845014
-18.716028	5.428571	-29.575500	-0.534744	0.000000	-0.845014
-18.716028	5.142857	-29.575500	-0.534744	0.000000	-0.845014
-18.716028	4.857143	-29.575500	-0.534744	0.000000	-0.845014
-18.716028	4.571429	-29.575500	-0.534744	0.000000	-0.845014
-18.716028	8.571428	-29.575500	-0.534744	0.000000	-0.845014
-18.716028	8.285714	-29.575500	-0.534744	0.000000	-0.845014
-18.716028	4.285714	-29.575500	-0.534744	0.000000	-0.845014
-18.716028	9.714286	-29.575500	-0.534744	0.000000	-0.845014
-18.716028	9.428572	-29.575500	-0.534744	0.000000	-0.845014
-18.716028	9.142858	-29.575500	-0.534744	0.000000	-0.845014
-18.716028	8.857142	-29.575500	-0.534744	0.000000	-0.845014
18.681435	10.000000	-29.441940	0.000000	1.000000	0.000000
18.382532	10.000000	-29.441940	0.000000	1.000000	0.000000
-2.540675	10.000000	-29.441940	0.000000	1.000000	0.000000
-2.241772	10.000000	-29.441940	0.000000	1.000000	0.000000
-18.681435	10.000000	-29.441940	0.000000	1.000000	0.000000
-18.382532	10.000000	-29.441940	0.000000	1.000000	0.000000
-18.083630	10.000000	-29.441940	0.000000	1.000000	0.000000
-17.784725	10.000000	-29.441940	0.000000	1.000000	0.000000
-17.485823	10.000000	-29.441940	0.000000	1.000000	0.000000
-17.186920	10.000000	-29.441940	0.000000	1.000000	0.000000
-16.888018	10.000000	-29.441940	0.000000	1.000000	0.000000
-16.589113	10.000000	-29.441940	0.000000	1.000000	0.000000
-16.290211	10.000000	-29.441940	0.000000	1.000000	0.000000
-15.991308	10.000000	-29.441940	0.000000	1.000000	0.000000
-15.692405	10.000000	-29.441940	0.000000	1.000000	0.000000
-15.393502	10.000000	-29.441940	0.000000	1.000000	0.000000
10.909958	10.000000	-29.441940	0.000000	1.000000	0.000000
11.208860	10.000000	-29.441940	0.000000	1.000000	0.000000
11.507764	10.000000	-29.441940	0.000000	1.000000	0.000000
11.806666	10.000000	-29.441940	0.000000	1.000000	0.000000
12.105570	10.000000	-29.441940	0.000000	1.000000	0.000000
12.404472	10.000000	-29.441940	0.000000	1.000000	0.000000
13.002278	10.000000	-29.441940	0.000000	1.000000	0.000000
13.301182	10.000000	-29.441940	0.000000	1.000000	0.000000
13.600084	10.000000	-29.441940	0.000000	1.000000	0.000000
13.898988	10.000000	-29.441940	0.000000	1.000000	0.000000
14.197890	10.000000	-29.441940	0.000000	1.000000	0.000000
14.496793	10.000000	-29.441940	0.000000	1.000000	0.000000
14.795696	10.000000	-29.441940	0.000000	1.000000	0.000000
15.094599	10.000000	-29.441940	0.000000	1.000000	0.000000
15.393502	10.000000	-29.441940	0.000000	1.000000	0.000000
15.692405	10.000000	-29.441940	0.000000	1.000000	0.000000
15.991308	10.000000	-29.441940	0.000000	1.000000	0.000000
16.290211	10.000000	-29.441940	0.000000	1.000000	0.000000
16.589113	10.000000	-29.441940	0.000000	1.000000	0.000000
16.888018	10.000000	-29.441940	0.000000	1.000000	0.000000
17.186920	10.000000	-29.441940	0.000000	1.000000	0.000000
17.485823	10.000000	-29.441940	0.000000	1.000000	0.000000
17.784725	10.000000	-29.441940	0.000000	1.000000	0.000000
12.703376	10.000000	-29.441940	0.000000	1.000000	0.000000
18.925100	10.000000	-29.441940	0.540720	0.000000	-0.841203
-1.942869	10.000000	-29.441940	0.000000	1.000000	0.000000
-1.643966	10.000000	-29.441940	0.000000	1.000000	0.000000
-1.345063	10.000000	-29.441940	0.000000	1.000000	0.000000
-1.046160	10.000000	-29.441940	0.000000	1.000000	0.000000
-0.747257	10.000000	-29.441940	0.000000	1.000000	0.000000
-0.448354	10.000000	-29.441940	0.000000	1.000000	0.000000
-0.149451	10.000000	-29.441940	0.000000	1.000000	0.000000
0.149451	10.000000	-29.441940	0.000000	1.000000	0.000000
0.448354	10.000000	-29.441940	0.000000	1.000000	0.000000
0.747257	10.000000	-29.441940	0.000000	1.000000	0.000000
1.046160	10.000000	-29.441940	0.000000	1.000000	0.000000
1.345063	10.000000	-29.441940	0.000000	1.000000	0.000000
1.643966	10.000000	-29.441940	0.000000	1.000000	0.000000
1.942869	10.000000	-29.441940	0.000000	1.000000	0.000000
2.241772	10.000000	-29.441940	0.000000	1.000000	0.000000
2.540675	10.000000	-29.441940	0.000000	1.000000	0.000000
2.839578	10.000000	-29.441940	0.000000	1.000000	0.000000
3.138481	10.000000	-29.441940	0.000000	1.000000	0.000000
3.437384	10.000000	-29.441940	0.000000	1.000000	0.000000
3.736287	10.000000	-29.441940	0.000000	1.000000	0.000000
4.035190	10.000000	-29.441940	0.000000	1.000000	0.000000
4.334093	10.000000	-29.441940	0.000000	1.000000	0.000000
4.632996	10.000000	-29.441940	0.000000	1.000000	0.000000
4.931899	10.000000	-29.441940	0.000000	1.000000	0.000000
5.230802	10.000000	-29.441940	0.000000	1.000000	0.000000
5.529705	10.000000	-29.441940	0.000000	1.000000	0.000000
5.828608	10.000000	-29.441940	0.000000	1.000000	0.000000
6.127511	10.000000	-29.441940	0.000000	1.000000	0.000000
6.426414	10.000000	-29.441940	0.000000	1.000000	0.000000
6.725317	10.000000	-29.441940	0.000000	1.000000	0.000000
7.024220	10.000000	-29.441940	0.000000	1.000000	0.000000
7.323123	10.000000	-29.441940	0.000000	1.000000	0.000000
7.622025	10.000000	-29.441940	0.000000	1.000000	0.000000
7.920928	10.000000	-29.441940	0.000000	1.000000	0.000000
8.219831	10.000000	-29.441940	0.000000	1.000000	0.000000
-2.839578	10.000000	-29.441940	0.000000	1.000000	0.000000
8.817637	10.000000	-29.441940	0.000000	1.000000	0.000000
9.116540	10.000000	-29.441940	0.000000	1.000000	0.000000
