2.201017	2.500000	-5.488263	0.000000	1.000000	0.000000
0.821275	0.500000	-5.488263	0.000000	-1.000000	0.000000
3.974971	0.500000	-5.488263	0.000000	-1.000000	0.000000
-4.566289	2.500000	-5.488263	0.000000	1.000000	0.000000
-3.449355	0.500000	-5.488263	0.000000	-1.000000	0.000000
0.361361	2.500000	-5.488263	0.000000	1.000000	0.000000
4.040673	0.500000	-5.488263	0.000000	-1.000000	0.000000
3.186547	2.500000	-5.488263	0.000000	1.000000	0.000000
0.361361	0.500000	-5.488263	0.000000	-1.000000	0.000000
0.427063	0.500000	-5.488263	0.000000	-1.000000	0.000000
-3.974971	2.500000	-5.488263	0.000000	1.000000	0.000000
-1.938209	2.500000	-5.488263	0.000000	1.000000	0.000000
3.252249	2.500000	-5.488263	0.000000	1.000000	0.000000
2.266719	2.500000	-5.488263	0.000000	1.000000	0.000000
0.689871	0.500000	-5.488263	0.000000	-1.000000	0.000000
4.914254	2.500000	-5.488263	0.000000	1.000000	0.000000
-1.741103	0.500000	-5.488263	0.000000	-1.000000	0.000000
4.434885	0.500000	-5.488263	0.000000	-1.000000	0.000000
-3.580759	0.500000	-5.488263	0.000000	-1.000000	0.000000
4.894799	0.500000	-5.488263	0.000000	-1.000000	0.000000
4.914254	0.500000	-5.488263	0.000000	-1.000000	0.000000
-4.369183	2.500000	-5.488263	0.000000	1.000000	0.000000
3.186547	0.500000	-5.488263	0.000000	-1.000000	0.000000
4.369183	0.500000	-5.488263	0.000000	-1.000000	0.000000
-2.201017	2.500000	-5.488263	0.000000	1.000000	0.000000
-3.383653	0.500000	-5.488263	0.000000	-1.000000	0.000000
-0.358279	0.500000	-5.488263	0.000000	-1.000000	0.000000
4.172077	0.500000	-5.488263	0.000000	-1.000000	0.000000
-3.712163	0.500000	-5.488263	0.000000	-1.000000	0.000000
3.515057	2.500000	-5.488263	0.000000	1.000000	0.000000
-1.938209	0.500000	-5.488263	0.000000	-1.000000	0.000000
-2.332421	0.500000	-5.488263	0.000000	-1.000000	0.000000
1.675401	0.500000	-5.488263	0.000000	-1.000000	0.000000
-3.120845	0.500000	-5.488263	0.000000	-1.000000	0.000000
-1.346891	0.500000	-5.488263	0.000000	-1.000000	0.000000
4.697693	2.500000	-5.488263	0.000000	1.000000	0.000000
-2.858037	2.500000	-5.488263	0.000000	1.000000	0.000000
4.106375	2.500000	-5.488263	0.000000	1.000000	0.000000
2.332421	0.500000	-5.488263	0.000000	-1.000000	0.000000
1.018381	2.500000	-5.488263	0.000000	1.000000	0.000000
2.989441	2.500000	-5.488263	0.000000	1.000000	0.000000
-1.412593	0.500000	-5.488263	0.000000	-1.000000	0.000000
-2.266719	0.500000	-5.488263	0.000000	-1.000000	0.000000
2.858037	2.500000	-5.488263	0.000000	1.000000	0.000000
4.172077	2.500000	-5.488263	0.000000	1.000000	0.000000
0.361361	0.500000	-5.488093	0.000000	-1.000000	0.000000
0.361361	2.500000	-5.488093	0.000000	1.000000	0.000000
-0.361361	0.500000	-5.488093	0.000000	-1.000000	0.000000
-0.361361	2.500000	-5.488093	0.000000	1.000000	0.000000
0.363498	2.500000	-5.487975	0.000000	1.000000	0.000000
0.363498	0.500000	-5.487975	0.000000	-1.000000	0.000000
-0.363498	2.500000	-5.487975	0.000000	1.000000	0.000000
-0.363498	0.500000	-5.487975	0.000000	-1.000000	0.000000
0.427063	0.500000	-5.483060	0.000000	-1.000000	0.000000
0.427063	2.500000	-5.483060	0.000000	1.000000	0.000000
-0.427063	0.500000	-5.483060	0.000000	-1.000000	0.000000
-0.427063	2.500000	-5.483060	0.000000	1.000000	0.000000
0.484389	0.500000	-5.478628	0.000000	-1.000000	0.000000
0.484389	2.500000	-5.478628	0.000000	1.000000	0.000000
-0.484389	2.500000	-5.478628	0.000000	1.000000	0.000000
-0.484389	0.500000	-5.478628	0.000000	-1.000000	0.000000
0.492765	2.500000	-5.477795	0.000000	1.000000	0.000000
0.492765	0.500000	-5.477795	0.000000	-1.000000	0.000000
-0.492765	2.500000	-5.477795	0.000000	1.000000	0.000000
-0.492765	0.500000	-5.477795	0.000000	-1.000000	0.000000
0.558467	0.500000	-5.471255	0.000000	-1.000000	0.000000
0.558467	2.500000	-5.471255	0.000000	1.000000	0.000000
-0.558467	2.500000	-5.471255	0.000000	1.000000	0.000000
-0.558467	0.500000	-5.471255	0.000000	-1.000000	0.000000
0.605045	0.500000	-5.466619	0.000000	-1.000000	0.000000
0.605045	2.500000	-5.466619	0.000000	1.000000	0.000000
-0.605045	0.500000	-5.466619	0.000000	-1.000000	0.000000
-0.605045	2.500000	-5.466619	0.000000	1.000000	0.000000
0.624169	0.500000	-5.464288	0.000000	-1.000000	0.000000
0.624169	2.500000	-5.464288	0.000000	1.000000	0.000000
-0.624169	2.500000	-5.464288	0.000000	1.000000	0.000000
-0.624169	0.500000	-5.464288	0.000000	-1.000000	0.000000
-4.928600	2.435484	-5.463415	-0.866025	0.000000	-0.500000
-4.928600	2.500000	-5.463415	-0.866025	0.000000	-0.500000
-4.928600	2.370968	-5.463415	-0.866025	0.000000	-0.500000
-4.928600	2.306452	-5.463415	-0.866025	0.000000	-0.500000
-4.928600	1.145161	-5.463415	-0.866025	0.000000	-0.500000
-4.928600	1.209677	-5.463415	-0.866025	0.000000	-0.500000
-4.928600	1.274194	-5.463415	-0.866025	0.000000	-0.500000
-4.928600	1.338710	-5.463415	-0.866025	0.000000	-0.500000
-4.928600	0.500000	-5.463415	-0.866025	0.000000	-0.500000
-4.928600	0.564516	-5.463415	-0.866025	0.000000	-0.500000
-4.928600	1.403226	-5.463415	-0.866025	0.000000	-0.500000
-4.928600	1.467742	-5.463415	-0.866025	0.000000	-0.500000
-4.928600	0.629032	-5.463415	-0.866025	0.000000	-0.500000
-4.928600	0.693548	-5.463415	-0.866025	0.000000	-0.500000
-4.928600	0.758065	-5.463415	-0.866025	0.000000	-0.500000
-4.928600	1.532258	-5.463415	-0.866025	0.000000	-0.500000
-4.928600	1.596774	-5.463415	-0.866025	0.000000	-0.500000
-4.928600	1.661290	-5.463415	-0.866025	0.000000	-0.500000
-4.928600	1.080645	-5.463415	-0.866025	0.000000	-0.500000
-4.928600	1.725806	-5.463415	-0.866025	0.000000	-0.500000
-4.928600	0.822581	-5.463415	-0.866025	0.000000	-0.500000
-4.928600	0.887097	-5.463415	-0.866025	0.000000	-0.500000
-4.928600	0.951613	-5.463415	-0.866025	0.000000	-0.500000
-4.928600	1.983871	-5.463415	-0.866025	0.000000	-0.500000
-4.928600	1.790323	-5.463415	-0.866025	0.000000	-0.500000
-4.928600	1.854839	-5.463415	-0.866025	0.000000	-0.500000
-4.928600	1.919355	-5.463415	-0.866025	0.000000	-0.500000
-4.928600	2.048387	-5.463415	-0.866025	0.000000	-0.500000
-4.928600	2.112903	-5.463415	-0.866025	0.000000	-0.500000
-4.928600	2.177419	-5.463415	-0.866025	0.000000	-0.500000
-4.928600	2.241935	-5.463415	-0.866025	0.000000	-0.500000
-4.928600	1.016129	-5.463415	-0.866025	0.000000	-0.500000
4.928600	1.145161	-5.463415	0.866025	0.000000	-0.500000
4.928600	1.209677	-5.463415	0.866025	0.000000	-0.500000
4.928600	1.274194	-5.463415	0.866025	0.000000	-0.500000
4.928600	1.338710	-5.463415	0.866025	0.000000	-0.500000
4.928600	1.403226	-5.463415	0.866025	0.000000	-0.500000
4.928600	1.467742	-5.463415	0.866025	0.000000	-0.500000
4.928600	1.532258	-5.463415	0.866025	0.000000	-0.500000
4.928600	1.596774	-5.463415	0.866025	0.000000	-0.500000
4.928600	1.661290	-5.463415	0.866025	0.000000	-0.500000
4.928600	1.725806	-5.463415	0.866025	0.000000	-0.500000
4.928600	1.790323	-5.463415	0.866025	0.000000	-0.500000
4.928600	1.854839	-5.463415	0.866025	0.000000	-0.500000
4.928600	1.919355	-5.463415	0.866025	0.000000	-0.500000
4.928600	1.983871	-5.463415	0.866025	0.000000	-0.500000
4.928600	2.048387	-5.463415	0.866025	0.000000	-0.500000
4.928600	2.112903	-5.463415	0.866025	0.000000	-0.500000
4.928600	2.177419	-5.463415	0.866025	0.000000	-0.500000
4.928600	2.241935	-5.463415	0.866025	0.000000	-0.500000
4.928600	2.306452	-5.463415	0.866025	0.000000	-0.500000
4.928600	2.370968	-5.463415	0.866025	0.000000	-0.500000
4.928600	2.435484	-5.463415	0.866025	0.000000	-0.500000
4.928600	0.500000	-5.463415	0.000000	-1.000000	0.000000
4.928600	2.500000	-5.463415	0.000000	1.000000	0.000000
4.928600	0.564516	-5.463415	0.866025	0.000000	-0.500000
4.928600	0.629032	-5.463415	0.866025	0.000000	-0.500000
4.928600	0.693548	-5.463415	0.866025	0.000000	-0.500000
4.928600	0.758065	-5.463415	0.866025	0.000000	-0.500000
4.928600	0.822581	-5.463415	0.866025	0.000000	-0.500000
4.928600	0.887097	-5.463415	0.866025	0.000000	-0.500000
4.928600	0.951613	-5.463415	0.866025	0.000000	-0.500000
4.928600	1.016129	-5.463415	0.866025	0.000000	-0.500000
4.928600	1.080645	-5.463415	0.866025	0.000000	-0.500000
0.689871	0.500000	-5.456283	0.000000	-1.000000	0.000000
0.689871	2.500000	-5.456283	0.000000	1.000000	0.000000
-0.689871	0.500000	-5.456283	0.000000	-1.000000	0.000000
-0.689871	2.500000	-5.456283	0.000000	1.000000	0.000000
0.725407	0.500000	-5.451952	0.000000	-1.000000	0.000000
0.725407	2.500000	-5.451952	0.000000	1.000000	0.000000
-0.725407	2.500000	-5.451952	0.000000	1.000000	0.000000
-0.725407	0.500000	-5.451952	0.000000	-1.000000	0.000000
0.755573	2.500000	-5.447600	0.000000	1.000000	0.000000
0.755573	0.500000	-5.447600	0.000000	-1.000000	0.000000
-0.755573	0.500000	-5.447600	0.000000	-1.000000	0.000000
-0.755573	2.500000	-5.447600	0.000000	1.000000	0.000000
0.821275	2.500000	-5.438119	0.000000	1.000000	0.000000
0.821275	0.500000	-5.438119	0.000000	-1.000000	0.000000
-0.821275	0.500000	-5.438119	0.000000	-1.000000	0.000000
-0.821275	2.500000	-5.438119	0.000000	1.000000	0.000000
0.845416	2.500000	-5.434636	0.000000	1.000000	0.000000
0.845416	0.500000	-5.434636	0.000000	-1.000000	0.000000
-0.845416	0.500000	-5.434636	0.000000	-1.000000	0.000000
-0.845416	2.500000	-5.434636	0.000000	1.000000	0.000000
0.886977	2.500000	-5.427701	0.000000	1.000000	0.000000
0.886977	0.500000	-5.427701	0.000000	-1.000000	0.000000
-0.886977	0.500000	-5.427701	0.000000	-1.000000	0.000000
-0.886977	2.500000	-5.427701	0.000000	1.000000	0.000000
-4.566289	0.500000	-5.422535	0.000000	-1.000000	0.000000
4.631991	0.500000	-5.422535	0.000000	-1.000000	0.000000
2.332421	2.500000	-5.422535	0.000000	1.000000	0.000000
4.434885	0.500000	-5.422535	0.000000	-1.000000	0.000000
4.172077	0.500000	-5.422535	0.000000	-1.000000	0.000000
3.580759	2.500000	-5.422535	0.000000	1.000000	0.000000
-4.952201	2.500000	-5.422535	-0.866025	0.000000	-0.500000
-2.332421	0.500000	-5.422535	0.000000	-1.000000	0.000000
4.952201	2.500000	-5.422535	0.000000	1.000000	0.000000
-2.266719	2.500000	-5.422535	0.000000	1.000000	0.000000
-3.383653	0.500000	-5.422535	0.000000	-1.000000	0.000000
4.500587	0.500000	-5.422535	0.000000	-1.000000	0.000000
4.303481	0.500000	-5.422535	0.000000	-1.000000	0.000000
4.952201	0.500000	-5.422535	0.000000	-1.000000	0.000000
-1.741103	0.500000	-5.422535	0.000000	-1.000000	0.000000
-3.974971	2.500000	-5.422535	0.000000	1.000000	0.000000
-4.040673	0.500000	-5.422535	0.000000	-1.000000	0.000000
3.252249	2.500000	-5.422535	0.000000	1.000000	0.000000
-2.726633	2.500000	-5.422535	0.000000	1.000000	0.000000
-4.303481	2.500000	-5.422535	0.000000	1.000000	0.000000
2.003911	0.500000	-5.422535	0.000000	-1.000000	0.000000
-3.449355	0.500000	-5.422535	0.000000	-1.000000	0.000000
2.332421	0.500000	-5.422535	0.000000	-1.000000	0.000000
1.084083	0.500000	-5.422535	0.000000	-1.000000	0.000000
-4.500587	0.500000	-5.422535	0.000000	-1.000000	0.000000
-1.872507	2.500000	-5.422535	0.000000	1.000000	0.000000
-2.003911	2.500000	-5.422535	0.000000	1.000000	0.000000
-3.909269	2.500000	-5.422535	0.000000	1.000000	0.000000
-2.398123	2.500000	-5.422535	0.000000	1.000000	0.000000
0.917934	2.500000	-5.422535	0.000000	1.000000	0.000000
0.952679	2.500000	-5.422535	0.000000	1.000000	0.000000
2.266719	0.500000	-5.422535	0.000000	-1.000000	0.000000
-4.369183	2.500000	-5.422535	0.000000	1.000000	0.000000
-1.346891	0.500000	-5.422535	0.000000	-1.000000	0.000000
4.697693	2.500000	-5.422535	0.000000	1.000000	0.000000
4.237779	0.500000	-5.422535	0.000000	-1.000000	0.000000
4.106375	2.500000	-5.422535	0.000000	1.000000	0.000000
-1.412593	0.500000	-5.422535	0.000000	-1.000000	0.000000
1.149785	0.500000	-5.422535	0.000000	-1.000000	0.000000
-4.631991	2.500000	-5.422535	0.000000	1.000000	0.000000
3.712163	0.500000	-5.422535	0.000000	-1.000000	0.000000
3.120845	2.500000	-5.422535	0.000000	1.000000	0.000000
4.106375	0.500000	-5.422535	0.000000	-1.000000	0.000000
1.543997	2.500000	-5.422535	0.000000	1.000000	0.000000
-1.806805	0.500000	-5.422535	0.000000	-1.000000	0.000000
-2.266719	0.500000	-5.422535	0.000000	-1.000000	0.000000
3.186547	2.500000	-5.422535	0.000000	1.000000	0.000000
4.172077	2.500000	-5.422535	0.000000	1.000000	0.000000
-4.434885	2.500000	-5.422535	0.000000	1.000000	0.000000
2.529527	2.500000	-5.422535	0.000000	1.000000	0.000000
-3.317951	0.500000	-5.422535	0.000000	-1.000000	0.000000
-3.646461	0.500000	-5.422535	0.000000	-1.000000	0.000000
1.609699	2.500000	-5.422535	0.000000	1.000000	0.000000
3.055143	2.500000	-5.422535	0.000000	1.000000	0.000000
3.317951	2.500000	-5.422535	0.000000	1.000000	0.000000
-1.478295	0.500000	-5.422535	0.000000	-1.000000	0.000000
-2.660931	2.500000	-5.422535	0.000000	1.000000	0.000000
1.741103	2.500000	-5.422535	0.000000	1.000000	0.000000
3.055143	0.500000	-5.422535	0.000000	-1.000000	0.000000
-2.463825	2.500000	-5.422535	0.000000	1.000000	0.000000
3.120845	0.500000	-5.422535	0.000000	-1.000000	0.000000
2.660931	2.500000	-5.422535	0.000000	1.000000	0.000000
-3.777865	0.500000	-5.422535	0.000000	-1.000000	0.000000
2.529527	0.500000	-5.422535	0.000000	-1.000000	0.000000
-3.843567	0.500000	-5.422535	0.000000	-1.000000	0.000000
4.369183	2.500000	-5.422535	0.000000	1.000000	0.000000
2.595229	2.500000	-5.422535	0.000000	1.000000	0.000000
-3.843567	2.500000	-5.422535	0.000000	1.000000	0.000000
4.369183	0.500000	-5.422535	0.000000	-1.000000	0.000000
-2.923739	2.500000	-5.422535	0.000000	1.000000	0.000000
4.631991	2.500000	-5.422535	0.000000	1.000000	0.000000
-2.201017	0.500000	-5.422535	0.000000	-1.000000	0.000000
3.252249	0.500000	-5.422535	0.000000	-1.000000	0.000000
-1.543997	0.500000	-5.422535	0.000000	-1.000000	0.000000
1.215487	0.500000	-5.422535	0.000000	-1.000000	0.000000
-2.529527	2.500000	-5.422535	0.000000	1.000000	0.000000
-3.515057	0.500000	-5.422535	0.000000	-1.000000	0.000000
1.806805	0.500000	-5.422535	0.000000	-1.000000	0.000000
1.609699	0.500000	-5.422535	0.000000	-1.000000	0.000000
4.763395	0.500000	-5.422535	0.000000	-1.000000	0.000000
-4.369183	0.500000	-5.422535	0.000000	-1.000000	0.000000
4.566289	2.500000	-5.422535	0.000000	1.000000	0.000000
-3.252249	0.500000	-5.422535	0.000000	-1.000000	0.000000
3.383653	2.500000	-5.422535	0.000000	1.000000	0.000000
3.777865	0.500000	-5.422535	0.000000	-1.000000	0.000000
-4.631991	0.500000	-5.422535	0.000000	-1.000000	0.000000
-3.777865	2.500000	-5.422535	0.000000	1.000000	0.000000
2.989441	0.500000	-5.422535	0.000000	-1.000000	0.000000
-2.858037	2.500000	-5.422535	0.000000	1.000000	0.000000
-2.135315	0.500000	-5.422535	0.000000	-1.000000	0.000000
2.858037	0.500000	-5.422535	0.000000	-1.000000	0.000000
-4.106375	2.500000	-5.422535	0.000000	1.000000	0.000000
3.909269	0.500000	-5.422535	0.000000	-1.000000	0.000000
4.566289	0.500000	-5.422535	0.000000	-1.000000	0.000000
-4.500587	2.500000	-5.422535	0.000000	1.000000	0.000000
1.149785	2.500000	-5.422535	0.000000	1.000000	0.000000
-1.938209	2.500000	-5.422535	0.000000	1.000000	0.000000
2.726633	2.500000	-5.422535	0.000000	1.000000	0.000000
1.084083	2.500000	-5.422535	0.000000	1.000000	0.000000
4.237779	2.500000	-5.422535	0.000000	1.000000	0.000000
-4.697693	0.500000	-5.422535	0.000000	-1.000000	0.000000
-4.763395	0.500000	-5.422535	0.000000	-1.000000	0.000000
1.675401	0.500000	-5.422535	0.000000	-1.000000	0.000000
1.872507	2.500000	-5.422535	0.000000	1.000000	0.000000
-1.675401	2.500000	-5.422535	0.000000	1.000000	0.000000
1.215487	2.500000	-5.422535	0.000000	1.000000	0.000000
-0.917934	0.500000	-5.422535	0.000000	-1.000000	0.000000
2.923739	2.500000	-5.422535	0.000000	1.000000	0.000000
-2.201017	2.500000	-5.422535	0.000000	1.000000	0.000000
-1.609699	0.500000	-5.422535	0.000000	-1.000000	0.000000
-3.186547	0.500000	-5.422535	0.000000	-1.000000	0.000000
3.449355	2.500000	-5.422535	0.000000	1.000000	0.000000
-2.069613	0.500000	-5.422535	0.000000	-1.000000	0.000000
-2.069613	2.500000	-5.422535	0.000000	1.000000	0.000000
2.266719	2.500000	-5.422535	0.000000	1.000000	0.000000
-1.806805	2.500000	-5.422535	0.000000	1.000000	0.000000
2.003911	2.500000	-5.422535	0.000000	1.000000	0.000000
3.843567	0.500000	-5.422535	0.000000	-1.000000	0.000000
1.412593	0.500000	-5.422535	0.000000	-1.000000	0.000000
-3.712163	2.500000	-5.422535	0.000000	1.000000	0.000000
2.069613	2.500000	-5.422535	0.000000	1.000000	0.000000
-1.609699	2.500000	-5.422535	0.000000	1.000000	0.000000
-1.543997	2.500000	-5.422535	0.000000	1.000000	0.000000
-3.055143	0.500000	-5.422535	0.000000	-1.000000	0.000000
4.434885	2.500000	-5.422535	0.000000	1.000000	0.000000
-3.646461	2.500000	-5.422535	0.000000	1.000000	0.000000
2.135315	2.500000	-5.422535	0.000000	1.000000	0.000000
2.201017	2.500000	-5.422535	0.000000	1.000000	0.000000
3.974971	0.500000	-5.422535	0.000000	-1.000000	0.000000
-1.478295	2.500000	-5.422535	0.000000	1.000000	0.000000
4.829097	0.500000	-5.422535	0.000000	-1.000000	0.000000
-1.412593	2.500000	-5.422535	0.000000	1.000000	0.000000
-3.186547	2.500000	-5.422535	0.000000	1.000000	0.000000
-3.712163	0.500000	-5.422535	0.000000	-1.000000	0.000000
-1.346891	2.500000	-5.422535	0.000000	1.000000	0.000000
2.858037	2.500000	-5.422535	0.000000	1.000000	0.000000
1.741103	0.500000	-5.422535	0.000000	-1.000000	0.000000
-1.281189	2.500000	-5.422535	0.000000	1.000000	0.000000
-4.237779	2.500000	-5.422535	0.000000	1.000000	0.000000
2.989441	2.500000	-5.422535	0.000000	1.000000	0.000000
-3.120845	0.500000	-5.422535	0.000000	-1.000000	0.000000
3.515057	2.500000	-5.422535	0.000000	1.000000	0.000000
1.938209	0.500000	-5.422535	0.000000	-1.000000	0.000000
-4.172077	2.500000	-5.422535	0.000000	1.000000	0.000000
-3.580759	0.500000	-5.422535	0.000000	-1.000000	0.000000
2.201017	0.500000	-5.422535	0.000000	-1.000000	0.000000
2.463825	0.500000	-5.422535	0.000000	-1.000000	0.000000
2.726633	0.500000	-5.422535	0.000000	-1.000000	0.000000
0.952679	0.500000	-5.422535	0.000000	-1.000000	0.000000
-3.252249	2.500000	-5.422535	0.000000	1.000000	0.000000
-4.566289	2.500000	-5.422535	0.000000	1.000000	0.000000
-1.872507	0.500000	-5.422535	0.000000	-1.000000	0.000000
4.040673	0.500000	-5.422535	0.000000	-1.000000	0.000000
-3.580759	2.500000	-5.422535	0.000000	1.000000	0.000000
-4.697693	2.500000	-5.422535	0.000000	1.000000	0.000000
-2.003911	0.500000	-5.422535	0.000000	-1.000000	0.000000
2.923739	0.500000	-5.422535	0.000000	-1.000000	0.000000
-3.515057	2.500000	-5.422535	0.000000	1.000000	0.000000
1.018381	0.500000	-5.422535	0.000000	-1.000000	0.000000
-2.792335	2.500000	-5.422535	0.000000	1.000000	0.000000
-4.172077	0.500000	-5.422535	0.000000	-1.000000	0.000000
-3.449355	2.500000	-5.422535	0.000000	1.000000	0.000000
-4.106375	0.500000	-5.422535	0.000000	-1.000000	0.000000
-1.215487	2.500000	-5.422535	0.000000	1.000000	0.000000
1.346891	0.500000	-5.422535	0.000000	-1.000000	0.000000
-2.595229	2.500000	-5.422535	0.000000	1.000000	0.000000
-1.149785	2.500000	-5.422535	0.000000	1.000000	0.000000
-4.894799	2.500000	-5.422535	0.000000	1.000000	0.000000
-1.084083	2.500000	-5.422535	0.000000	1.000000	0.000000
1.281189	0.500000	-5.422535	0.000000	-1.000000	0.000000
1.412593	2.500000	-5.422535	0.000000	1.000000	0.000000
1.872507	0.500000	-5.422535	0.000000	-1.000000	0.000000
4.303481	2.500000	-5.422535	0.000000	1.000000	0.000000
1.478295	2.500000	-5.422535	0.000000	1.000000	0.000000
2.135315	0.500000	-5.422535	0.000000	-1.000000	0.000000
-1.938209	0.500000	-5.422535	0.000000	-1.000000	0.000000
-4.763395	2.500000	-5.422535	0.000000	1.000000	0.000000
4.500587	2.500000	-5.422535	0.000000	1.000000	0.000000
-2.135315	2.500000	-5.422535	0.000000	1.000000	0.000000
2.463825	2.500000	-5.422535	0.000000	1.000000	0.000000
-1.018381	2.500000	-5.422535	0.000000	1.000000	0.000000
2.660931	0.500000	-5.422535	0.000000	-1.000000	0.000000
0.917934	0.500000	-5.422535	0.000000	-1.000000	0.000000
4.894799	0.500000	-5.422535	0.000000	-1.000000	0.000000
-0.952679	2.500000	-5.422535	0.000000	1.000000	0.000000
-4.434885	0.500000	-5.422535	0.000000	-1.000000	0.000000
-3.120845	2.500000	-5.422535	0.000000	1.000000	0.000000
-1.675401	0.500000	-5.422535	0.000000	-1.000000	0.000000
2.792335	2.500000	-5.422535	0.000000	1.000000	0.000000
-3.974971	0.500000	-5.422535	0.000000	-1.000000	0.000000
-3.317951	2.500000	-5.422535	0.000000	1.000000	0.000000
1.478295	0.500000	-5.422535	0.000000	-1.000000	0.000000
2.792335	0.500000	-5.422535	0.000000	-1.000000	0.000000
-3.383653	2.500000	-5.422535	0.000000	1.000000	0.000000
-3.909269	0.500000	-5.422535	0.000000	-1.000000	0.000000
1.806805	2.500000	-5.422535	0.000000	1.000000	0.000000
-3.055143	2.500000	-5.422535	0.000000	1.000000	0.000000
1.675401	2.500000	-5.422535	0.000000	1.000000	0.000000
1.346891	2.500000	-5.422535	0.000000	1.000000	0.000000
1.281189	2.500000	-5.422535	0.000000	1.000000	0.000000
1.938209	2.500000	-5.422535	0.000000	1.000000	0.000000
1.543997	0.500000	-5.422535	0.000000	-1.000000	0.000000
-0.917934	2.500000	-5.422535	0.000000	1.000000	0.000000
2.398123	2.500000	-5.422535	0.000000	1.000000	0.000000
-1.741103	2.500000	-5.422535	0.000000	1.000000	0.000000
2.069613	0.500000	-5.422535	0.000000	-1.000000	0.000000
-2.989441	2.500000	-5.422535	0.000000	1.000000	0.000000
-4.303481	0.500000	-5.422535	0.000000	-1.000000	0.000000
2.595229	0.500000	-5.422535	0.000000	-1.000000	0.000000
-2.332421	2.500000	-5.422535	0.000000	1.000000	0.000000
-4.829097	2.500000	-5.422535	0.000000	1.000000	0.000000
-4.237779	0.500000	-5.422535	0.000000	-1.000000	0.000000
2.398123	0.500000	-5.422535	0.000000	-1.000000	0.000000
3.646461	0.500000	-5.422535	0.000000	-1.000000	0.000000
-2.989441	0.500000	-5.422535	0.000000	-1.000000	0.000000
3.646461	2.500000	-5.422535	0.000000	1.000000	0.000000
3.580759	0.500000	-5.422535	0.000000	-1.000000	0.000000
-2.923739	0.500000	-5.422535	0.000000	-1.000000	0.000000
-2.858037	0.500000	-5.422535	0.000000	-1.000000	0.000000
3.712163	2.500000	-5.422535	0.000000	1.000000	0.000000
-4.040673	2.500000	-5.422535	0.000000	1.000000	0.000000
3.515057	0.500000	-5.422535	0.000000	-1.000000	0.000000
-2.792335	0.500000	-5.422535	0.000000	-1.000000	0.000000
3.777865	2.500000	-5.422535	0.000000	1.000000	0.000000
3.449355	0.500000	-5.422535	0.000000	-1.000000	0.000000
-2.726633	0.500000	-5.422535	0.000000	-1.000000	0.000000
3.843567	2.500000	-5.422535	0.000000	1.000000	0.000000
4.697693	0.500000	-5.422535	0.000000	-1.000000	0.000000
-2.660931	0.500000	-5.422535	0.000000	-1.000000	0.000000
3.909269	2.500000	-5.422535	0.000000	1.000000	0.000000
-0.952679	0.500000	-5.422535	0.000000	-1.000000	0.000000
-2.595229	0.500000	-5.422535	0.000000	-1.000000	0.000000
-4.952201	0.500000	-5.422535	-0.866025	0.000000	-0.500000
-1.018381	0.500000	-5.422535	0.000000	-1.000000	0.000000
3.383653	0.500000	-5.422535	0.000000	-1.000000	0.000000
-2.529527	0.500000	-5.422535	0.000000	-1.000000	0.000000
3.974971	2.500000	-5.422535	0.000000	1.000000	0.000000
-1.084083	0.500000	-5.422535	0.000000	-1.000000	0.000000
-1.149785	0.500000	-5.422535	0.000000	-1.000000	0.000000
-4.894799	0.500000	-5.422535	0.000000	-1.000000	0.000000
-4.829097	0.500000	-5.422535	0.000000	-1.000000	0.000000
1.018381	2.500000	-5.422535	0.000000	1.000000	0.000000
4.894799	2.500000	-5.422535	0.000000	1.000000	0.000000
4.829097	2.500000	-5.422535	0.000000	1.000000	0.000000
-2.463825	0.500000	-5.422535	0.000000	-1.000000	0.000000
4.040673	2.500000	-5.422535	0.000000	1.000000	0.000000
-1.215487	0.500000	-5.422535	0.000000	-1.000000	0.000000
3.317951	0.500000	-5.422535	0.000000	-1.000000	0.000000
-2.398123	0.500000	-5.422535	0.000000	-1.000000	0.000000
3.186547	0.500000	-5.422535	0.000000	-1.000000	0.000000
-1.281189	0.500000	-5.422535	0.000000	-1.000000	0.000000
4.763395	2.500000	-5.422535	0.000000	1.000000	0.000000
0.952679	2.500000	-5.416737	0.000000	1.000000	0.000000
0.952679	0.500000	-5.416737	0.000000	-1.000000	0.000000
-0.952679	2.500000	-5.416737	0.000000	1.000000	0.000000
-0.952679	0.500000	-5.416737	0.000000	-1.000000	0.000000
0.965014	0.500000	-5.414679	0.000000	-1.000000	0.000000
0.965014	2.500000	-5.414679	0.000000	1.000000	0.000000
-0.965014	0.500000	-5.414679	0.000000	-1.000000	0.000000
-0.965014	2.500000	-5.414679	0.000000	1.000000	0.000000
-4.960501	0.500000	-5.408161	-0.866025	0.000000	-0.500000
-4.960501	2.500000	-5.408161	-0.866025	0.000000	-0.500000
4.960501	0.500000	-5.408161	0.000000	-1.000000	0.000000
4.960501	2.500000	-5.408161	0.000000	1.000000	0.000000
-4.961457	2.048387	-5.406504	-0.866025	0.000000	-0.500000
-4.961457	2.112903	-5.406504	-0.866025	0.000000	-0.500000
-4.961457	2.177419	-5.406504	-0.866025	0.000000	-0.500000
-4.961457	2.241935	-5.406504	-0.866025	0.000000	-0.500000
-4.961457	0.887097	-5.406504	-0.866025	0.000000	-0.500000
-4.961457	2.500000	-5.406504	-0.866025	0.000000	-0.500000
-4.961457	2.435484	-5.406504	-0.866025	0.000000	-0.500000
-4.961457	2.306452	-5.406504	-0.866025	0.000000	-0.500000
-4.961457	0.564516	-5.406504	-0.866025	0.000000	-0.500000
-4.961457	0.629032	-5.406504	-0.866025	0.000000	-0.500000
-4.961457	0.693548	-5.406504	-0.866025	0.000000	-0.500000
-4.961457	0.758065	-5.406504	-0.866025	0.000000	-0.500000
-4.961457	0.822581	-5.406504	-0.866025	0.000000	-0.500000
-4.961457	0.951613	-5.406504	-0.866025	0.000000	-0.500000
-4.961457	1.016129	-5.406504	-0.866025	0.000000	-0.500000
-4.961457	1.080645	-5.406504	-0.866025	0.000000	-0.500000
-4.961457	1.145161	-5.406504	-0.866025	0.000000	-0.500000
-4.961457	1.209677	-5.406504	-0.866025	0.000000	-0.500000
-4.961457	1.274194	-5.406504	-0.866025	0.000000	-0.500000
-4.961457	1.338710	-5.406504	-0.866025	0.000000	-0.500000
-4.961457	2.370968	-5.406504	-0.866025	0.000000	-0.500000
-4.961457	1.403226	-5.406504	-0.866025	0.000000	-0.500000
-4.961457	1.467742	-5.406504	-0.866025	0.000000	-0.500000
-4.961457	1.532258	-5.406504	-0.866025	0.000000	-0.500000
-4.961457	0.500000	-5.406504	-0.866025	0.000000	-0.500000
-4.961457	1.596774	-5.406504	-0.866025	0.000000	-0.500000
-4.961457	1.661290	-5.406504	-0.866025	0.000000	-0.500000
-4.961457	1.725806	-5.406504	-0.866025	0.000000	-0.500000
-4.961457	1.790323	-5.406504	-0.866025	0.000000	-0.500000
-4.961457	1.854839	-5.406504	-0.866025	0.000000	-0.500000
-4.961457	1.919355	-5.406504	-0.866025	0.000000	-0.500000
-4.961457	1.983871	-5.406504	-0.866025	0.000000	-0.500000
4.961457	0.500000	-5.406504	0.000000	-1.000000	0.000000
4.961457	0.822581	-5.406504	0.866025	0.000000	-0.500000
4.961457	1.080645	-5.406504	0.866025	0.000000	-0.500000
4.961457	2.048387	-5.406504	0.866025	0.000000	-0.500000
4.961457	2.241935	-5.406504	0.866025	0.000000	-0.500000
4.961457	1.532258	-5.406504	0.866025	0.000000	-0.500000
4.961457	1.403226	-5.406504	0.866025	0.000000	-0.500000
4.961457	1.338710	-5.406504	0.866025	0.000000	-0.500000
4.961457	2.435484	-5.406504	0.866025	0.000000	-0.500000
4.961457	2.370968	-5.406504	0.866025	0.000000	-0.500000
4.961457	1.790323	-5.406504	0.866025	0.000000	-0.500000
4.961457	0.887097	-5.406504	0.866025	0.000000	-0.500000
4.961457	1.274194	-5.406504	0.866025	0.000000	-0.500000
4.961457	1.209677	-5.406504	0.866025	0.000000	-0.500000
4.961457	1.145161	-5.406504	0.866025	0.000000	-0.500000
4.961457	1.725806	-5.406504	0.866025	0.000000	-0.500000
4.961457	0.951613	-5.406504	0.866025	0.000000	-0.500000
4.961457	1.016129	-5.406504	0.866025	0.000000	-0.500000
4.961457	1.661290	-5.406504	0.866025	0.000000	-0.500000
4.961457	0.693548	-5.406504	0.866025	0.000000	-0.500000
4.961457	2.306452	-5.406504	0.866025	0.000000	-0.500000
4.961457	0.629032	-5.406504	0.866025	0.000000	-0.500000
4.961457	1.467742	-5.406504	0.866025	0.000000	-0.500000
4.961457	1.983871	-5.406504	0.866025	0.000000	-0.500000
4.961457	0.564516	-5.406504	0.866025	0.000000	-0.500000
4.961457	1.919355	-5.406504	0.866025	0.000000	-0.500000
4.961457	2.177419	-5.406504	0.866025	0.000000	-0.500000
4.961457	0.758065	-5.406504	0.866025	0.000000	-0.500000
4.961457	1.596774	-5.406504	0.866025	0.000000	-0.500000
4.961457	2.500000	-5.406504	0.000000	1.000000	0.000000
4.961457	2.112903	-5.406504	0.866025	0.000000	-0.500000
4.961457	1.854839	-5.406504	0.866025	0.000000	-0.500000
1.018381	2.500000	-5.404560	0.000000	1.000000	0.000000
1.018381	0.500000	-5.404560	0.000000	-1.000000	0.000000
-1.018381	2.500000	-5.404560	0.000000	1.000000	0.000000
-1.018381	0.500000	-5.404560	0.000000	-1.000000	0.000000
1.084144	2.500000	-5.392090	0.000000	1.000000	0.000000
1.084144	0.500000	-5.392090	0.000000	-1.000000	0.000000
-1.084144	2.500000	-5.392090	0.000000	1.000000	0.000000
-1.084144	0.500000	-5.392090	0.000000	-1.000000	0.000000
1.149785	2.500000	-5.378137	0.000000	1.000000	0.000000
1.149785	0.500000	-5.378137	0.000000	-1.000000	0.000000
-1.149785	2.500000	-5.378137	0.000000	1.000000	0.000000
-1.149785	0.500000	-5.378137	0.000000	-1.000000	0.000000
1.202746	2.500000	-5.366880	0.000000	1.000000	0.000000
1.202746	0.500000	-5.366880	0.000000	-1.000000	0.000000
-1.202746	2.500000	-5.366880	0.000000	1.000000	0.000000
-1.202746	0.500000	-5.366880	0.000000	-1.000000	0.000000
1.215487	2.500000	-5.363877	0.000000	1.000000	0.000000
1.215487	0.500000	-5.363877	0.000000	-1.000000	0.000000
-1.215487	2.500000	-5.363877	0.000000	1.000000	0.000000
-1.215487	0.500000	-5.363877	0.000000	-1.000000	0.000000
-4.434885	0.500000	-5.356808	0.000000	-1.000000	0.000000
1.675401	2.500000	-5.356808	0.000000	1.000000	0.000000
2.398123	0.500000	-5.356808	0.000000	-1.000000	0.000000
-2.726633	2.500000	-5.356808	0.000000	1.000000	0.000000
1.806805	0.500000	-5.356808	0.000000	-1.000000	0.000000
-2.660931	2.500000	-5.356808	0.000000	1.000000	0.000000
-4.172077	0.500000	-5.356808	0.000000	-1.000000	0.000000
1.872507	0.500000	-5.356808	0.000000	-1.000000	0.000000
2.332421	0.500000	-5.356808	0.000000	-1.000000	0.000000
3.909269	0.500000	-5.356808	0.000000	-1.000000	0.000000
-1.346891	2.500000	-5.356808	0.000000	1.000000	0.000000
1.938209	0.500000	-5.356808	0.000000	-1.000000	0.000000
2.069613	2.500000	-5.356808	0.000000	1.000000	0.000000
3.843567	0.500000	-5.356808	0.000000	-1.000000	0.000000
2.003911	2.500000	-5.356808	0.000000	1.000000	0.000000
4.566289	0.500000	-5.356808	0.000000	-1.000000	0.000000
-4.960501	2.500000	-5.356808	0.000000	1.000000	0.000000
-4.369183	0.500000	-5.356808	0.000000	-1.000000	0.000000
3.777865	0.500000	-5.356808	0.000000	-1.000000	0.000000
2.529527	2.500000	-5.356808	0.000000	1.000000	0.000000
1.741103	2.500000	-5.356808	0.000000	1.000000	0.000000
3.712163	0.500000	-5.356808	0.000000	-1.000000	0.000000
2.266719	0.500000	-5.356808	0.000000	-1.000000	0.000000
-2.398123	2.500000	-5.356808	0.000000	1.000000	0.000000
2.003911	0.500000	-5.356808	0.000000	-1.000000	0.000000
-4.237779	0.500000	-5.356808	0.000000	-1.000000	0.000000
2.069613	0.500000	-5.356808	0.000000	-1.000000	0.000000
1.938209	2.500000	-5.356808	0.000000	1.000000	0.000000
1.346891	2.500000	-5.356808	0.000000	1.000000	0.000000
1.872507	2.500000	-5.356808	0.000000	1.000000	0.000000
1.412593	2.500000	-5.356808	0.000000	1.000000	0.000000
1.806805	2.500000	-5.356808	0.000000	1.000000	0.000000
-3.909269	0.500000	-5.356808	0.000000	-1.000000	0.000000
2.792335	0.500000	-5.356808	0.000000	-1.000000	0.000000
-3.383653	2.500000	-5.356808	0.000000	1.000000	0.000000
-3.317951	2.500000	-5.356808	0.000000	1.000000	0.000000
4.894799	0.500000	-5.356808	0.000000	-1.000000	0.000000
-4.697693	2.500000	-5.356808	0.000000	1.000000	0.000000
1.346891	0.500000	-5.356808	0.000000	-1.000000	0.000000
1.281189	0.500000	-5.356808	0.000000	-1.000000	0.000000
-3.252249	2.500000	-5.356808	0.000000	1.000000	0.000000
2.201017	0.500000	-5.356808	0.000000	-1.000000	0.000000
-4.303481	0.500000	-5.356808	0.000000	-1.000000	0.000000
-1.281189	2.500000	-5.356808	0.000000	1.000000	0.000000
-4.172077	2.500000	-5.356808	0.000000	1.000000	0.000000
2.726633	0.500000	-5.356808	0.000000	-1.000000	0.000000
-3.186547	2.500000	-5.356808	0.000000	1.000000	0.000000
-2.135315	2.500000	-5.356808	0.000000	1.000000	0.000000
-1.412593	2.500000	-5.356808	0.000000	1.000000	0.000000
-4.763395	2.500000	-5.356808	0.000000	1.000000	0.000000
-1.478295	2.500000	-5.356808	0.000000	1.000000	0.000000
1.412593	0.500000	-5.356808	0.000000	-1.000000	0.000000
-1.543997	2.500000	-5.356808	0.000000	1.000000	0.000000
-1.609699	2.500000	-5.356808	0.000000	1.000000	0.000000
-1.675401	2.500000	-5.356808	0.000000	1.000000	0.000000
-1.741103	2.500000	-5.356808	0.000000	1.000000	0.000000
-1.245479	2.500000	-5.356808	0.000000	1.000000	0.000000
3.580759	2.500000	-5.356808	0.000000	1.000000	0.000000
4.631991	0.500000	-5.356808	0.000000	-1.000000	0.000000
4.434885	0.500000	-5.356808	0.000000	-1.000000	0.000000
3.646461	0.500000	-5.356808	0.000000	-1.000000	0.000000
-2.989441	0.500000	-5.356808	0.000000	-1.000000	0.000000
4.172077	0.500000	-5.356808	0.000000	-1.000000	0.000000
-3.383653	0.500000	-5.356808	0.000000	-1.000000	0.000000
3.646461	2.500000	-5.356808	0.000000	1.000000	0.000000
4.960501	0.500000	-5.356808	0.000000	-1.000000	0.000000
3.580759	0.500000	-5.356808	0.000000	-1.000000	0.000000
-4.040673	2.500000	-5.356808	0.000000	1.000000	0.000000
-2.923739	0.500000	-5.356808	0.000000	-1.000000	0.000000
-3.777865	0.500000	-5.356808	0.000000	-1.000000	0.000000
-2.858037	0.500000	-5.356808	0.000000	-1.000000	0.000000
-3.974971	2.500000	-5.356808	0.000000	1.000000	0.000000
-4.990149	0.500000	-5.356808	-0.866025	0.000000	-0.500000
3.252249	2.500000	-5.356808	0.000000	1.000000	0.000000
3.712163	2.500000	-5.356808	0.000000	1.000000	0.000000
-4.237779	2.500000	-5.356808	0.000000	1.000000	0.000000
2.135315	2.500000	-5.356808	0.000000	1.000000	0.000000
-3.449355	0.500000	-5.356808	0.000000	-1.000000	0.000000
3.120845	0.500000	-5.356808	0.000000	-1.000000	0.000000
3.515057	0.500000	-5.356808	0.000000	-1.000000	0.000000
-2.792335	0.500000	-5.356808	0.000000	-1.000000	0.000000
-1.806805	0.500000	-5.356808	0.000000	-1.000000	0.000000
-3.909269	2.500000	-5.356808	0.000000	1.000000	0.000000
4.369183	0.500000	-5.356808	0.000000	-1.000000	0.000000
3.777865	2.500000	-5.356808	0.000000	1.000000	0.000000
-4.960501	0.500000	-5.356808	0.000000	-1.000000	0.000000
3.120845	2.500000	-5.356808	0.000000	1.000000	0.000000
3.449355	0.500000	-5.356808	0.000000	-1.000000	0.000000
-2.726633	0.500000	-5.356808	0.000000	-1.000000	0.000000
4.106375	0.500000	-5.356808	0.000000	-1.000000	0.000000
-3.646461	0.500000	-5.356808	0.000000	-1.000000	0.000000
3.843567	2.500000	-5.356808	0.000000	1.000000	0.000000
4.697693	0.500000	-5.356808	0.000000	-1.000000	0.000000
-4.434885	2.500000	-5.356808	0.000000	1.000000	0.000000
-2.660931	0.500000	-5.356808	0.000000	-1.000000	0.000000
-3.317951	0.500000	-5.356808	0.000000	-1.000000	0.000000
-4.990149	2.500000	-5.356808	-0.866025	0.000000	-0.500000
3.055143	2.500000	-5.356808	0.000000	1.000000	0.000000
3.909269	2.500000	-5.356808	0.000000	1.000000	0.000000
3.317951	2.500000	-5.356808	0.000000	1.000000	0.000000
1.245479	2.500000	-5.356808	0.000000	1.000000	0.000000
-2.595229	0.500000	-5.356808	0.000000	-1.000000	0.000000
2.660931	2.500000	-5.356808	0.000000	1.000000	0.000000
3.055143	0.500000	-5.356808	0.000000	-1.000000	0.000000
-2.529527	2.500000	-5.356808	0.000000	1.000000	0.000000
-3.843567	0.500000	-5.356808	0.000000	-1.000000	0.000000
1.281189	2.500000	-5.356808	0.000000	1.000000	0.000000
-3.515057	0.500000	-5.356808	0.000000	-1.000000	0.000000
-4.631991	0.500000	-5.356808	0.000000	-1.000000	0.000000
-3.252249	0.500000	-5.356808	0.000000	-1.000000	0.000000
-1.938209	2.500000	-5.356808	0.000000	1.000000	0.000000
3.383653	0.500000	-5.356808	0.000000	-1.000000	0.000000
4.960501	2.500000	-5.356808	0.000000	1.000000	0.000000
4.894799	2.500000	-5.356808	0.000000	1.000000	0.000000
-2.529527	0.500000	-5.356808	0.000000	-1.000000	0.000000
-3.843567	2.500000	-5.356808	0.000000	1.000000	0.000000
3.383653	2.500000	-5.356808	0.000000	1.000000	0.000000
-3.777865	2.500000	-5.356808	0.000000	1.000000	0.000000
4.990149	0.500000	-5.356808	0.000000	-1.000000	0.000000
2.858037	0.500000	-5.356808	0.000000	-1.000000	0.000000
-4.500587	2.500000	-5.356808	0.000000	1.000000	0.000000
-4.697693	0.500000	-5.356808	0.000000	-1.000000	0.000000
-4.763395	0.500000	-5.356808	0.000000	-1.000000	0.000000
-2.069613	2.500000	-5.356808	0.000000	1.000000	0.000000
3.974971	2.500000	-5.356808	0.000000	1.000000	0.000000
-4.106375	2.500000	-5.356808	0.000000	1.000000	0.000000
-3.055143	0.500000	-5.356808	0.000000	-1.000000	0.000000
-3.186547	0.500000	-5.356808	0.000000	-1.000000	0.000000
-4.894799	0.500000	-5.356808	0.000000	-1.000000	0.000000
-4.829097	0.500000	-5.356808	0.000000	-1.000000	0.000000
2.923739	2.500000	-5.356808	0.000000	1.000000	0.000000
2.989441	0.500000	-5.356808	0.000000	-1.000000	0.000000
2.726633	2.500000	-5.356808	0.000000	1.000000	0.000000
-2.003911	2.500000	-5.356808	0.000000	1.000000	0.000000
-3.712163	2.500000	-5.356808	0.000000	1.000000	0.000000
-3.646461	2.500000	-5.356808	0.000000	1.000000	0.000000
4.829097	2.500000	-5.356808	0.000000	1.000000	0.000000
-4.631991	2.500000	-5.356808	0.000000	1.000000	0.000000
-3.449355	2.500000	-5.356808	0.000000	1.000000	0.000000
4.829097	0.500000	-5.356808	0.000000	-1.000000	0.000000
2.858037	2.500000	-5.356808	0.000000	1.000000	0.000000
-2.463825	0.500000	-5.356808	0.000000	-1.000000	0.000000
-1.806805	2.500000	-5.356808	0.000000	1.000000	0.000000
-4.566289	2.500000	-5.356808	0.000000	1.000000	0.000000
-3.120845	0.500000	-5.356808	0.000000	-1.000000	0.000000
2.989441	2.500000	-5.356808	0.000000	1.000000	0.000000
3.515057	2.500000	-5.356808	0.000000	1.000000	0.000000
3.449355	2.500000	-5.356808	0.000000	1.000000	0.000000
4.040673	2.500000	-5.356808	0.000000	1.000000	0.000000
4.434885	2.500000	-5.356808	0.000000	1.000000	0.000000
-3.580759	0.500000	-5.356808	0.000000	-1.000000	0.000000
4.040673	0.500000	-5.356808	0.000000	-1.000000	0.000000
3.186547	0.500000	-5.356808	0.000000	-1.000000	0.000000
-3.580759	2.500000	-5.356808	0.000000	1.000000	0.000000
2.923739	0.500000	-5.356808	0.000000	-1.000000	0.000000
3.317951	0.500000	-5.356808	0.000000	-1.000000	0.000000
-2.398123	0.500000	-5.356808	0.000000	-1.000000	0.000000
-2.003911	0.500000	-5.356808	0.000000	-1.000000	0.000000
-3.515057	2.500000	-5.356808	0.000000	1.000000	0.000000
-3.712163	0.500000	-5.356808	0.000000	-1.000000	0.000000
-4.566289	0.500000	-5.356808	0.000000	-1.000000	0.000000
4.369183	2.500000	-5.356808	0.000000	1.000000	0.000000
4.990149	2.500000	-5.356808	0.000000	1.000000	0.000000
-1.281189	0.500000	-5.356808	0.000000	-1.000000	0.000000
4.763395	2.500000	-5.356808	0.000000	1.000000	0.000000
1.478295	2.500000	-5.356808	0.000000	1.000000	0.000000
4.303481	2.500000	-5.356808	0.000000	1.000000	0.000000
-1.872507	0.500000	-5.356808	0.000000	-1.000000	0.000000
2.463825	2.500000	-5.356808	0.000000	1.000000	0.000000
-2.332421	0.500000	-5.356808	0.000000	-1.000000	0.000000
4.500587	2.500000	-5.356808	0.000000	1.000000	0.000000
2.660931	0.500000	-5.356808	0.000000	-1.000000	0.000000
4.303481	0.500000	-5.356808	0.000000	-1.000000	0.000000
1.245479	0.500000	-5.356808	0.000000	-1.000000	0.000000
-1.675401	0.500000	-5.356808	0.000000	-1.000000	0.000000
2.792335	2.500000	-5.356808	0.000000	1.000000	0.000000
-3.974971	0.500000	-5.356808	0.000000	-1.000000	0.000000
-1.346891	0.500000	-5.356808	0.000000	-1.000000	0.000000
4.697693	2.500000	-5.356808	0.000000	1.000000	0.000000
-3.120845	2.500000	-5.356808	0.000000	1.000000	0.000000
1.478295	0.500000	-5.356808	0.000000	-1.000000	0.000000
-1.872507	2.500000	-5.356808	0.000000	1.000000	0.000000
-1.938209	0.500000	-5.356808	0.000000	-1.000000	0.000000
-3.055143	2.500000	-5.356808	0.000000	1.000000	0.000000
4.106375	2.500000	-5.356808	0.000000	1.000000	0.000000
4.763395	0.500000	-5.356808	0.000000	-1.000000	0.000000
4.237779	0.500000	-5.356808	0.000000	-1.000000	0.000000
-4.369183	2.500000	-5.356808	0.000000	1.000000	0.000000
1.543997	0.500000	-5.356808	0.000000	-1.000000	0.000000
-1.412593	0.500000	-5.356808	0.000000	-1.000000	0.000000
-2.266719	0.500000	-5.356808	0.000000	-1.000000	0.000000
-2.463825	2.500000	-5.356808	0.000000	1.000000	0.000000
-4.303481	2.500000	-5.356808	0.000000	1.000000	0.000000
2.398123	2.500000	-5.356808	0.000000	1.000000	0.000000
-2.989441	2.500000	-5.356808	0.000000	1.000000	0.000000
4.172077	2.500000	-5.356808	0.000000	1.000000	0.000000
3.186547	2.500000	-5.356808	0.000000	1.000000	0.000000
2.595229	0.500000	-5.356808	0.000000	-1.000000	0.000000
-4.829097	2.500000	-5.356808	0.000000	1.000000	0.000000
-1.478295	0.500000	-5.356808	0.000000	-1.000000	0.000000
4.631991	2.500000	-5.356808	0.000000	1.000000	0.000000
-2.332421	2.500000	-5.356808	0.000000	1.000000	0.000000
-2.201017	0.500000	-5.356808	0.000000	-1.000000	0.000000
2.332421	2.500000	-5.356808	0.000000	1.000000	0.000000
4.500587	0.500000	-5.356808	0.000000	-1.000000	0.000000
3.252249	0.500000	-5.356808	0.000000	-1.000000	0.000000
-1.245479	0.500000	-5.356808	0.000000	-1.000000	0.000000
-4.040673	0.500000	-5.356808	0.000000	-1.000000	0.000000
-4.500587	0.500000	-5.356808	0.000000	-1.000000	0.000000
1.543997	2.500000	-5.356808	0.000000	1.000000	0.000000
1.609699	2.500000	-5.356808	0.000000	1.000000	0.000000
1.609699	0.500000	-5.356808	0.000000	-1.000000	0.000000
-1.741103	0.500000	-5.356808	0.000000	-1.000000	0.000000
-1.543997	0.500000	-5.356808	0.000000	-1.000000	0.000000
4.566289	2.500000	-5.356808	0.000000	1.000000	0.000000
2.529527	0.500000	-5.356808	0.000000	-1.000000	0.000000
-2.135315	0.500000	-5.356808	0.000000	-1.000000	0.000000
-2.923739	2.500000	-5.356808	0.000000	1.000000	0.000000
-2.595229	2.500000	-5.356808	0.000000	1.000000	0.000000
-2.201017	2.500000	-5.356808	0.000000	1.000000	0.000000
-2.858037	2.500000	-5.356808	0.000000	1.000000	0.000000
1.675401	0.500000	-5.356808	0.000000	-1.000000	0.000000
2.266719	2.500000	-5.356808	0.000000	1.000000	0.000000
4.237779	2.500000	-5.356808	0.000000	1.000000	0.000000
2.201017	2.500000	-5.356808	0.000000	1.000000	0.000000
3.974971	0.500000	-5.356808	0.000000	-1.000000	0.000000
1.741103	0.500000	-5.356808	0.000000	-1.000000	0.000000
-1.609699	0.500000	-5.356808	0.000000	-1.000000	0.000000
2.595229	2.500000	-5.356808	0.000000	1.000000	0.000000
2.463825	0.500000	-5.356808	0.000000	-1.000000	0.000000
-2.069613	0.500000	-5.356808	0.000000	-1.000000	0.000000
-2.792335	2.500000	-5.356808	0.000000	1.000000	0.000000
-4.106375	0.500000	-5.356808	0.000000	-1.000000	0.000000
-4.894799	2.500000	-5.356808	0.000000	1.000000	0.000000
2.135315	0.500000	-5.356808	0.000000	-1.000000	0.000000
-2.266719	2.500000	-5.356808	0.000000	1.000000	0.000000
-4.994315	2.306452	-5.349594	-0.866025	0.000000	-0.500000
-4.994315	2.370968	-5.349594	-0.866025	0.000000	-0.500000
-4.994315	2.500000	-5.349594	-0.866025	0.000000	-0.500000
-4.994315	0.500000	-5.349594	-0.866025	0.000000	-0.500000
-4.994315	1.596774	-5.349594	-0.866025	0.000000	-0.500000
-4.994315	1.532258	-5.349594	-0.866025	0.000000	-0.500000
-4.994315	2.435484	-5.349594	-0.866025	0.000000	-0.500000
-4.994315	0.693548	-5.349594	-0.866025	0.000000	-0.500000
-4.994315	1.467742	-5.349594	-0.866025	0.000000	-0.500000
-4.994315	1.403226	-5.349594	-0.866025	0.000000	-0.500000
-4.994315	1.338710	-5.349594	-0.866025	0.000000	-0.500000
-4.994315	1.274194	-5.349594	-0.866025	0.000000	-0.500000
-4.994315	1.209677	-5.349594	-0.866025	0.000000	-0.500000
-4.994315	1.145161	-5.349594	-0.866025	0.000000	-0.500000
-4.994315	1.080645	-5.349594	-0.866025	0.000000	-0.500000
-4.994315	1.016129	-5.349594	-0.866025	0.000000	-0.500000
-4.994315	0.951613	-5.349594	-0.866025	0.000000	-0.500000
-4.994315	0.629032	-5.349594	-0.866025	0.000000	-0.500000
-4.994315	0.564516	-5.349594	-0.866025	0.000000	-0.500000
-4.994315	0.887097	-5.349594	-0.866025	0.000000	-0.500000
-4.994315	0.822581	-5.349594	-0.866025	0.000000	-0.500000
-4.994315	2.241935	-5.349594	-0.866025	0.000000	-0.500000
-4.994315	2.177419	-5.349594	-0.866025	0.000000	-0.500000
-4.994315	0.758065	-5.349594	-0.866025	0.000000	-0.500000
-4.994315	2.112903	-5.349594	-0.866025	0.000000	-0.500000
-4.994315	2.048387	-5.349594	-0.866025	0.000000	-0.500000
-4.994315	1.983871	-5.349594	-0.866025	0.000000	-0.500000
-4.994315	1.919355	-5.349594	-0.866025	0.000000	-0.500000
-4.994315	1.854839	-5.349594	-0.866025	0.000000	-0.500000
-4.994315	1.790323	-5.349594	-0.866025	0.000000	-0.500000
-4.994315	1.725806	-5.349594	-0.866025	0.000000	-0.500000
-4.994315	1.661290	-5.349594	-0.866025	0.000000	-0.500000
4.994315	0.629032	-5.349594	0.866025	0.000000	-0.500000
4.994315	0.951613	-5.349594	0.866025	0.000000	-0.500000
4.994315	1.725806	-5.349594	0.866025	0.000000	-0.500000
4.994315	1.790323	-5.349594	0.866025	0.000000	-0.500000
4.994315	1.403226	-5.349594	0.866025	0.000000	-0.500000
4.994315	0.564516	-5.349594	0.866025	0.000000	-0.500000
4.994315	0.500000	-5.349594	0.000000	-1.000000	0.000000
4.994315	0.693548	-5.349594	0.866025	0.000000	-0.500000
4.994315	2.370968	-5.349594	0.866025	0.000000	-0.500000
4.994315	1.274194	-5.349594	0.866025	0.000000	-0.500000
4.994315	0.822581	-5.349594	0.866025	0.000000	-0.500000
4.994315	1.854839	-5.349594	0.866025	0.000000	-0.500000
4.994315	1.919355	-5.349594	0.866025	0.000000	-0.500000
4.994315	1.983871	-5.349594	0.866025	0.000000	-0.500000
4.994315	1.467742	-5.349594	0.866025	0.000000	-0.500000
4.994315	1.532258	-5.349594	0.866025	0.000000	-0.500000
4.994315	2.112903	-5.349594	0.866025	0.000000	-0.500000
4.994315	1.596774	-5.349594	0.866025	0.000000	-0.500000
4.994315	2.500000	-5.349594	0.000000	1.000000	0.000000
4.994315	1.016129	-5.349594	0.866025	0.000000	-0.500000
4.994315	2.177419	-5.349594	0.866025	0.000000	-0.500000
4.994315	2.241935	-5.349594	0.866025	0.000000	-0.500000
4.994315	1.661290	-5.349594	0.866025	0.000000	-0.500000
4.994315	0.887097	-5.349594	0.866025	0.000000	-0.500000
4.994315	2.435484	-5.349594	0.866025	0.000000	-0.500000
4.994315	2.306452	-5.349594	0.866025	0.000000	-0.500000
4.994315	1.145161	-5.349594	0.866025	0.000000	-0.500000
4.994315	0.758065	-5.349594	0.866025	0.000000	-0.500000
4.994315	1.080645	-5.349594	0.866025	0.000000	-0.500000
4.994315	1.209677	-5.349594	0.866025	0.000000	-0.500000
4.994315	2.048387	-5.349594	0.866025	0.000000	-0.500000
4.994315	1.338710	-5.349594	0.866025	0.000000	-0.500000
1.281189	0.500000	-5.348390	0.000000	-1.000000	0.000000
1.281189	2.500000	-5.348390	0.000000	1.000000	0.000000
-1.281189	0.500000	-5.348390	0.000000	-1.000000	0.000000
-1.281189	2.500000	-5.348390	0.000000	1.000000	0.000000
1.320764	0.500000	-5.339062	0.000000	-1.000000	0.000000
1.320764	2.500000	-5.339062	0.000000	1.000000	0.000000
-1.320764	0.500000	-5.339062	0.000000	-1.000000	0.000000
-1.320764	2.500000	-5.339062	0.000000	1.000000	0.000000
1.346891	2.500000	-5.332292	0.000000	1.000000	0.000000
1.346891	0.500000	-5.332292	0.000000	-1.000000	0.000000
-1.346891	2.500000	-5.332292	0.000000	1.000000	0.000000
-1.346891	0.500000	-5.332292	0.000000	-1.000000	0.000000
1.412593	0.500000	-5.315269	0.000000	-1.000000	0.000000
1.412593	2.500000	-5.315269	0.000000	1.000000	0.000000
-1.412593	0.500000	-5.315269	0.000000	-1.000000	0.000000
-1.412593	2.500000	-5.315269	0.000000	1.000000	0.000000
1.438140	2.500000	-5.308649	0.000000	1.000000	0.000000
1.438140	0.500000	-5.308649	0.000000	-1.000000	0.000000
-1.438140	2.500000	-5.308649	0.000000	1.000000	0.000000
-1.438140	0.500000	-5.308649	0.000000	-1.000000	0.000000
1.478295	0.500000	-5.297294	0.000000	-1.000000	0.000000
1.478295	2.500000	-5.297294	0.000000	1.000000	0.000000
-1.478295	0.500000	-5.297294	0.000000	-1.000000	0.000000
-1.478295	2.500000	-5.297294	0.000000	1.000000	0.000000
-5.026203	2.500000	-5.294362	-0.866025	0.000000	-0.500000
-5.026203	0.500000	-5.294362	-0.866025	0.000000	-0.500000
5.026203	0.500000	-5.294362	0.000000	-1.000000	0.000000
5.026203	2.500000	-5.294362	0.000000	1.000000	0.000000
-5.027172	1.080645	-5.292683	-0.866025	0.000000	-0.500000
-5.027172	0.951613	-5.292683	-0.866025	0.000000	-0.500000
-5.027172	0.887097	-5.292683	-0.866025	0.000000	-0.500000
-5.027172	0.822581	-5.292683	-0.866025	0.000000	-0.500000
-5.027172	2.241935	-5.292683	-0.866025	0.000000	-0.500000
-5.027172	0.758065	-5.292683	-0.866025	0.000000	-0.500000
-5.027172	2.306452	-5.292683	-0.866025	0.000000	-0.500000
-5.027172	0.564516	-5.292683	-0.866025	0.000000	-0.500000
-5.027172	0.693548	-5.292683	-0.866025	0.000000	-0.500000
-5.027172	2.370968	-5.292683	-0.866025	0.000000	-0.500000
-5.027172	2.500000	-5.292683	-0.866025	0.000000	-0.500000
-5.027172	2.435484	-5.292683	-0.866025	0.000000	-0.500000
