-0.338085	-20.397322	-3.961421	-0.057682	-0.734762	-0.675868
0.338085	-20.397322	-3.961421	0.057682	-0.734762	-0.675868
-0.371799	-20.397322	-3.958399	-0.063434	-0.734762	-0.675353
0.371799	-20.397322	-3.958399	0.063434	-0.734762	-0.675353
-0.576919	-20.375000	-3.958177	-0.097835	-0.734762	-0.671233
0.576919	-20.375000	-3.958177	0.097835	-0.734762	-0.671233
-0.405486	-20.397322	-3.955090	-0.069181	-0.734762	-0.674788
0.405486	-20.397322	-3.955090	0.069181	-0.734762	-0.674788
-0.610597	-20.375000	-3.953122	-0.103546	-0.734762	-0.670375
0.610597	-20.375000	-3.953122	0.103546	-0.734762	-0.670375
0.000000	-20.419643	-3.951643	0.000000	-0.734762	-0.678325
0.033643	-20.419643	-3.951500	0.005775	-0.734762	-0.678301
-0.033643	-20.419643	-3.951500	-0.005775	-0.734762	-0.678301
-0.439144	-20.397322	-3.951494	-0.074923	-0.734762	-0.674175
0.439144	-20.397322	-3.951494	0.074923	-0.734762	-0.674175
-0.067284	-20.419643	-3.951070	-0.011550	-0.734762	-0.678227
0.067284	-20.419643	-3.951070	0.011550	-0.734762	-0.678227
-0.100920	-20.419643	-3.950354	-0.017323	-0.734762	-0.678104
0.100920	-20.419643	-3.950354	0.017323	-0.734762	-0.678104
-0.134548	-20.419643	-3.949352	-0.023096	-0.734762	-0.677932
0.134548	-20.419643	-3.949352	0.023096	-0.734762	-0.677932
-0.168167	-20.419643	-3.948063	-0.028867	-0.734762	-0.677711
0.168167	-20.419643	-3.948063	0.028867	-0.734762	-0.677711
-0.644231	-20.375000	-3.947780	-0.109249	-0.734762	-0.669470
0.644231	-20.375000	-3.947780	0.109249	-0.734762	-0.669470
-0.472770	-20.397322	-3.947613	-0.080660	-0.734762	-0.673512
0.472770	-20.397322	-3.947613	0.080660	-0.734762	-0.673512
-0.201773	-20.419643	-3.946488	-0.034636	-0.734762	-0.677440
0.201773	-20.419643	-3.946488	0.034636	-0.734762	-0.677440
-0.235365	-20.419643	-3.944627	-0.040402	-0.734762	-0.677121
0.235365	-20.419643	-3.944627	0.040402	-0.734762	-0.677121
-0.506361	-20.397322	-3.943444	-0.086392	-0.734762	-0.672801
0.506361	-20.397322	-3.943444	0.086392	-0.734762	-0.672801
-0.268940	-20.419643	-3.942481	-0.046165	-0.734762	-0.676752
0.268940	-20.419643	-3.942481	0.046165	-0.734762	-0.676752
-0.677818	-20.375000	-3.942152	-0.114945	-0.734762	-0.668515
0.677818	-20.375000	-3.942152	0.114945	-0.734762	-0.668515
-0.302495	-20.419643	-3.940048	-0.051925	-0.734762	-0.676335
0.302495	-20.419643	-3.940048	0.051925	-0.734762	-0.676335
-0.539916	-20.397322	-3.938991	-0.092117	-0.734762	-0.672041
0.539916	-20.397322	-3.938991	0.092117	-0.734762	-0.672041
-0.336029	-20.419643	-3.937330	-0.057682	-0.734762	-0.675868
0.336029	-20.419643	-3.937330	0.057682	-0.734762	-0.675868
-0.711355	-20.375000	-3.936239	-0.120633	-0.734762	-0.667512
0.711355	-20.375000	-3.936239	0.120633	-0.734762	-0.667512
-0.369538	-20.419643	-3.934326	-0.063434	-0.734762	-0.675353
0.369538	-20.419643	-3.934326	0.063434	-0.734762	-0.675353
-0.573432	-20.397322	-3.934251	-0.097835	-0.734762	-0.671233
0.573432	-20.397322	-3.934251	0.097835	-0.734762	-0.671233
-0.403020	-20.419643	-3.931037	-0.069181	-0.734762	-0.674788
0.403020	-20.419643	-3.931037	0.069181	-0.734762	-0.674788
-0.744841	-20.375000	-3.930040	-0.126311	-0.734762	-0.666461
0.744841	-20.375000	-3.930040	0.126311	-0.734762	-0.666461
-0.606906	-20.397322	-3.929226	-0.103546	-0.734762	-0.670375
0.606906	-20.397322	-3.929226	0.103546	-0.734762	-0.670375
0.000000	-20.441965	-3.927464	0.000000	-0.734762	-0.678325
-0.436473	-20.419643	-3.927464	-0.074923	-0.734762	-0.674175
0.436473	-20.419643	-3.927464	0.074923	-0.734762	-0.674175
-0.033437	-20.441965	-3.927322	-0.005775	-0.734762	-0.678301
0.033437	-20.441965	-3.927322	0.005775	-0.734762	-0.678301
-0.066872	-20.441965	-3.926895	-0.011550	-0.734762	-0.678227
0.066872	-20.441965	-3.926895	0.011550	-0.734762	-0.678227
-0.100302	-20.441965	-3.926183	-0.017323	-0.734762	-0.678104
0.100302	-20.441965	-3.926183	0.017323	-0.734762	-0.678104
-0.133725	-20.441965	-3.925187	-0.023096	-0.734762	-0.677932
0.133725	-20.441965	-3.925187	0.023096	-0.734762	-0.677932
-0.640337	-20.397322	-3.923917	-0.109249	-0.734762	-0.669470
0.640337	-20.397322	-3.923917	0.109249	-0.734762	-0.669470
-0.167138	-20.441965	-3.923906	-0.028867	-0.734762	-0.677711
0.167138	-20.441965	-3.923906	0.028867	-0.734762	-0.677711
-0.469895	-20.419643	-3.923605	-0.080660	-0.734762	-0.673512
0.469895	-20.419643	-3.923605	0.080660	-0.734762	-0.673512
-0.778274	-20.375000	-3.923556	-0.131981	-0.734762	-0.665362
0.778274	-20.375000	-3.923556	0.131981	-0.734762	-0.665362
-0.200539	-20.441965	-3.922341	-0.034636	-0.734762	-0.677440
0.200539	-20.441965	-3.922341	0.034636	-0.734762	-0.677440
-0.233925	-20.441965	-3.920492	-0.040402	-0.734762	-0.677121
0.233925	-20.441965	-3.920492	0.040402	-0.734762	-0.677121
-0.503282	-20.419643	-3.919463	-0.086392	-0.734762	-0.672801
0.503282	-20.419643	-3.919463	0.086392	-0.734762	-0.672801
-0.267294	-20.441965	-3.918358	-0.046165	-0.734762	-0.676752
0.267294	-20.441965	-3.918358	0.046165	-0.734762	-0.676752
-0.673720	-20.397322	-3.918323	-0.114945	-0.734762	-0.668515
0.673720	-20.397322	-3.918323	0.114945	-0.734762	-0.668515
-0.811649	-20.375000	-3.916788	-0.137641	-0.734762	-0.664214
0.811649	-20.375000	-3.916788	0.137641	-0.734762	-0.664214
-0.300644	-20.441965	-3.915940	-0.051925	-0.734762	-0.676335
0.300644	-20.441965	-3.915940	0.051925	-0.734762	-0.676335
-0.536633	-20.419643	-3.915036	-0.092117	-0.734762	-0.672041
0.536633	-20.419643	-3.915036	0.092117	-0.734762	-0.672041
-0.333973	-20.441965	-3.913239	-0.057682	-0.734762	-0.675868
0.333973	-20.441965	-3.913239	0.057682	-0.734762	-0.675868
-0.707055	-20.397322	-3.912445	-0.120633	-0.734762	-0.667512
0.707055	-20.397322	-3.912445	0.120633	-0.734762	-0.667512
-0.569945	-20.419643	-3.910325	-0.097835	-0.734762	-0.671233
0.569945	-20.419643	-3.910325	0.097835	-0.734762	-0.671233
-0.367277	-20.441965	-3.910254	-0.063434	-0.734762	-0.675353
0.367277	-20.441965	-3.910254	0.063434	-0.734762	-0.675353
-0.844966	-20.375000	-3.909735	-0.143290	-0.734762	-0.663018
0.844966	-20.375000	-3.909735	0.143290	-0.734762	-0.663018
-0.400554	-20.441965	-3.906985	-0.069181	-0.734762	-0.674788
0.400554	-20.441965	-3.906985	0.069181	-0.734762	-0.674788
-0.740339	-20.397322	-3.906284	-0.126311	-0.734762	-0.666461
0.740339	-20.397322	-3.906284	0.126311	-0.734762	-0.666461
-0.603215	-20.419643	-3.905331	-0.103546	-0.734762	-0.670375
0.603215	-20.419643	-3.905331	0.103546	-0.734762	-0.670375
-0.433803	-20.441965	-3.903433	-0.074923	-0.734762	-0.674175
0.433803	-20.441965	-3.903433	0.074923	-0.734762	-0.674175
0.000000	-20.464285	-3.903286	0.000000	-0.734762	-0.678325
0.033231	-20.464285	-3.903144	0.005775	-0.734762	-0.678301
-0.033231	-20.464285	-3.903144	-0.005775	-0.734762	-0.678301
-0.066460	-20.464285	-3.902720	-0.011550	-0.734762	-0.678227
0.066460	-20.464285	-3.902720	0.011550	-0.734762	-0.678227
-0.878222	-20.375000	-3.902400	-0.148930	-0.734762	-0.661774
0.878222	-20.375000	-3.902400	0.148930	-0.734762	-0.661774
-0.099685	-20.464285	-3.902013	-0.017323	-0.734762	-0.678104
0.099685	-20.464285	-3.902013	0.017323	-0.734762	-0.678104
-0.132902	-20.464285	-3.901022	-0.023096	-0.734762	-0.677932
0.132902	-20.464285	-3.901022	0.023096	-0.734762	-0.677932
-0.636442	-20.419643	-3.900054	-0.109249	-0.734762	-0.669470
0.636442	-20.419643	-3.900054	0.109249	-0.734762	-0.669470
-0.773569	-20.397322	-3.899839	-0.131981	-0.734762	-0.665362
0.773569	-20.397322	-3.899839	0.131981	-0.734762	-0.665362
-0.166109	-20.464285	-3.899750	-0.028867	-0.734762	-0.677711
0.166109	-20.464285	-3.899750	0.028867	-0.734762	-0.677711
-0.467019	-20.441965	-3.899599	-0.080660	-0.734762	-0.673512
0.467019	-20.441965	-3.899599	0.080660	-0.734762	-0.673512
-0.199304	-20.464285	-3.898194	-0.034636	-0.734762	-0.677440
0.199304	-20.464285	-3.898194	0.034636	-0.734762	-0.677440
-0.232485	-20.464285	-3.896356	-0.040402	-0.734762	-0.677121
0.232485	-20.464285	-3.896356	0.040402	-0.734762	-0.677121
-0.500203	-20.441965	-3.895481	-0.086392	-0.734762	-0.672801
0.500203	-20.441965	-3.895481	0.086392	-0.734762	-0.672801
-0.911414	-20.375000	-3.894782	-0.154559	-0.734762	-0.660482
0.911414	-20.375000	-3.894782	0.154559	-0.734762	-0.660482
-0.669623	-20.419643	-3.894494	-0.114945	-0.734762	-0.668515
0.669623	-20.419643	-3.894494	0.114945	-0.734762	-0.668515
-0.265649	-20.464285	-3.894235	-0.046165	-0.734762	-0.676752
0.265649	-20.464285	-3.894235	0.046165	-0.734762	-0.676752
-0.806743	-20.397322	-3.893112	-0.137641	-0.734762	-0.664214
0.806743	-20.397322	-3.893112	0.137641	-0.734762	-0.664214
-0.298794	-20.464285	-3.891833	-0.051925	-0.734762	-0.676335
0.298794	-20.464285	-3.891833	0.051925	-0.734762	-0.676335
-0.533349	-20.441965	-3.891081	-0.092117	-0.734762	-0.672041
0.533349	-20.441965	-3.891081	0.092117	-0.734762	-0.672041
-0.331917	-20.464285	-3.889148	-0.057682	-0.734762	-0.675868
0.331917	-20.464285	-3.889148	0.057682	-0.734762	-0.675868
-0.702756	-20.419643	-3.888652	-0.120633	-0.734762	-0.667512
0.702756	-20.419643	-3.888652	0.120633	-0.734762	-0.667512
-0.944540	-20.375000	-3.886881	-0.160176	-0.734762	-0.659142
0.944540	-20.375000	-3.886881	0.160176	-0.734762	-0.659142
-0.566458	-20.441965	-3.886400	-0.097835	-0.734762	-0.671233
0.566458	-20.441965	-3.886400	0.097835	-0.734762	-0.671233
-0.365016	-20.464285	-3.886181	-0.063434	-0.734762	-0.675353
0.365016	-20.464285	-3.886181	0.063434	-0.734762	-0.675353
-0.839859	-20.397322	-3.886103	-0.143290	-0.734762	-0.663018
0.839859	-20.397322	-3.886103	0.143290	-0.734762	-0.663018
-0.398088	-20.464285	-3.882933	-0.069181	-0.734762	-0.674788
0.398088	-20.464285	-3.882933	0.069181	-0.734762	-0.674788
-0.735837	-20.419643	-3.882528	-0.126311	-0.734762	-0.666461
0.735837	-20.419643	-3.882528	0.126311	-0.734762	-0.666461
-0.599525	-20.441965	-3.881436	-0.103546	-0.734762	-0.670375
0.599525	-20.441965	-3.881436	0.103546	-0.734762	-0.670375
-0.431132	-20.464285	-3.879403	-0.074923	-0.734762	-0.674175
0.431132	-20.464285	-3.879403	0.074923	-0.734762	-0.674175
0.000000	-20.486607	-3.879107	0.000000	-0.734762	-0.678325
-0.033026	-20.486607	-3.878967	-0.005775	-0.734762	-0.678301
0.033026	-20.486607	-3.878967	0.005775	-0.734762	-0.678301
-0.872913	-20.397322	-3.878811	-0.148930	-0.734762	-0.661774
0.872913	-20.397322	-3.878811	0.148930	-0.734762	-0.661774
-0.977597	-20.375000	-3.878699	-0.165782	-0.734762	-0.657755
0.977597	-20.375000	-3.878699	0.165782	-0.734762	-0.657755
-0.066049	-20.486607	-3.878545	-0.011550	-0.734762	-0.678227
0.066049	-20.486607	-3.878545	0.011550	-0.734762	-0.678227
-0.099067	-20.486607	-3.877842	-0.017323	-0.734762	-0.678104
0.099067	-20.486607	-3.877842	0.017323	-0.734762	-0.678104
-0.132078	-20.486607	-3.876858	-0.023096	-0.734762	-0.677932
0.132078	-20.486607	-3.876858	0.023096	-0.734762	-0.677932
-0.632548	-20.441965	-3.876191	-0.109249	-0.734762	-0.669470
0.632548	-20.441965	-3.876191	0.109249	-0.734762	-0.669470
-0.768865	-20.419643	-3.876123	-0.131981	-0.734762	-0.665362
0.768865	-20.419643	-3.876123	0.131981	-0.734762	-0.665362
-0.165080	-20.486607	-3.875593	-0.028867	-0.734762	-0.677711
0.165080	-20.486607	-3.875593	0.028867	-0.734762	-0.677711
-0.464144	-20.464285	-3.875592	-0.080660	-0.734762	-0.673512
0.464144	-20.464285	-3.875592	0.080660	-0.734762	-0.673512
-0.198070	-20.486607	-3.874047	-0.034636	-0.734762	-0.677440
0.198070	-20.486607	-3.874047	0.034636	-0.734762	-0.677440
-0.231045	-20.486607	-3.872220	-0.040402	-0.734762	-0.677121
0.231045	-20.486607	-3.872220	0.040402	-0.734762	-0.677121
-0.497123	-20.464285	-3.871500	-0.086392	-0.734762	-0.672801
0.497123	-20.464285	-3.871500	0.086392	-0.734762	-0.672801
-0.905905	-20.397322	-3.871239	-0.154559	-0.734762	-0.660482
0.905905	-20.397322	-3.871239	0.154559	-0.734762	-0.660482
-0.665526	-20.441965	-3.870665	-0.114945	-0.734762	-0.668515
0.665526	-20.441965	-3.870665	0.114945	-0.734762	-0.668515
-1.010584	-20.375000	-3.870235	-0.171376	-0.734762	-0.656319
1.010584	-20.375000	-3.870235	0.171376	-0.734762	-0.656319
-0.264003	-20.486607	-3.870113	-0.046165	-0.734762	-0.676752
0.264003	-20.486607	-3.870113	0.046165	-0.734762	-0.676752
-0.801837	-20.419643	-3.869437	-0.137641	-0.734762	-0.664214
0.801837	-20.419643	-3.869437	0.137641	-0.734762	-0.664214
-0.296943	-20.486607	-3.867725	-0.051925	-0.734762	-0.676335
0.296943	-20.486607	-3.867725	0.051925	-0.734762	-0.676335
-0.530066	-20.464285	-3.867127	-0.092117	-0.734762	-0.672041
0.530066	-20.464285	-3.867127	0.092117	-0.734762	-0.672041
-0.329861	-20.486607	-3.865057	-0.057682	-0.734762	-0.675868
0.329861	-20.486607	-3.865057	0.057682	-0.734762	-0.675868
-0.698456	-20.441965	-3.864859	-0.120633	-0.734762	-0.667512
0.698456	-20.441965	-3.864859	0.120633	-0.734762	-0.667512
-0.938831	-20.397322	-3.863386	-0.160176	-0.734762	-0.659142
0.938831	-20.397322	-3.863386	0.160176	-0.734762	-0.659142
-0.562970	-20.464285	-3.862474	-0.097835	-0.734762	-0.671233
0.562970	-20.464285	-3.862474	0.097835	-0.734762	-0.671233
-0.834751	-20.419643	-3.862470	-0.143290	-0.734762	-0.663018
0.834751	-20.419643	-3.862470	0.143290	-0.734762	-0.663018
-0.362755	-20.486607	-3.862108	-0.063434	-0.734762	-0.675353
0.362755	-20.486607	-3.862108	0.063434	-0.734762	-0.675353
-1.043498	-20.375000	-3.861491	-0.176958	-0.734762	-0.654837
1.043498	-20.375000	-3.861491	0.176958	-0.734762	-0.654837
-0.395622	-20.486607	-3.858880	-0.069181	-0.734762	-0.674788
0.395622	-20.486607	-3.858880	0.069181	-0.734762	-0.674788
-0.731335	-20.441965	-3.858773	-0.126311	-0.734762	-0.666461
0.731335	-20.441965	-3.858773	0.126311	-0.734762	-0.666461
-0.595834	-20.464285	-3.857541	-0.103546	-0.734762	-0.670375
0.595834	-20.464285	-3.857541	0.103546	-0.734762	-0.670375
-0.428461	-20.486607	-3.855372	-0.074923	-0.734762	-0.674175
0.428461	-20.486607	-3.855372	0.074923	-0.734762	-0.674175
-0.971688	-20.397322	-3.855253	-0.165782	-0.734762	-0.657755
0.971688	-20.397322	-3.855253	0.165782	-0.734762	-0.657755
-0.867605	-20.419643	-3.855223	-0.148930	-0.734762	-0.661774
0.867605	-20.419643	-3.855223	0.148930	-0.734762	-0.661774
0.000000	-20.508928	-3.854928	0.000000	-0.734762	-0.678325
0.032820	-20.508928	-3.854789	0.005775	-0.734762	-0.678301
-0.032820	-20.508928	-3.854789	-0.005775	-0.734762	-0.678301
-0.065637	-20.508928	-3.854370	-0.011550	-0.734762	-0.678227
0.065637	-20.508928	-3.854370	0.011550	-0.734762	-0.678227
-0.098450	-20.508928	-3.853671	-0.017323	-0.734762	-0.678104
0.098450	-20.508928	-3.853671	0.017323	-0.734762	-0.678104
-0.131255	-20.508928	-3.852693	-0.023096	-0.734762	-0.677932
0.131255	-20.508928	-3.852693	0.023096	-0.734762	-0.677932
-1.076335	-20.375000	-3.852467	-0.182526	-0.734762	-0.653306
1.076335	-20.375000	-3.852467	0.182526	-0.734762	-0.653306
-0.764160	-20.441965	-3.852406	-0.131981	-0.734762	-0.665362
0.764160	-20.441965	-3.852406	0.131981	-0.734762	-0.665362
-0.628654	-20.464285	-3.852328	-0.109249	-0.734762	-0.669470
0.628654	-20.464285	-3.852328	0.109249	-0.734762	-0.669470
-0.461269	-20.486607	-3.851584	-0.080660	-0.734762	-0.673512
0.461269	-20.486607	-3.851584	0.080660	-0.734762	-0.673512
-0.164051	-20.508928	-3.851436	-0.028867	-0.734762	-0.677711
0.164051	-20.508928	-3.851436	0.028867	-0.734762	-0.677711
-0.196835	-20.508928	-3.849900	-0.034636	-0.734762	-0.677440
0.196835	-20.508928	-3.849900	0.034636	-0.734762	-0.677440
-0.229605	-20.508928	-3.848085	-0.040402	-0.734762	-0.677121
0.229605	-20.508928	-3.848085	0.040402	-0.734762	-0.677121
-0.900396	-20.419643	-3.847697	-0.154559	-0.734762	-0.660482
0.900396	-20.419643	-3.847697	0.154559	-0.734762	-0.660482
-0.494044	-20.486607	-3.847518	-0.086392	-0.734762	-0.672801
0.494044	-20.486607	-3.847518	0.086392	-0.734762	-0.672801
-1.004475	-20.397322	-3.846841	-0.171376	-0.734762	-0.656319
1.004475	-20.397322	-3.846841	0.171376	-0.734762	-0.656319
-0.661429	-20.464285	-3.846837	-0.114945	-0.734762	-0.668515
0.661429	-20.464285	-3.846837	0.114945	-0.734762	-0.668515
-0.262358	-20.508928	-3.845990	-0.046165	-0.734762	-0.676752
0.262358	-20.508928	-3.845990	0.046165	-0.734762	-0.676752
-0.796931	-20.441965	-3.845761	-0.137641	-0.734762	-0.664214
0.796931	-20.441965	-3.845761	0.137641	-0.734762	-0.664214
-0.295092	-20.508928	-3.843617	-0.051925	-0.734762	-0.676335
0.295092	-20.508928	-3.843617	0.051925	-0.734762	-0.676335
-0.526782	-20.486607	-3.843172	-0.092117	-0.734762	-0.672041
0.526782	-20.486607	-3.843172	0.092117	-0.734762	-0.672041
-1.109095	-20.375000	-3.843164	-0.188082	-0.734762	-0.651729
1.109095	-20.375000	-3.843164	0.188082	-0.734762	-0.651729
-0.694156	-20.464285	-3.841066	-0.120633	-0.734762	-0.667512
0.694156	-20.464285	-3.841066	0.120633	-0.734762	-0.667512
-0.327805	-20.508928	-3.840966	-0.057682	-0.734762	-0.675868
0.327805	-20.508928	-3.840966	0.057682	-0.734762	-0.675868
-0.933121	-20.419643	-3.839891	-0.160176	-0.734762	-0.659142
0.933121	-20.419643	-3.839891	0.160176	-0.734762	-0.659142
-0.829644	-20.441965	-3.838837	-0.143290	-0.734762	-0.663018
0.829644	-20.441965	-3.838837	0.143290	-0.734762	-0.663018
-0.559483	-20.486607	-3.838548	-0.097835	-0.734762	-0.671233
0.559483	-20.486607	-3.838548	0.097835	-0.734762	-0.671233
-1.037190	-20.397322	-3.838150	-0.176958	-0.734762	-0.654837
1.037190	-20.397322	-3.838150	0.176958	-0.734762	-0.654837
-0.360494	-20.508928	-3.838036	-0.063434	-0.734762	-0.675353
0.360494	-20.508928	-3.838036	0.063434	-0.734762	-0.675353
-0.726832	-20.464285	-3.835017	-0.126311	-0.734762	-0.666461
0.726832	-20.464285	-3.835017	0.126311	-0.734762	-0.666461
-0.393156	-20.508928	-3.834828	-0.069181	-0.734762	-0.674788
0.393156	-20.508928	-3.834828	0.069181	-0.734762	-0.674788
-0.592143	-20.486607	-3.833646	-0.103546	-0.734762	-0.670375
0.592143	-20.486607	-3.833646	0.103546	-0.734762	-0.670375
-1.141774	-20.375000	-3.833582	-0.193624	-0.734762	-0.650104
1.141774	-20.375000	-3.833582	0.193624	-0.734762	-0.650104
-0.965779	-20.419643	-3.831808	-0.165782	-0.734762	-0.657755
0.965779	-20.419643	-3.831808	0.165782	-0.734762	-0.657755
-0.862296	-20.441965	-3.831634	-0.148930	-0.734762	-0.661774
0.862296	-20.441965	-3.831634	0.148930	-0.734762	-0.661774
-0.425791	-20.508928	-3.831341	-0.074923	-0.734762	-0.674175
0.425791	-20.508928	-3.831341	0.074923	-0.734762	-0.674175
0.000000	-20.531250	-3.830750	0.000000	-0.734762	-0.678325
-0.032614	-20.531250	-3.830611	-0.005775	-0.734762	-0.678301
0.032614	-20.531250	-3.830611	0.005775	-0.734762	-0.678301
-0.065225	-20.531250	-3.830195	-0.011550	-0.734762	-0.678227
0.065225	-20.531250	-3.830195	0.011550	-0.734762	-0.678227
-0.097832	-20.531250	-3.829500	-0.017323	-0.734762	-0.678104
0.097832	-20.531250	-3.829500	0.017323	-0.734762	-0.678104
-1.069829	-20.397322	-3.829180	-0.182526	-0.734762	-0.653306
1.069829	-20.397322	-3.829180	0.182526	-0.734762	-0.653306
-0.759456	-20.464285	-3.828690	-0.131981	-0.734762	-0.665362
0.759456	-20.464285	-3.828690	0.131981	-0.734762	-0.665362
-0.130432	-20.531250	-3.828529	-0.023096	-0.734762	-0.677932
0.130432	-20.531250	-3.828529	0.023096	-0.734762	-0.677932
-0.624760	-20.486607	-3.828465	-0.109249	-0.734762	-0.669470
0.624760	-20.486607	-3.828465	0.109249	-0.734762	-0.669470
-0.458394	-20.508928	-3.827577	-0.080660	-0.734762	-0.673512
0.458394	-20.508928	-3.827577	0.080660	-0.734762	-0.673512
-0.163022	-20.531250	-3.827280	-0.028867	-0.734762	-0.677711
0.163022	-20.531250	-3.827280	0.028867	-0.734762	-0.677711
-0.195600	-20.531250	-3.825753	-0.034636	-0.734762	-0.677440
0.195600	-20.531250	-3.825753	0.034636	-0.734762	-0.677440
-0.894886	-20.441965	-3.824154	-0.154559	-0.734762	-0.660482
0.894886	-20.441965	-3.824154	0.154559	-0.734762	-0.660482
-0.228165	-20.531250	-3.823949	-0.040402	-0.734762	-0.677121
0.228165	-20.531250	-3.823949	0.040402	-0.734762	-0.677121
-1.174371	-20.375000	-3.823722	-0.199151	-0.734762	-0.648432
1.174371	-20.375000	-3.823722	0.199151	-0.734762	-0.648432
-0.490964	-20.508928	-3.823536	-0.086392	-0.734762	-0.672801
0.490964	-20.508928	-3.823536	0.086392	-0.734762	-0.672801
-0.998367	-20.419643	-3.823447	-0.171376	-0.734762	-0.656319
0.998367	-20.419643	-3.823447	0.171376	-0.734762	-0.656319
-0.657332	-20.486607	-3.823008	-0.114945	-0.734762	-0.668515
0.657332	-20.486607	-3.823008	0.114945	-0.734762	-0.668515
-0.792025	-20.464285	-3.822085	-0.137641	-0.734762	-0.664214
0.792025	-20.464285	-3.822085	0.137641	-0.734762	-0.664214
-0.260712	-20.531250	-3.821868	-0.046165	-0.734762	-0.676752
0.260712	-20.531250	-3.821868	0.046165	-0.734762	-0.676752
-1.102391	-20.397322	-3.819933	-0.188082	-0.734762	-0.651729
1.102391	-20.397322	-3.819933	0.188082	-0.734762	-0.651729
-0.293241	-20.531250	-3.819510	-0.051925	-0.734762	-0.676335
0.293241	-20.531250	-3.819510	0.051925	-0.734762	-0.676335
-0.523499	-20.508928	-3.819218	-0.092117	-0.734762	-0.672041
0.523499	-20.508928	-3.819218	0.092117	-0.734762	-0.672041
-0.689856	-20.486607	-3.817273	-0.120633	-0.734762	-0.667512
0.689856	-20.486607	-3.817273	0.120633	-0.734762	-0.667512
-0.325749	-20.531250	-3.816875	-0.057682	-0.734762	-0.675868
0.325749	-20.531250	-3.816875	0.057682	-0.734762	-0.675868
-0.927412	-20.441965	-3.816397	-0.160176	-0.734762	-0.659142
0.927412	-20.441965	-3.816397	0.160176	-0.734762	-0.659142
-0.824536	-20.464285	-3.815204	-0.143290	-0.734762	-0.663018
0.824536	-20.464285	-3.815204	0.143290	-0.734762	-0.663018
-1.030882	-20.419643	-3.814808	-0.176958	-0.734762	-0.654837
1.030882	-20.419643	-3.814808	0.176958	-0.734762	-0.654837
-0.555996	-20.508928	-3.814622	-0.097835	-0.734762	-0.671233
0.555996	-20.508928	-3.814622	0.097835	-0.734762	-0.671233
-0.358232	-20.531250	-3.813963	-0.063434	-0.734762	-0.675353
0.358232	-20.531250	-3.813963	0.063434	-0.734762	-0.675353
-1.206882	-20.375000	-3.813586	-0.204665	-0.734762	-0.646713
1.206882	-20.375000	-3.813586	0.204665	-0.734762	-0.646713
-0.722330	-20.486607	-3.811261	-0.126311	-0.734762	-0.666461
0.722330	-20.486607	-3.811261	0.126311	-0.734762	-0.666461
-0.390690	-20.531250	-3.810775	-0.069181	-0.734762	-0.674788
0.390690	-20.531250	-3.810775	0.069181	-0.734762	-0.674788
-1.134873	-20.397322	-3.810409	-0.193624	-0.734762	-0.650104
1.134873	-20.397322	-3.810409	0.193624	-0.734762	-0.650104
-0.588452	-20.508928	-3.809751	-0.103546	-0.734762	-0.670375
0.588452	-20.508928	-3.809751	0.103546	-0.734762	-0.670375
-0.959870	-20.441965	-3.808362	-0.165782	-0.734762	-0.657755
0.959870	-20.441965	-3.808362	0.165782	-0.734762	-0.657755
-0.856988	-20.464285	-3.808046	-0.148930	-0.734762	-0.661774
0.856988	-20.464285	-3.808046	0.148930	-0.734762	-0.661774
-0.423120	-20.531250	-3.807311	-0.074923	-0.734762	-0.674175
0.423120	-20.531250	-3.807311	0.074923	-0.734762	-0.674175
0.000000	-20.553572	-3.806571	0.000000	-0.734762	-0.678325
-0.032408	-20.553572	-3.806433	-0.005775	-0.734762	-0.678301
0.032408	-20.553572	-3.806433	0.005775	-0.734762	-0.678301
-0.064814	-20.553572	-3.806020	-0.011550	-0.734762	-0.678227
0.064814	-20.553572	-3.806020	0.011550	-0.734762	-0.678227
-1.063323	-20.419643	-3.805893	-0.182526	-0.734762	-0.653306
1.063323	-20.419643	-3.805893	0.182526	-0.734762	-0.653306
-0.097215	-20.553572	-3.805330	-0.017323	-0.734762	-0.678104
0.097215	-20.553572	-3.805330	0.017323	-0.734762	-0.678104
-0.754752	-20.486607	-3.804973	-0.131981	-0.734762	-0.665362
0.754752	-20.486607	-3.804973	0.131981	-0.734762	-0.665362
-0.620866	-20.508928	-3.804602	-0.109249	-0.734762	-0.669470
0.620866	-20.508928	-3.804602	0.109249	-0.734762	-0.669470
-0.129609	-20.553572	-3.804364	-0.023096	-0.734762	-0.677932
0.129609	-20.553572	-3.804364	0.023096	-0.734762	-0.677932
-0.455519	-20.531250	-3.803571	-0.080660	-0.734762	-0.673512
0.455519	-20.531250	-3.803571	0.080660	-0.734762	-0.673512
-1.239306	-20.375000	-3.803172	-0.210163	-0.734762	-0.644947
1.239306	-20.375000	-3.803172	0.210163	-0.734762	-0.644947
-0.161993	-20.553572	-3.803123	-0.028867	-0.734762	-0.677711
0.161993	-20.553572	-3.803123	0.028867	-0.734762	-0.677711
-0.194366	-20.553572	-3.801606	-0.034636	-0.734762	-0.677440
0.194366	-20.553572	-3.801606	0.034636	-0.734762	-0.677440
-0.889377	-20.464285	-3.800611	-0.154559	-0.734762	-0.660482
0.889377	-20.464285	-3.800611	0.154559	-0.734762	-0.660482
-1.167272	-20.397322	-3.800609	-0.199151	-0.734762	-0.648432
1.167272	-20.397322	-3.800609	0.199151	-0.734762	-0.648432
-0.992258	-20.441965	-3.800053	-0.171376	-0.734762	-0.656319
0.992258	-20.441965	-3.800053	0.171376	-0.734762	-0.656319
-0.226724	-20.553572	-3.799814	-0.040402	-0.734762	-0.677121
0.226724	-20.553572	-3.799814	0.040402	-0.734762	-0.677121
-0.487885	-20.531250	-3.799554	-0.086392	-0.734762	-0.672801
0.487885	-20.531250	-3.799554	0.086392	-0.734762	-0.672801
-0.653235	-20.508928	-3.799179	-0.114945	-0.734762	-0.668515
0.653235	-20.508928	-3.799179	0.114945	-0.734762	-0.668515
-0.787119	-20.486607	-3.798410	-0.137641	-0.734762	-0.664214
0.787119	-20.486607	-3.798410	0.137641	-0.734762	-0.664214
-0.259067	-20.553572	-3.797745	-0.046165	-0.734762	-0.676752
0.259067	-20.553572	-3.797745	0.046165	-0.734762	-0.676752
-1.095687	-20.419643	-3.796703	-0.188082	-0.734762	-0.651729
1.095687	-20.419643	-3.796703	0.188082	-0.734762	-0.651729
-0.291390	-20.553572	-3.795402	-0.051925	-0.734762	-0.676335
0.291390	-20.553572	-3.795402	0.051925	-0.734762	-0.676335
-0.520216	-20.531250	-3.795263	-0.092117	-0.734762	-0.672041
0.520216	-20.531250	-3.795263	0.092117	-0.734762	-0.672041
-0.685556	-20.508928	-3.793480	-0.120633	-0.734762	-0.667512
0.685556	-20.508928	-3.793480	0.120633	-0.734762	-0.667512
-0.921702	-20.464285	-3.792902	-0.160176	-0.734762	-0.659142
0.921702	-20.464285	-3.792902	0.160176	-0.734762	-0.659142
-0.323693	-20.553572	-3.792784	-0.057682	-0.734762	-0.675868
0.323693	-20.553572	-3.792784	0.057682	-0.734762	-0.675868
-1.271641	-20.375000	-3.792483	-0.215646	-0.734762	-0.643134
1.271641	-20.375000	-3.792483	0.215646	-0.734762	-0.643134
-0.819429	-20.486607	-3.791571	-0.143290	-0.734762	-0.663018
0.819429	-20.486607	-3.791571	0.143290	-0.734762	-0.663018
-1.024575	-20.441965	-3.791467	-0.176958	-0.734762	-0.654837
1.024575	-20.441965	-3.791467	0.176958	-0.734762	-0.654837
-0.552508	-20.531250	-3.790697	-0.097835	-0.734762	-0.671233
0.552508	-20.531250	-3.790697	0.097835	-0.734762	-0.671233
-1.199587	-20.397322	-3.790534	-0.204665	-0.734762	-0.646713
1.199587	-20.397322	-3.790534	0.204665	-0.734762	-0.646713
-0.355971	-20.553572	-3.789891	-0.063434	-0.734762	-0.675353
0.355971	-20.553572	-3.789891	0.063434	-0.734762	-0.675353
-0.717828	-20.508928	-3.787505	-0.126311	-0.734762	-0.666461
0.717828	-20.508928	-3.787505	0.126311	-0.734762	-0.666461
-1.127971	-20.419643	-3.787237	-0.193624	-0.734762	-0.650104
1.127971	-20.419643	-3.787237	0.193624	-0.734762	-0.650104
-0.388225	-20.553572	-3.786723	-0.069181	-0.734762	-0.674788
0.388225	-20.553572	-3.786723	0.069181	-0.734762	-0.674788
-0.584761	-20.531250	-3.785855	-0.103546	-0.734762	-0.670375
0.584761	-20.531250	-3.785855	0.103546	-0.734762	-0.670375
-0.953961	-20.464285	-3.784917	-0.165782	-0.734762	-0.657755
0.953961	-20.464285	-3.784917	0.165782	-0.734762	-0.657755
-0.851679	-20.486607	-3.784457	-0.148930	-0.734762	-0.661774
0.851679	-20.486607	-3.784457	0.148930	-0.734762	-0.661774
-0.420449	-20.553572	-3.783280	-0.074923	-0.734762	-0.674175
0.420449	-20.553572	-3.783280	0.074923	-0.734762	-0.674175
-1.056817	-20.441965	-3.782607	-0.182526	-0.734762	-0.653306
1.056817	-20.441965	-3.782607	0.182526	-0.734762	-0.653306
0.000000	-20.575893	-3.782393	0.000000	-0.734762	-0.678325
-0.032202	-20.575893	-3.782256	-0.005775	-0.734762	-0.678301
0.032202	-20.575893	-3.782256	0.005775	-0.734762	-0.678301
-0.064402	-20.575893	-3.781845	-0.011550	-0.734762	-0.678227
0.064402	-20.575893	-3.781845	0.011550	-0.734762	-0.678227
-1.303882	-20.375000	-3.781520	-0.221114	-0.734762	-0.641275
1.303882	-20.375000	-3.781520	0.221114	-0.734762	-0.641275
-0.750047	-20.508928	-3.781257	-0.131981	-0.734762	-0.665362
0.750047	-20.508928	-3.781257	0.131981	-0.734762	-0.665362
-0.096597	-20.575893	-3.781159	-0.017323	-0.734762	-0.678104
0.096597	-20.575893	-3.781159	0.017323	-0.734762	-0.678104
-0.616972	-20.531250	-3.780740	-0.109249	-0.734762	-0.669470
0.616972	-20.531250	-3.780740	0.109249	-0.734762	-0.669470
-0.128785	-20.575893	-3.780200	-0.023096	-0.734762	-0.677932
0.128785	-20.575893	-3.780200	0.023096	-0.734762	-0.677932
-1.231815	-20.397322	-3.780184	-0.210163	-0.734762	-0.644947
1.231815	-20.397322	-3.780184	0.210163	-0.734762	-0.644947
-0.452644	-20.553572	-3.779563	-0.080660	-0.734762	-0.673512
0.452644	-20.553572	-3.779563	0.080660	-0.734762	-0.673512
-0.160964	-20.575893	-3.778966	-0.028867	-0.734762	-0.677711
0.160964	-20.575893	-3.778966	0.028867	-0.734762	-0.677711
-1.160174	-20.419643	-3.777496	-0.199151	-0.734762	-0.648432
1.160174	-20.419643	-3.777496	0.199151	-0.734762	-0.648432
-0.193131	-20.575893	-3.777459	-0.034636	-0.734762	-0.677440
0.193131	-20.575893	-3.777459	0.034636	-0.734762	-0.677440
-0.883868	-20.486607	-3.777069	-0.154559	-0.734762	-0.660482
0.883868	-20.486607	-3.777069	0.154559	-0.734762	-0.660482
-0.986150	-20.464285	-3.776658	-0.171376	-0.734762	-0.656319
0.986150	-20.464285	-3.776658	0.171376	-0.734762	-0.656319
-0.225284	-20.575893	-3.775678	-0.040402	-0.734762	-0.677121
0.225284	-20.575893	-3.775678	0.040402	-0.734762	-0.677121
-0.484806	-20.553572	-3.775573	-0.086392	-0.734762	-0.672801
0.484806	-20.553572	-3.775573	0.086392	-0.734762	-0.672801
-0.649137	-20.531250	-3.775350	-0.114945	-0.734762	-0.668515
0.649137	-20.531250	-3.775350	0.114945	-0.734762	-0.668515
-0.782213	-20.508928	-3.774734	-0.137641	-0.734762	-0.664214
0.782213	-20.508928	-3.774734	0.137641	-0.734762	-0.664214
-0.257421	-20.575893	-3.773623	-0.046165	-0.734762	-0.676752
0.257421	-20.575893	-3.773623	0.046165	-0.734762	-0.676752
-1.088983	-20.441965	-3.773472	-0.188082	-0.734762	-0.651729
1.088983	-20.441965	-3.773472	0.188082	-0.734762	-0.651729
-0.516932	-20.553572	-3.771308	-0.092117	-0.734762	-0.672041
0.516932	-20.553572	-3.771308	0.092117	-0.734762	-0.672041
-0.289539	-20.575893	-3.771295	-0.051925	-0.734762	-0.676335
0.289539	-20.575893	-3.771295	0.051925	-0.734762	-0.676335
-1.336030	-20.375000	-3.770282	-0.226566	-0.734762	-0.639369
1.336030	-20.375000	-3.770282	0.226566	-0.734762	-0.639369
-0.681256	-20.531250	-3.769686	-0.120633	-0.734762	-0.667512
0.681256	-20.531250	-3.769686	0.120633	-0.734762	-0.667512
-1.263954	-20.397322	-3.769559	-0.215646	-0.734762	-0.643134
1.263954	-20.397322	-3.769559	0.215646	-0.734762	-0.643134
-0.915993	-20.486607	-3.769407	-0.160176	-0.734762	-0.659142
0.915993	-20.486607	-3.769407	0.160176	-0.734762	-0.659142
-0.321637	-20.575893	-3.768693	-0.057682	-0.734762	-0.675868
0.321637	-20.575893	-3.768693	0.057682	-0.734762	-0.675868
-1.018267	-20.464285	-3.768126	-0.176958	-0.734762	-0.654837
1.018267	-20.464285	-3.768126	0.176958	-0.734762	-0.654837
-0.814321	-20.508928	-3.767938	-0.143290	-0.734762	-0.663018
0.814321	-20.508928	-3.767938	0.143290	-0.734762	-0.663018
-1.192292	-20.419643	-3.767482	-0.204665	-0.734762	-0.646713
1.192292	-20.419643	-3.767482	0.204665	-0.734762	-0.646713
-0.549021	-20.553572	-3.766771	-0.097835	-0.734762	-0.671233
0.549021	-20.553572	-3.766771	0.097835	-0.734762	-0.671233
-0.353710	-20.575893	-3.765818	-0.063434	-0.734762	-0.675353
0.353710	-20.575893	-3.765818	0.063434	-0.734762	-0.675353
-1.121070	-20.441965	-3.764064	-0.193624	-0.734762	-0.650104
1.121070	-20.441965	-3.764064	0.193624	-0.734762	-0.650104
-0.713325	-20.531250	-3.763750	-0.126311	-0.734762	-0.666461
0.713325	-20.531250	-3.763750	0.126311	-0.734762	-0.666461
-0.385759	-20.575893	-3.762670	-0.069181	-0.734762	-0.674788
0.385759	-20.575893	-3.762670	0.069181	-0.734762	-0.674788
-0.581070	-20.553572	-3.761960	-0.103546	-0.734762	-0.670375
0.581070	-20.553572	-3.761960	0.103546	-0.734762	-0.670375
-0.948051	-20.486607	-3.761472	-0.165782	-0.734762	-0.657755
0.948051	-20.486607	-3.761472	0.165782	-0.734762	-0.657755
-0.846371	-20.508928	-3.760868	-0.148930	-0.734762	-0.661774
0.846371	-20.508928	-3.760868	0.148930	-0.734762	-0.661774
-1.050311	-20.464285	-3.759320	-0.182526	-0.734762	-0.653306
1.050311	-20.464285	-3.759320	0.182526	-0.734762	-0.653306
-0.417779	-20.575893	-3.759249	-0.074923	-0.734762	-0.674175
0.417779	-20.575893	-3.759249	0.074923	-0.734762	-0.674175
-1.368081	-20.375000	-3.758770	-0.232001	-0.734762	-0.637417
1.368081	-20.375000	-3.758770	0.232001	-0.734762	-0.637417
-1.296001	-20.397322	-3.758662	-0.221114	-0.734762	-0.641275
1.296001	-20.397322	-3.758662	0.221114	-0.734762	-0.641275
0.000000	-20.598215	-3.758214	0.000000	-0.734762	-0.678325
0.031996	-20.598215	-3.758078	0.005775	-0.734762	-0.678301
-0.031996	-20.598215	-3.758078	-0.005775	-0.734762	-0.678301
-0.063990	-20.598215	-3.757669	-0.011550	-0.734762	-0.678227
0.063990	-20.598215	-3.757669	0.011550	-0.734762	-0.678227
-0.745343	-20.531250	-3.757540	-0.131981	-0.734762	-0.665362
0.745343	-20.531250	-3.757540	0.131981	-0.734762	-0.665362
-1.224324	-20.419643	-3.757195	-0.210163	-0.734762	-0.644947
1.224324	-20.419643	-3.757195	0.210163	-0.734762	-0.644947
-0.095980	-20.598215	-3.756989	-0.017323	-0.734762	-0.678104
0.095980	-20.598215	-3.756989	0.017323	-0.734762	-0.678104
-0.613078	-20.553572	-3.756877	-0.109249	-0.734762	-0.669470
0.613078	-20.553572	-3.756877	0.109249	-0.734762	-0.669470
-0.127962	-20.598215	-3.756035	-0.023096	-0.734762	-0.677932
0.127962	-20.598215	-3.756035	0.023096	-0.734762	-0.677932
-0.449769	-20.575893	-3.755556	-0.080660	-0.734762	-0.673512
0.449769	-20.575893	-3.755556	0.080660	-0.734762	-0.673512
-0.159935	-20.598215	-3.754810	-0.028867	-0.734762	-0.677711
0.159935	-20.598215	-3.754810	0.028867	-0.734762	-0.677711
-1.153075	-20.441965	-3.754383	-0.199151	-0.734762	-0.648432
1.153075	-20.441965	-3.754383	0.199151	-0.734762	-0.648432
-0.878359	-20.508928	-3.753526	-0.154559	-0.734762	-0.660482
0.878359	-20.508928	-3.753526	0.154559	-0.734762	-0.660482
-0.191897	-20.598215	-3.753312	-0.034636	-0.734762	-0.677440
0.191897	-20.598215	-3.753312	0.034636	-0.734762	-0.677440
-0.980041	-20.486607	-3.753264	-0.171376	-0.734762	-0.656319
0.980041	-20.486607	-3.753264	0.171376	-0.734762	-0.656319
-0.481726	-20.575893	-3.751591	-0.086392	-0.734762	-0.672801
0.481726	-20.575893	-3.751591	0.086392	-0.734762	-0.672801
-0.223844	-20.598215	-3.751542	-0.040402	-0.734762	-0.677121
0.223844	-20.598215	-3.751542	0.040402	-0.734762	-0.677121
-0.645040	-20.553572	-3.751521	-0.114945	-0.734762	-0.668515
0.645040	-20.553572	-3.751521	0.114945	-0.734762	-0.668515
-0.777306	-20.531250	-3.751059	-0.137641	-0.734762	-0.664214
0.777306	-20.531250	-3.751059	0.137641	-0.734762	-0.664214
-1.082279	-20.464285	-3.750242	-0.188082	-0.734762	-0.651729
1.082279	-20.464285	-3.750242	0.188082	-0.734762	-0.651729
-0.255776	-20.598215	-3.749501	-0.046165	-0.734762	-0.676752
0.255776	-20.598215	-3.749501	0.046165	-0.734762	-0.676752
-1.327954	-20.397322	-3.747492	-0.226566	-0.734762	-0.639369
1.327954	-20.397322	-3.747492	0.226566	-0.734762	-0.639369
-0.513649	-20.575893	-3.747354	-0.092117	-0.734762	-0.672041
0.513649	-20.575893	-3.747354	0.092117	-0.734762	-0.672041
-0.287688	-20.598215	-3.747187	-0.051925	-0.734762	-0.676335
0.287688	-20.598215	-3.747187	0.051925	-0.734762	-0.676335
-1.400032	-20.375000	-3.746987	-0.237419	-0.734762	-0.635419
1.400032	-20.375000	-3.746987	0.237419	-0.734762	-0.635419
-1.256267	-20.419643	-3.746635	-0.215646	-0.734762	-0.643134
1.256267	-20.419643	-3.746635	0.215646	-0.734762	-0.643134
-0.910284	-20.508928	-3.745912	-0.160176	-0.734762	-0.659142
0.910284	-20.508928	-3.745912	0.160176	-0.734762	-0.659142
-0.676956	-20.553572	-3.745893	-0.120633	-0.734762	-0.667512
0.676956	-20.553572	-3.745893	0.120633	-0.734762	-0.667512
-1.011960	-20.486607	-3.744784	-0.176958	-0.734762	-0.654837
1.011960	-20.486607	-3.744784	0.176958	-0.734762	-0.654837
-0.319580	-20.598215	-3.744602	-0.057682	-0.734762	-0.675868
0.319580	-20.598215	-3.744602	0.057682	-0.734762	-0.675868
-1.184997	-20.441965	-3.744430	-0.204665	-0.734762	-0.646713
1.184997	-20.441965	-3.744430	0.204665	-0.734762	-0.646713
-0.809214	-20.531250	-3.744305	-0.143290	-0.734762	-0.663018
0.809214	-20.531250	-3.744305	0.143290	-0.734762	-0.663018
-0.545534	-20.575893	-3.742845	-0.097835	-0.734762	-0.671233
0.545534	-20.575893	-3.742845	0.097835	-0.734762	-0.671233
-0.351449	-20.598215	-3.741745	-0.063434	-0.734762	-0.675353
0.351449	-20.598215	-3.741745	0.063434	-0.734762	-0.675353
-1.114168	-20.464285	-3.740891	-0.193624	-0.734762	-0.650104
1.114168	-20.464285	-3.740891	0.193624	-0.734762	-0.650104
-0.708823	-20.553572	-3.739994	-0.126311	-0.734762	-0.666461
0.708823	-20.553572	-3.739994	0.126311	-0.734762	-0.666461
-0.383293	-20.598215	-3.738618	-0.069181	-0.734762	-0.674788
0.383293	-20.598215	-3.738618	0.069181	-0.734762	-0.674788
-0.577380	-20.575893	-3.738065	-0.103546	-0.734762	-0.670375
0.577380	-20.575893	-3.738065	0.103546	-0.734762	-0.670375
-0.942142	-20.508928	-3.738027	-0.165782	-0.734762	-0.657755
0.942142	-20.508928	-3.738027	0.165782	-0.734762	-0.657755
-0.841062	-20.531250	-3.737280	-0.148930	-0.734762	-0.661774
0.841062	-20.531250	-3.737280	0.148930	-0.734762	-0.661774
-1.359811	-20.397322	-3.736050	-0.232001	-0.734762	-0.637417
1.359811	-20.397322	-3.736050	0.232001	-0.734762	-0.637417
-1.043805	-20.486607	-3.736033	-0.182526	-0.734762	-0.653306
1.043805	-20.486607	-3.736033	0.182526	-0.734762	-0.653306
-1.288119	-20.419643	-3.735804	-0.221114	-0.734762	-0.641275
1.288119	-20.419643	-3.735804	0.221114	-0.734762	-0.641275
-0.415108	-20.598215	-3.735219	-0.074923	-0.734762	-0.674175
0.415108	-20.598215	-3.735219	0.074923	-0.734762	-0.674175
-1.431882	-20.375000	-3.734931	-0.242820	-0.734762	-0.633375
1.431882	-20.375000	-3.734931	0.242820	-0.734762	-0.633375
-1.216833	-20.441965	-3.734206	-0.210163	-0.734762	-0.644947
1.216833	-20.441965	-3.734206	0.210163	-0.734762	-0.644947
0.000000	-20.620535	-3.734036	0.000000	-0.734762	-0.678325
0.031790	-20.620535	-3.733900	0.005775	-0.734762	-0.678301
-0.031790	-20.620535	-3.733900	-0.005775	-0.734762	-0.678301
-0.740639	-20.553572	-3.733824	-0.131981	-0.734762	-0.665362
0.740639	-20.553572	-3.733824	0.131981	-0.734762	-0.665362
-0.063579	-20.620535	-3.733495	-0.011550	-0.734762	-0.678227
0.063579	-20.620535	-3.733495	0.011550	-0.734762	-0.678227
-0.609183	-20.575893	-3.733014	-0.109249	-0.734762	-0.669470
0.609183	-20.575893	-3.733014	0.109249	-0.734762	-0.669470
-0.095362	-20.620535	-3.732818	-0.017323	-0.734762	-0.678104
0.095362	-20.620535	-3.732818	0.017323	-0.734762	-0.678104
-0.127139	-20.620535	-3.731871	-0.023096	-0.734762	-0.677932
0.127139	-20.620535	-3.731871	0.023096	-0.734762	-0.677932
-0.446894	-20.598215	-3.731549	-0.080660	-0.734762	-0.673512
0.446894	-20.598215	-3.731549	0.080660	-0.734762	-0.673512
-1.145976	-20.464285	-3.731270	-0.199151	-0.734762	-0.648432
1.145976	-20.464285	-3.731270	0.199151	-0.734762	-0.648432
-0.158906	-20.620535	-3.730653	-0.028867	-0.734762	-0.677711
0.158906	-20.620535	-3.730653	0.028867	-0.734762	-0.677711
-0.872850	-20.531250	-3.729984	-0.154559	-0.734762	-0.660482
0.872850	-20.531250	-3.729984	0.154559	-0.734762	-0.660482
-0.973932	-20.508928	-3.729870	-0.171376	-0.734762	-0.656319
0.973932	-20.508928	-3.729870	0.171376	-0.734762	-0.656319
-0.190662	-20.620535	-3.729165	-0.034636	-0.734762	-0.677440
0.190662	-20.620535	-3.729165	0.034636	-0.734762	-0.677440
-0.640943	-20.575893	-3.727692	-0.114945	-0.734762	-0.668515
0.640943	-20.575893	-3.727692	0.114945	-0.734762	-0.668515
-0.478647	-20.598215	-3.727609	-0.086392	-0.734762	-0.672801
0.478647	-20.598215	-3.727609	0.086392	-0.734762	-0.672801
-0.222404	-20.620535	-3.727407	-0.040402	-0.734762	-0.677121
0.222404	-20.620535	-3.727407	0.040402	-0.734762	-0.677121
-0.772400	-20.553572	-3.727383	-0.137641	-0.734762	-0.664214
0.772400	-20.553572	-3.727383	0.137641	-0.734762	-0.664214
-1.075575	-20.486607	-3.727011	-0.188082	-0.734762	-0.651729
1.075575	-20.486607	-3.727011	0.188082	-0.734762	-0.651729
-0.254130	-20.620535	-3.725378	-0.046165	-0.734762	-0.676752
0.254130	-20.620535	-3.725378	0.046165	-0.734762	-0.676752
-1.319878	-20.419643	-3.724702	-0.226566	-0.734762	-0.639369
1.319878	-20.419643	-3.724702	0.226566	-0.734762	-0.639369
-1.391569	-20.397322	-3.724338	-0.237419	-0.734762	-0.635419
1.391569	-20.397322	-3.724338	0.237419	-0.734762	-0.635419
-1.248581	-20.441965	-3.723711	-0.215646	-0.734762	-0.643134
1.248581	-20.441965	-3.723711	0.215646	-0.734762	-0.643134
-0.510365	-20.598215	-3.723399	-0.092117	-0.734762	-0.672041
0.510365	-20.598215	-3.723399	0.092117	-0.734762	-0.672041
-0.285838	-20.620535	-3.723079	-0.051925	-0.734762	-0.676335
0.285838	-20.620535	-3.723079	0.051925	-0.734762	-0.676335
-1.463628	-20.375000	-3.722606	-0.248204	-0.734762	-0.631284
1.463628	-20.375000	-3.722606	0.248204	-0.734762	-0.631284
-0.904574	-20.531250	-3.722417	-0.160176	-0.734762	-0.659142
0.904574	-20.531250	-3.722417	0.160176	-0.734762	-0.659142
-0.672656	-20.575893	-3.722100	-0.120633	-0.734762	-0.667512
0.672656	-20.575893	-3.722100	0.120633	-0.734762	-0.667512
-1.005652	-20.508928	-3.721443	-0.176958	-0.734762	-0.654837
1.005652	-20.508928	-3.721443	0.176958	-0.734762	-0.654837
-1.177702	-20.464285	-3.721379	-0.204665	-0.734762	-0.646713
1.177702	-20.464285	-3.721379	0.204665	-0.734762	-0.646713
-0.804106	-20.553572	-3.720672	-0.143290	-0.734762	-0.663018
0.804106	-20.553572	-3.720672	0.143290	-0.734762	-0.663018
-0.317524	-20.620535	-3.720511	-0.057682	-0.734762	-0.675868
0.317524	-20.620535	-3.720511	0.057682	-0.734762	-0.675868
-0.542047	-20.598215	-3.718919	-0.097835	-0.734762	-0.671233
0.542047	-20.598215	-3.718919	0.097835	-0.734762	-0.671233
-1.107266	-20.486607	-3.717719	-0.193624	-0.734762	-0.650104
1.107266	-20.486607	-3.717719	0.193624	-0.734762	-0.650104
-0.349188	-20.620535	-3.717673	-0.063434	-0.734762	-0.675353
0.349188	-20.620535	-3.717673	0.063434	-0.734762	-0.675353
-0.704321	-20.575893	-3.716238	-0.126311	-0.734762	-0.666461
0.704321	-20.575893	-3.716238	0.126311	-0.734762	-0.666461
-0.936233	-20.531250	-3.714581	-0.165782	-0.734762	-0.657755
0.936233	-20.531250	-3.714581	0.165782	-0.734762	-0.657755
-0.380827	-20.620535	-3.714565	-0.069181	-0.734762	-0.674788
0.380827	-20.620535	-3.714565	0.069181	-0.734762	-0.674788
-0.573689	-20.598215	-3.714170	-0.103546	-0.734762	-0.670375
0.573689	-20.598215	-3.714170	0.103546	-0.734762	-0.670375
-0.835754	-20.553572	-3.713691	-0.148930	-0.734762	-0.661774
0.835754	-20.553572	-3.713691	0.148930	-0.734762	-0.661774
-1.351541	-20.419643	-3.713330	-0.232001	-0.734762	-0.637417
1.351541	-20.419643	-3.713330	0.232001	-0.734762	-0.637417
-1.280238	-20.441965	-3.712946	-0.221114	-0.734762	-0.641275
1.280238	-20.441965	-3.712946	0.221114	-0.734762	-0.641275
-1.037299	-20.508928	-3.712746	-0.182526	-0.734762	-0.653306
1.037299	-20.508928	-3.712746	0.182526	-0.734762	-0.653306
-1.423227	-20.397322	-3.712355	-0.242820	-0.734762	-0.633375
1.423227	-20.397322	-3.712355	0.242820	-0.734762	-0.633375
-1.209342	-20.464285	-3.711217	-0.210163	-0.734762	-0.644947
1.209342	-20.464285	-3.711217	0.210163	-0.734762	-0.644947
-0.412438	-20.620535	-3.711188	-0.074923	-0.734762	-0.674175
0.412438	-20.620535	-3.711188	0.074923	-0.734762	-0.674175
-0.735934	-20.575893	-3.710107	-0.131981	-0.734762	-0.665362
0.735934	-20.575893	-3.710107	0.131981	-0.734762	-0.665362
-1.495268	-20.375000	-3.710010	-0.253570	-0.734762	-0.629148
1.495268	-20.375000	-3.710010	0.253570	-0.734762	-0.629148
0.000000	-20.642857	-3.709857	0.000000	-0.734762	-0.678325
0.031585	-20.642857	-3.709723	0.005775	-0.734762	-0.678301
-0.031585	-20.642857	-3.709723	-0.005775	-0.734762	-0.678301
-0.063167	-20.642857	-3.709319	-0.011550	-0.734762	-0.678227
0.063167	-20.642857	-3.709319	0.011550	-0.734762	-0.678227
-0.605289	-20.598215	-3.709151	-0.109249	-0.734762	-0.669470
0.605289	-20.598215	-3.709151	0.109249	-0.734762	-0.669470
-0.094745	-20.642857	-3.708647	-0.017323	-0.734762	-0.678104
0.094745	-20.642857	-3.708647	0.017323	-0.734762	-0.678104
-1.138878	-20.486607	-3.708157	-0.199151	-0.734762	-0.648432
1.138878	-20.486607	-3.708157	0.199151	-0.734762	-0.648432
-0.126316	-20.642857	-3.707706	-0.023096	-0.734762	-0.677932
0.126316	-20.642857	-3.707706	0.023096	-0.734762	-0.677932
-0.444019	-20.620535	-3.707542	-0.080660	-0.734762	-0.673512
0.444019	-20.620535	-3.707542	0.080660	-0.734762	-0.673512
-0.157877	-20.642857	-3.706496	-0.028867	-0.734762	-0.677711
0.157877	-20.642857	-3.706496	0.028867	-0.734762	-0.677711
-0.967824	-20.531250	-3.706476	-0.171376	-0.734762	-0.656319
0.967824	-20.531250	-3.706476	0.171376	-0.734762	-0.656319
-0.867341	-20.553572	-3.706441	-0.154559	-0.734762	-0.660482
0.867341	-20.553572	-3.706441	0.154559	-0.734762	-0.660482
-0.189428	-20.642857	-3.705018	-0.034636	-0.734762	-0.677440
0.189428	-20.642857	-3.705018	0.034636	-0.734762	-0.677440
-0.636846	-20.598215	-3.703863	-0.114945	-0.734762	-0.668515
0.636846	-20.598215	-3.703863	0.114945	-0.734762	-0.668515
-1.068871	-20.508928	-3.703780	-0.188082	-0.734762	-0.651729
1.068871	-20.508928	-3.703780	0.188082	-0.734762	-0.651729
-0.767494	-20.575893	-3.703707	-0.137641	-0.734762	-0.664214
0.767494	-20.575893	-3.703707	0.137641	-0.734762	-0.664214
-0.475567	-20.620535	-3.703628	-0.086392	-0.734762	-0.672801
0.475567	-20.620535	-3.703628	0.086392	-0.734762	-0.672801
-0.220964	-20.642857	-3.703271	-0.040402	-0.734762	-0.677121
0.220964	-20.642857	-3.703271	0.040402	-0.734762	-0.677121
-1.311803	-20.441965	-3.701912	-0.226566	-0.734762	-0.639369
1.311803	-20.441965	-3.701912	0.226566	-0.734762	-0.639369
-1.383107	-20.419643	-3.701689	-0.237419	-0.734762	-0.635419
1.383107	-20.419643	-3.701689	0.237419	-0.734762	-0.635419
-0.252485	-20.642857	-3.701255	-0.046165	-0.734762	-0.676752
0.252485	-20.642857	-3.701255	0.046165	-0.734762	-0.676752
-1.240894	-20.464285	-3.700787	-0.215646	-0.734762	-0.643134
1.240894	-20.464285	-3.700787	0.215646	-0.734762	-0.643134
-1.454781	-20.397322	-3.700104	-0.248204	-0.734762	-0.631284
1.454781	-20.397322	-3.700104	0.248204	-0.734762	-0.631284
-0.507082	-20.620535	-3.699445	-0.092117	-0.734762	-0.672041
0.507082	-20.620535	-3.699445	0.092117	-0.734762	-0.672041
-0.283987	-20.642857	-3.698972	-0.051925	-0.734762	-0.676335
0.283987	-20.642857	-3.698972	0.051925	-0.734762	-0.676335
-0.898865	-20.553572	-3.698923	-0.160176	-0.734762	-0.659142
0.898865	-20.553572	-3.698923	0.160176	-0.734762	-0.659142
-1.170407	-20.486607	-3.698327	-0.204665	-0.734762	-0.646713
1.170407	-20.486607	-3.698327	0.204665	-0.734762	-0.646713
-0.668356	-20.598215	-3.698307	-0.120633	-0.734762	-0.667512
0.668356	-20.598215	-3.698307	0.120633	-0.734762	-0.667512
-0.999345	-20.531250	-3.698102	-0.176958	-0.734762	-0.654837
0.999345	-20.531250	-3.698102	0.176958	-0.734762	-0.654837
-1.526800	-20.375000	-3.697145	-0.258917	-0.734762	-0.626967
1.526800	-20.375000	-3.697145	0.258917	-0.734762	-0.626967
-0.798999	-20.575893	-3.697039	-0.143290	-0.734762	-0.663018
0.798999	-20.575893	-3.697039	0.143290	-0.734762	-0.663018
-0.315468	-20.642857	-3.696420	-0.057682	-0.734762	-0.675868
0.315468	-20.642857	-3.696420	0.057682	-0.734762	-0.675868
-0.538559	-20.620535	-3.694993	-0.097835	-0.734762	-0.671233
0.538559	-20.620535	-3.694993	0.097835	-0.734762	-0.671233
-1.100365	-20.508928	-3.694546	-0.193624	-0.734762	-0.650104
1.100365	-20.508928	-3.694546	0.193624	-0.734762	-0.650104
-0.346927	-20.642857	-3.693600	-0.063434	-0.734762	-0.675353
0.346927	-20.642857	-3.693600	0.063434	-0.734762	-0.675353
-0.699818	-20.598215	-3.692483	-0.126311	-0.734762	-0.666461
0.699818	-20.598215	-3.692483	0.126311	-0.734762	-0.666461
-0.930324	-20.553572	-3.691136	-0.165782	-0.734762	-0.657755
0.930324	-20.553572	-3.691136	0.165782	-0.734762	-0.657755
-1.343272	-20.441965	-3.690609	-0.232001	-0.734762	-0.637417
1.343272	-20.441965	-3.690609	0.232001	-0.734762	-0.637417
-0.378361	-20.642857	-3.690513	-0.069181	-0.734762	-0.674788
0.378361	-20.642857	-3.690513	0.069181	-0.734762	-0.674788
-0.569998	-20.620535	-3.690274	-0.103546	-0.734762	-0.670375
0.569998	-20.620535	-3.690274	0.103546	-0.734762	-0.670375
-0.830445	-20.575893	-3.690103	-0.148930	-0.734762	-0.661774
0.830445	-20.575893	-3.690103	0.148930	-0.734762	-0.661774
-1.272357	-20.464285	-3.690088	-0.221114	-0.734762	-0.641275
