0.674278	-9.750000	-3.253871	0.137641	0.734762	-0.664214
-1.680315	-10.062500	-3.253171	-0.311293	0.734762	-0.602679
1.680315	-10.062500	-3.253171	0.311293	0.734762	-0.602679
-0.790386	-9.772322	-3.252521	-0.160176	0.734762	-0.659142
0.790386	-9.772322	-3.252521	0.160176	0.734762	-0.659142
-2.329046	-10.375000	-3.252007	-0.394963	0.734762	-0.551479
2.329046	-10.375000	-3.252007	0.394963	0.734762	-0.551479
-2.287364	-10.352678	-3.251941	-0.390253	0.734762	-0.554822
2.287364	-10.352678	-3.251941	0.390253	0.734762	-0.554822
-1.786130	-10.107142	-3.251581	-0.326583	0.734762	-0.594532
1.786130	-10.107142	-3.251581	0.326583	0.734762	-0.594532
-1.575598	-10.017858	-3.251506	-0.295800	0.734762	-0.610432
1.575598	-10.017858	-3.251506	0.295800	0.734762	-0.610432
-1.059518	-9.839286	-3.251441	-0.210163	0.734762	-0.644947
1.059518	-9.839286	-3.251441	0.210163	0.734762	-0.644947
-2.245854	-10.330358	-3.251403	-0.385515	0.734762	-0.558124
2.245854	-10.330358	-3.251403	0.385515	0.734762	-0.558124
-1.932873	-10.174108	-3.251230	-0.346637	0.734762	-0.583068
1.932873	-10.174108	-3.251230	0.346637	0.734762	-0.583068
-2.204519	-10.308036	-3.250395	-0.380750	0.734762	-0.561386
2.204519	-10.308036	-3.250395	0.380750	0.734762	-0.561386
-1.342221	-9.928572	-3.250187	-0.258917	0.734762	-0.626967
1.342221	-9.928572	-3.250187	0.258917	0.734762	-0.626967
-1.277839	-9.906250	-3.250067	-0.248204	0.734762	-0.631284
1.277839	-9.906250	-3.250067	0.248204	0.734762	-0.631284
-1.406975	-9.950892	-3.249049	-0.269554	0.734762	-0.622467
1.406975	-9.950892	-3.249049	0.269554	0.734762	-0.622467
-2.163366	-10.285714	-3.248921	-0.375956	0.734762	-0.564608
2.163366	-10.285714	-3.248921	0.375956	0.734762	-0.564608
-1.213853	-9.883928	-3.248704	-0.237419	0.734762	-0.635419
1.213853	-9.883928	-3.248704	0.237419	0.734762	-0.635419
-0.701956	-9.750000	-3.248013	-0.143290	0.734762	-0.663018
0.701956	-9.750000	-3.248013	0.143290	0.734762	-0.663018
-0.907178	-9.794642	-3.247010	-0.182526	0.734762	-0.653306
0.907178	-9.794642	-3.247010	0.182526	0.734762	-0.653306
-2.122398	-10.263392	-3.246983	-0.371136	0.734762	-0.567788
2.122398	-10.263392	-3.246983	0.371136	0.734762	-0.567788
-1.892945	-10.151786	-3.246680	-0.341660	0.734762	-0.585998
1.892945	-10.151786	-3.246680	0.341660	0.734762	-0.585998
-1.472076	-9.973214	-3.246643	-0.280114	0.734762	-0.617787
1.472076	-9.973214	-3.246643	0.280114	0.734762	-0.617787
-1.150286	-9.861608	-3.246112	-0.226566	0.734762	-0.639369
1.150286	-9.861608	-3.246112	0.226566	0.734762	-0.639369
-0.996905	-9.816964	-3.245897	-0.199151	0.734762	-0.648432
0.996905	-9.816964	-3.245897	0.199151	0.734762	-0.648432
-1.641645	-10.040178	-3.245783	-0.306151	0.734762	-0.605307
1.641645	-10.040178	-3.245783	0.306151	0.734762	-0.605307
-0.818048	-9.772322	-3.245674	-0.165782	0.734762	-0.657755
0.818048	-9.772322	-3.245674	0.165782	0.734762	-0.657755
-1.746922	-10.084822	-3.245380	-0.321510	0.734762	-0.597291
1.746922	-10.084822	-3.245380	0.321510	0.734762	-0.597291
-2.081621	-10.241072	-3.244584	-0.366289	0.734762	-0.570927
2.081621	-10.241072	-3.244584	0.366289	0.734762	-0.570927
-1.537501	-9.995536	-3.242955	-0.290592	0.734762	-0.612928
1.537501	-9.995536	-3.242955	0.290592	0.734762	-0.612928
-1.087162	-9.839286	-3.242302	-0.215646	0.734762	-0.643134
1.087162	-9.839286	-3.242302	0.215646	0.734762	-0.643134
-0.729583	-9.750000	-3.241919	-0.148930	0.734762	-0.661774
0.729583	-9.750000	-3.241919	0.148930	0.734762	-0.661774
-2.041040	-10.218750	-3.241728	-0.361415	0.734762	-0.574025
2.041040	-10.218750	-3.241728	0.361415	0.734762	-0.574025
-1.853235	-10.129464	-3.241688	-0.336659	0.734762	-0.588885
1.853235	-10.129464	-3.241688	0.336659	0.734762	-0.588885
-0.934789	-9.794642	-3.239169	-0.188082	0.734762	-0.651729
0.934789	-9.794642	-3.239169	0.188082	0.734762	-0.651729
-1.305463	-9.906250	-3.239070	-0.253570	0.734762	-0.629148
1.305463	-9.906250	-3.239070	0.253570	0.734762	-0.629148
-1.707950	-10.062500	-3.238748	-0.316413	0.734762	-0.600007
1.707950	-10.062500	-3.238748	0.316413	0.734762	-0.600007
-1.369843	-9.928572	-3.238642	-0.264245	0.734762	-0.624740
1.369843	-9.928572	-3.238642	0.264245	0.734762	-0.624740
-0.845651	-9.772322	-3.238592	-0.171376	0.734762	-0.656319
0.845651	-9.772322	-3.238592	0.171376	0.734762	-0.656319
-2.000659	-10.196428	-3.238418	-0.356514	0.734762	-0.577081
2.000659	-10.196428	-3.238418	0.356514	0.734762	-0.577081
-1.241467	-9.883928	-3.238252	-0.242820	0.734762	-0.633375
1.241467	-9.883928	-3.238252	0.242820	0.734762	-0.633375
-1.603223	-10.017858	-3.237974	-0.300986	0.734762	-0.607892
1.603223	-10.017858	-3.237974	0.300986	0.734762	-0.607892
-1.024503	-9.816964	-3.237292	-0.204665	0.734762	-0.646713
1.024503	-9.816964	-3.237292	0.204665	0.734762	-0.646713
-1.434585	-9.950892	-3.236953	-0.274844	0.734762	-0.620150
1.434585	-9.950892	-3.236953	0.274844	0.734762	-0.620150
-1.813748	-10.107142	-3.236257	-0.331633	0.734762	-0.591730
1.813748	-10.107142	-3.236257	0.331633	0.734762	-0.591730
-1.177881	-9.861608	-3.236201	-0.232001	0.734762	-0.637417
1.177881	-9.861608	-3.236201	0.232001	0.734762	-0.637417
-0.757157	-9.750000	-3.235590	-0.154559	0.734762	-0.660482
0.757157	-9.750000	-3.235590	0.154559	0.734762	-0.660482
-1.960483	-10.174108	-3.234656	-0.351588	0.734762	-0.580095
1.960483	-10.174108	-3.234656	0.351588	0.734762	-0.580095
-1.499664	-9.973214	-3.233992	-0.285363	0.734762	-0.615380
1.499664	-9.973214	-3.233992	0.285363	0.734762	-0.615380
-1.114726	-9.839286	-3.232929	-0.221114	0.734762	-0.641275
1.114726	-9.839286	-3.232929	0.221114	0.734762	-0.641275
-2.314967	-10.352678	-3.232349	-0.394963	0.734762	-0.551479
2.314967	-10.352678	-3.232349	0.394963	0.734762	-0.551479
-2.273454	-10.330358	-3.232165	-0.390253	0.734762	-0.554822
2.273454	-10.330358	-3.232165	0.390253	0.734762	-0.554822
-2.356648	-10.375000	-3.232060	-0.399643	0.734762	-0.548097
2.356648	-10.375000	-3.232060	0.399643	0.734762	-0.548097
-1.669219	-10.040178	-3.231689	-0.311293	0.734762	-0.602679
1.669219	-10.040178	-3.231689	0.311293	0.734762	-0.602679
-2.232112	-10.308036	-3.231509	-0.385515	0.734762	-0.558124
2.232112	-10.308036	-3.231509	0.385515	0.734762	-0.558124
-0.873193	-9.772322	-3.231275	-0.176958	0.734762	-0.654837
0.873193	-9.772322	-3.231275	0.176958	0.734762	-0.654837
-0.962332	-9.794642	-3.231094	-0.193624	0.734762	-0.650104
0.962332	-9.794642	-3.231094	0.193624	0.734762	-0.650104
-1.920518	-10.151786	-3.230447	-0.346637	0.734762	-0.583068
1.920518	-10.151786	-3.230447	0.346637	0.734762	-0.583068
-1.774489	-10.084822	-3.230389	-0.326583	0.734762	-0.594532
1.774489	-10.084822	-3.230389	0.326583	0.734762	-0.594532
-2.190948	-10.285714	-3.230385	-0.380750	0.734762	-0.561386
2.190948	-10.285714	-3.230385	0.380750	0.734762	-0.561386
-1.565054	-9.995536	-3.229748	-0.295800	0.734762	-0.610432
1.565054	-9.995536	-3.229748	0.295800	0.734762	-0.610432
-0.784677	-9.750000	-3.229026	-0.160176	0.734762	-0.659142
0.784677	-9.750000	-3.229026	0.160176	0.734762	-0.659142
-2.149965	-10.263392	-3.228796	-0.375956	0.734762	-0.564608
2.149965	-10.263392	-3.228796	0.375956	0.734762	-0.564608
-1.052027	-9.816964	-3.228452	-0.210163	0.734762	-0.644947
1.052027	-9.816964	-3.228452	0.210163	0.734762	-0.644947
-1.332992	-9.906250	-3.227839	-0.258917	0.734762	-0.626967
1.332992	-9.906250	-3.227839	0.258917	0.734762	-0.626967
-1.268992	-9.883928	-3.227566	-0.248204	0.734762	-0.631284
1.268992	-9.883928	-3.227566	0.248204	0.734762	-0.631284
-1.397366	-9.928572	-3.226862	-0.269554	0.734762	-0.622467
1.397366	-9.928572	-3.226862	0.269554	0.734762	-0.622467
-2.109169	-10.241072	-3.226744	-0.371136	0.734762	-0.567788
2.109169	-10.241072	-3.226744	0.371136	0.734762	-0.567788
-1.205390	-9.861608	-3.226055	-0.237419	0.734762	-0.635419
1.205390	-9.861608	-3.226055	0.237419	0.734762	-0.635419
-1.880767	-10.129464	-3.225793	-0.341660	0.734762	-0.585998
1.880767	-10.129464	-3.225793	0.341660	0.734762	-0.585998
-1.462091	-9.950892	-3.224622	-0.280114	0.734762	-0.617787
1.462091	-9.950892	-3.224622	0.280114	0.734762	-0.617787
-2.068565	-10.218750	-3.224234	-0.366289	0.734762	-0.570927
2.068565	-10.218750	-3.224234	0.366289	0.734762	-0.570927
-1.630732	-10.017858	-3.224207	-0.306151	0.734762	-0.605307
1.630732	-10.017858	-3.224207	0.306151	0.734762	-0.605307
-1.735462	-10.062500	-3.224089	-0.321510	0.734762	-0.597291
1.735462	-10.062500	-3.224089	0.321510	0.734762	-0.597291
-0.900672	-9.772322	-3.223724	-0.182526	0.734762	-0.653306
0.900672	-9.772322	-3.223724	0.182526	0.734762	-0.653306
-1.142210	-9.839286	-3.223321	-0.226566	0.734762	-0.639369
1.142210	-9.839286	-3.223321	0.226566	0.734762	-0.639369
-0.989806	-9.794642	-3.222784	-0.199151	0.734762	-0.648432
0.989806	-9.794642	-3.222784	0.199151	0.734762	-0.648432
-0.812139	-9.750000	-3.222229	-0.165782	0.734762	-0.657755
0.812139	-9.750000	-3.222229	0.165782	0.734762	-0.657755
-2.028157	-10.196428	-3.221267	-0.361415	0.734762	-0.574025
2.028157	-10.196428	-3.221267	0.361415	0.734762	-0.574025
-1.527142	-9.973214	-3.221107	-0.290592	0.734762	-0.612928
1.527142	-9.973214	-3.221107	0.290592	0.734762	-0.612928
-1.841235	-10.107142	-3.220698	-0.336659	0.734762	-0.588885
1.841235	-10.107142	-3.220698	0.336659	0.734762	-0.588885
-1.079475	-9.816964	-3.219378	-0.215646	0.734762	-0.643134
1.079475	-9.816964	-3.219378	0.215646	0.734762	-0.643134
-1.987951	-10.174108	-3.217848	-0.356514	0.734762	-0.577081
1.987951	-10.174108	-3.217848	0.356514	0.734762	-0.577081
-1.696672	-10.040178	-3.217361	-0.316413	0.734762	-0.600007
1.696672	-10.040178	-3.217361	0.316413	0.734762	-0.600007
-1.296424	-9.883928	-3.216645	-0.253570	0.734762	-0.629148
1.296424	-9.883928	-3.216645	0.253570	0.734762	-0.629148
-1.360424	-9.906250	-3.216373	-0.264245	0.734762	-0.624740
1.360424	-9.906250	-3.216373	0.264245	0.734762	-0.624740
-1.592495	-9.995536	-3.216306	-0.300986	0.734762	-0.607892
1.592495	-9.995536	-3.216306	0.300986	0.734762	-0.607892
-0.928085	-9.772322	-3.215939	-0.188082	0.734762	-0.651729
0.928085	-9.772322	-3.215939	0.188082	0.734762	-0.651729
-1.232812	-9.861608	-3.215676	-0.242820	0.734762	-0.633375
1.232812	-9.861608	-3.215676	0.242820	0.734762	-0.633375
-0.839543	-9.750000	-3.215198	-0.171376	0.734762	-0.656319
0.839543	-9.750000	-3.215198	0.171376	0.734762	-0.656319
-1.801927	-10.084822	-3.215165	-0.331633	0.734762	-0.591730
1.801927	-10.084822	-3.215165	0.331633	0.734762	-0.591730
-1.424788	-9.928572	-3.214848	-0.274844	0.734762	-0.620150
1.424788	-9.928572	-3.214848	0.274844	0.734762	-0.620150
-1.017208	-9.794642	-3.214240	-0.204665	0.734762	-0.646713
1.017208	-9.794642	-3.214240	0.204665	0.734762	-0.646713
-1.947951	-10.151786	-3.213979	-0.351588	0.734762	-0.580095
1.947951	-10.151786	-3.213979	0.351588	0.734762	-0.580095
-1.169611	-9.839286	-3.213480	-0.232001	0.734762	-0.637417
1.169611	-9.839286	-3.213480	0.232001	0.734762	-0.637417
-2.300889	-10.330358	-3.212692	-0.394963	0.734762	-0.551479
2.300889	-10.330358	-3.212692	0.394963	0.734762	-0.551479
-2.342403	-10.352678	-3.212523	-0.399643	0.734762	-0.548097
2.342403	-10.352678	-3.212523	0.399643	0.734762	-0.548097
-2.259543	-10.308036	-3.212388	-0.390253	0.734762	-0.554822
2.259543	-10.308036	-3.212388	0.390253	0.734762	-0.554822
-1.489492	-9.950892	-3.212057	-0.285363	0.734762	-0.615380
1.489492	-9.950892	-3.212057	0.285363	0.734762	-0.615380
-2.384079	-10.375000	-3.211879	-0.404295	0.734762	-0.544675
2.384079	-10.375000	-3.211879	0.404295	0.734762	-0.544675
-2.218371	-10.285714	-3.211615	-0.385515	0.734762	-0.558124
2.218371	-10.285714	-3.211615	0.385515	0.734762	-0.558124
-2.177376	-10.263392	-3.210375	-0.380750	0.734762	-0.561386
2.177376	-10.263392	-3.210375	0.380750	0.734762	-0.561386
-1.658123	-10.017858	-3.210207	-0.311293	0.734762	-0.602679
1.658123	-10.017858	-3.210207	0.311293	0.734762	-0.602679
-1.106845	-9.816964	-3.210071	-0.221114	0.734762	-0.641275
1.106845	-9.816964	-3.210071	0.221114	0.734762	-0.641275
-1.908162	-10.129464	-3.209664	-0.346637	0.734762	-0.583068
1.908162	-10.129464	-3.209664	0.346637	0.734762	-0.583068
-1.762848	-10.062500	-3.209198	-0.326583	0.734762	-0.594532
1.762848	-10.062500	-3.209198	0.326583	0.734762	-0.594532
-2.136564	-10.241072	-3.208671	-0.375956	0.734762	-0.564608
2.136564	-10.241072	-3.208671	0.375956	0.734762	-0.564608
-1.554511	-9.973214	-3.207989	-0.295800	0.734762	-0.610432
1.554511	-9.973214	-3.207989	0.295800	0.734762	-0.610432
-0.866886	-9.750000	-3.207934	-0.176958	0.734762	-0.654837
0.866886	-9.750000	-3.207934	0.176958	0.734762	-0.654837
-0.955431	-9.772322	-3.207921	-0.193624	0.734762	-0.650104
0.955431	-9.772322	-3.207921	0.193624	0.734762	-0.650104
-2.095940	-10.218750	-3.206506	-0.371136	0.734762	-0.567788
2.095940	-10.218750	-3.206506	0.371136	0.734762	-0.567788
-1.323763	-9.883928	-3.205491	-0.258917	0.734762	-0.626967
1.323763	-9.883928	-3.205491	0.258917	0.734762	-0.626967
-1.044536	-9.794642	-3.205463	-0.210163	0.734762	-0.644947
1.044536	-9.794642	-3.205463	0.210163	0.734762	-0.644947
-1.260145	-9.861608	-3.205064	-0.248204	0.734762	-0.631284
1.260145	-9.861608	-3.205064	0.248204	0.734762	-0.631284
-1.868588	-10.107142	-3.204905	-0.341660	0.734762	-0.585998
1.868588	-10.107142	-3.204905	0.341660	0.734762	-0.585998
-1.387758	-9.906250	-3.204674	-0.269554	0.734762	-0.622467
1.387758	-9.906250	-3.204674	0.269554	0.734762	-0.622467
-2.055509	-10.196428	-3.203884	-0.366289	0.734762	-0.570927
2.055509	-10.196428	-3.203884	0.366289	0.734762	-0.570927
-1.196927	-9.839286	-3.203406	-0.237419	0.734762	-0.635419
1.196927	-9.839286	-3.203406	0.237419	0.734762	-0.635419
-1.724002	-10.040178	-3.202799	-0.321510	0.734762	-0.597291
1.724002	-10.040178	-3.202799	0.321510	0.734762	-0.597291
-1.619820	-9.995536	-3.202632	-0.306151	0.734762	-0.605307
1.619820	-9.995536	-3.202632	0.306151	0.734762	-0.605307
-1.452107	-9.928572	-3.202601	-0.280114	0.734762	-0.617787
1.452107	-9.928572	-3.202601	0.280114	0.734762	-0.617787
-2.015275	-10.174108	-3.200807	-0.361415	0.734762	-0.574025
2.015275	-10.174108	-3.200807	0.361415	0.734762	-0.574025
-1.134134	-9.816964	-3.200531	-0.226566	0.734762	-0.639369
1.134134	-9.816964	-3.200531	0.226566	0.734762	-0.639369
-0.894166	-9.750000	-3.200437	-0.182526	0.734762	-0.653306
0.894166	-9.750000	-3.200437	0.182526	0.734762	-0.653306
-1.829235	-10.084822	-3.199707	-0.336659	0.734762	-0.588885
1.829235	-10.084822	-3.199707	0.336659	0.734762	-0.588885
-0.982707	-9.772322	-3.199670	-0.199151	0.734762	-0.648432
0.982707	-9.772322	-3.199670	0.199151	0.734762	-0.648432
-1.516784	-9.950892	-3.199260	-0.290592	0.734762	-0.612928
1.516784	-9.950892	-3.199260	0.290592	0.734762	-0.612928
-1.975243	-10.151786	-3.197278	-0.356514	0.734762	-0.577081
1.975243	-10.151786	-3.197278	0.356514	0.734762	-0.577081
-1.071789	-9.794642	-3.196454	-0.215646	0.734762	-0.643134
1.071789	-9.794642	-3.196454	0.215646	0.734762	-0.643134
-1.685394	-10.017858	-3.195974	-0.316413	0.734762	-0.600007
1.685394	-10.017858	-3.195974	0.316413	0.734762	-0.600007
-1.581766	-9.973214	-3.194638	-0.300986	0.734762	-0.607892
1.581766	-9.973214	-3.194638	0.300986	0.734762	-0.607892
-1.287386	-9.861608	-3.194219	-0.253570	0.734762	-0.629148
1.287386	-9.861608	-3.194219	0.253570	0.734762	-0.629148
-1.351005	-9.883928	-3.194104	-0.264245	0.734762	-0.624740
1.351005	-9.883928	-3.194104	0.264245	0.734762	-0.624740
-1.790107	-10.062500	-3.194073	-0.331633	0.734762	-0.591730
1.790107	-10.062500	-3.194073	0.331633	0.734762	-0.591730
-1.935419	-10.129464	-3.193302	-0.351588	0.734762	-0.580095
1.935419	-10.129464	-3.193302	0.351588	0.734762	-0.580095
-1.224157	-9.839286	-3.193100	-0.242820	0.734762	-0.633375
1.224157	-9.839286	-3.193100	0.242820	0.734762	-0.633375
-2.286811	-10.308036	-3.193035	-0.394963	0.734762	-0.551479
2.286811	-10.308036	-3.193035	0.394963	0.734762	-0.551479
-2.328158	-10.330358	-3.192986	-0.399643	0.734762	-0.548097
2.328158	-10.330358	-3.192986	0.399643	0.734762	-0.548097
-1.414992	-9.906250	-3.192743	-0.274844	0.734762	-0.620150
1.414992	-9.906250	-3.192743	0.274844	0.734762	-0.620150
-0.921381	-9.750000	-3.192708	-0.188082	0.734762	-0.651729
0.921381	-9.750000	-3.192708	0.188082	0.734762	-0.651729
-2.245633	-10.285714	-3.192612	-0.390253	0.734762	-0.554822
2.245633	-10.285714	-3.192612	0.390253	0.734762	-0.554822
-2.369668	-10.352678	-3.192464	-0.404295	0.734762	-0.544675
2.369668	-10.352678	-3.192464	0.404295	0.734762	-0.544675
-2.204629	-10.263392	-3.191721	-0.385515	0.734762	-0.558124
2.204629	-10.263392	-3.191721	0.385515	0.734762	-0.558124
-2.411338	-10.375000	-3.191465	-0.408918	0.734762	-0.541213
2.411338	-10.375000	-3.191465	0.408918	0.734762	-0.541213
-1.009913	-9.772322	-3.191188	-0.204665	0.734762	-0.646713
1.009913	-9.772322	-3.191188	0.204665	0.734762	-0.646713
-1.161342	-9.816964	-3.190760	-0.232001	0.734762	-0.637417
1.161342	-9.816964	-3.190760	0.232001	0.734762	-0.637417
-2.163804	-10.241072	-3.190364	-0.380750	0.734762	-0.561386
2.163804	-10.241072	-3.190364	0.380750	0.734762	-0.561386
-1.479320	-9.928572	-3.190122	-0.285363	0.734762	-0.615380
1.479320	-9.928572	-3.190122	0.285363	0.734762	-0.615380
-1.895806	-10.107142	-3.188880	-0.346637	0.734762	-0.583068
1.895806	-10.107142	-3.188880	0.346637	0.734762	-0.583068
-1.647027	-9.995536	-3.188725	-0.311293	0.734762	-0.602679
1.647027	-9.995536	-3.188725	0.311293	0.734762	-0.602679
-2.123163	-10.218750	-3.188545	-0.375956	0.734762	-0.564608
2.123163	-10.218750	-3.188545	0.375956	0.734762	-0.564608
-1.751207	-10.040178	-3.188006	-0.326583	0.734762	-0.594532
1.751207	-10.040178	-3.188006	0.326583	0.734762	-0.594532
-1.098963	-9.794642	-3.187213	-0.221114	0.734762	-0.641275
1.098963	-9.794642	-3.187213	0.221114	0.734762	-0.641275
-2.082711	-10.196428	-3.186267	-0.371136	0.734762	-0.567788
2.082711	-10.196428	-3.186267	0.371136	0.734762	-0.567788
-1.543967	-9.950892	-3.186230	-0.295800	0.734762	-0.610432
1.543967	-9.950892	-3.186230	0.295800	0.734762	-0.610432
-0.948529	-9.750000	-3.184748	-0.193624	0.734762	-0.650104
0.948529	-9.750000	-3.184748	0.193624	0.734762	-0.650104
-1.856410	-10.084822	-3.184018	-0.341660	0.734762	-0.585998
1.856410	-10.084822	-3.184018	0.341660	0.734762	-0.585998
-2.042453	-10.174108	-3.183533	-0.366289	0.734762	-0.570927
2.042453	-10.174108	-3.183533	0.366289	0.734762	-0.570927
-1.314534	-9.861608	-3.183143	-0.258917	0.734762	-0.626967
1.314534	-9.861608	-3.183143	0.258917	0.734762	-0.626967
-1.251298	-9.839286	-3.182562	-0.248204	0.734762	-0.631284
1.251298	-9.839286	-3.182562	0.248204	0.734762	-0.631284
-1.378150	-9.883928	-3.182487	-0.269554	0.734762	-0.622467
1.378150	-9.883928	-3.182487	0.269554	0.734762	-0.622467
-1.037045	-9.772322	-3.182474	-0.210163	0.734762	-0.644947
1.037045	-9.772322	-3.182474	0.210163	0.734762	-0.644947
-1.712542	-10.017858	-3.181509	-0.321510	0.734762	-0.597291
1.712542	-10.017858	-3.181509	0.321510	0.734762	-0.597291
-1.608907	-9.973214	-3.181056	-0.306151	0.734762	-0.605307
1.608907	-9.973214	-3.181056	0.306151	0.734762	-0.605307
-1.188465	-9.816964	-3.180757	-0.237419	0.734762	-0.635419
1.188465	-9.816964	-3.180757	0.237419	0.734762	-0.635419
-1.442122	-9.906250	-3.180581	-0.280114	0.734762	-0.617787
1.442122	-9.906250	-3.180581	0.280114	0.734762	-0.617787
-2.002393	-10.151786	-3.180346	-0.361415	0.734762	-0.574025
2.002393	-10.151786	-3.180346	0.361415	0.734762	-0.574025
-1.817235	-10.062500	-3.178717	-0.336659	0.734762	-0.588885
1.817235	-10.062500	-3.178717	0.336659	0.734762	-0.588885
-1.126059	-9.794642	-3.177742	-0.226566	0.734762	-0.639369
1.126059	-9.794642	-3.177742	0.226566	0.734762	-0.639369
-1.506426	-9.928572	-3.177412	-0.290592	0.734762	-0.612928
1.506426	-9.928572	-3.177412	0.290592	0.734762	-0.612928
-1.962536	-10.129464	-3.176708	-0.356514	0.734762	-0.577081
1.962536	-10.129464	-3.176708	0.356514	0.734762	-0.577081
-0.975609	-9.750000	-3.176557	-0.199151	0.734762	-0.648432
0.975609	-9.750000	-3.176557	0.199151	0.734762	-0.648432
-1.674115	-9.995536	-3.174587	-0.316413	0.734762	-0.600007
1.674115	-9.995536	-3.174587	0.316413	0.734762	-0.600007
-1.064102	-9.772322	-3.173530	-0.215646	0.734762	-0.643134
1.064102	-9.772322	-3.173530	0.215646	0.734762	-0.643134
-2.313913	-10.308036	-3.173450	-0.399643	0.734762	-0.548097
2.313913	-10.308036	-3.173450	0.399643	0.734762	-0.548097
-2.272733	-10.285714	-3.173378	-0.394963	0.734762	-0.551479
2.272733	-10.285714	-3.173378	0.394963	0.734762	-0.551479
-2.355258	-10.330358	-3.173050	-0.404295	0.734762	-0.544675
2.355258	-10.330358	-3.173050	0.404295	0.734762	-0.544675
-1.778286	-10.040178	-3.172981	-0.331633	0.734762	-0.591730
1.778286	-10.040178	-3.172981	0.331633	0.734762	-0.591730
-1.571038	-9.950892	-3.172970	-0.300986	0.734762	-0.607892
1.571038	-9.950892	-3.172970	0.300986	0.734762	-0.607892
-2.231723	-10.263392	-3.172836	-0.390253	0.734762	-0.554822
2.231723	-10.263392	-3.172836	0.390253	0.734762	-0.554822
-1.922887	-10.107142	-3.172625	-0.351588	0.734762	-0.580095
1.922887	-10.107142	-3.172625	0.351588	0.734762	-0.580095
-2.396762	-10.352678	-3.172174	-0.408918	0.734762	-0.541213
2.396762	-10.352678	-3.172174	0.408918	0.734762	-0.541213
-1.341587	-9.861608	-3.171836	-0.264245	0.734762	-0.624740
1.341587	-9.861608	-3.171836	0.264245	0.734762	-0.624740
-2.190888	-10.241072	-3.171827	-0.385515	0.734762	-0.558124
2.190888	-10.241072	-3.171827	0.385515	0.734762	-0.558124
-1.278348	-9.839286	-3.171793	-0.253570	0.734762	-0.629148
1.278348	-9.839286	-3.171793	0.253570	0.734762	-0.629148
-2.438421	-10.375000	-3.170820	-0.413511	0.734762	-0.537712
2.438421	-10.375000	-3.170820	0.413511	0.734762	-0.537712
-1.405195	-9.883928	-3.170638	-0.274844	0.734762	-0.620150
1.405195	-9.883928	-3.170638	0.274844	0.734762	-0.620150
-1.215502	-9.816964	-3.170523	-0.242820	0.734762	-0.633375
1.215502	-9.816964	-3.170523	0.242820	0.734762	-0.633375
-2.150233	-10.218750	-3.170354	-0.380750	0.734762	-0.561386
2.150233	-10.218750	-3.170354	0.380750	0.734762	-0.561386
-2.109763	-10.196428	-3.168420	-0.375956	0.734762	-0.564608
2.109763	-10.196428	-3.168420	0.375956	0.734762	-0.564608
-1.469149	-9.906250	-3.168188	-0.285363	0.734762	-0.615380
1.469149	-9.906250	-3.168188	0.285363	0.734762	-0.615380
-1.002618	-9.750000	-3.168136	-0.204665	0.734762	-0.646713
1.002618	-9.750000	-3.168136	0.204665	0.734762	-0.646713
-1.883451	-10.084822	-3.168097	-0.346637	0.734762	-0.583068
1.883451	-10.084822	-3.168097	0.346637	0.734762	-0.583068
-1.153072	-9.794642	-3.168039	-0.232001	0.734762	-0.637417
1.153072	-9.794642	-3.168039	0.232001	0.734762	-0.637417
-1.635931	-9.973214	-3.167243	-0.311293	0.734762	-0.602679
1.635931	-9.973214	-3.167243	0.311293	0.734762	-0.602679
-1.739566	-10.017858	-3.166814	-0.326583	0.734762	-0.594532
1.739566	-10.017858	-3.166814	0.326583	0.734762	-0.594532
-2.069482	-10.174108	-3.166029	-0.371136	0.734762	-0.567788
2.069482	-10.174108	-3.166029	0.371136	0.734762	-0.567788
-1.533423	-9.928572	-3.164472	-0.295800	0.734762	-0.610432
1.533423	-9.928572	-3.164472	0.295800	0.734762	-0.610432
-1.091082	-9.772322	-3.164355	-0.221114	0.734762	-0.641275
1.091082	-9.772322	-3.164355	0.221114	0.734762	-0.641275
-2.029396	-10.151786	-3.163183	-0.366289	0.734762	-0.570927
2.029396	-10.151786	-3.163183	0.366289	0.734762	-0.570927
-1.844232	-10.062500	-3.163130	-0.341660	0.734762	-0.585998
1.844232	-10.062500	-3.163130	0.341660	0.734762	-0.585998
-1.305305	-9.839286	-3.160795	-0.258917	0.734762	-0.626967
1.305305	-9.839286	-3.160795	0.258917	0.734762	-0.626967
-1.368542	-9.861608	-3.160299	-0.269554	0.734762	-0.622467
1.368542	-9.861608	-3.160299	0.269554	0.734762	-0.622467
-1.701082	-9.995536	-3.160219	-0.321510	0.734762	-0.597291
1.701082	-9.995536	-3.160219	0.321510	0.734762	-0.597291
-1.242450	-9.816964	-3.160060	-0.248204	0.734762	-0.631284
1.242450	-9.816964	-3.160060	0.248204	0.734762	-0.631284
-1.989510	-10.129464	-3.159885	-0.361415	0.734762	-0.574025
1.989510	-10.129464	-3.159885	0.361415	0.734762	-0.574025
-1.029554	-9.750000	-3.159485	-0.210163	0.734762	-0.644947
1.029554	-9.750000	-3.159485	0.210163	0.734762	-0.644947
-1.597994	-9.950892	-3.159480	-0.306151	0.734762	-0.605307
1.597994	-9.950892	-3.159480	0.306151	0.734762	-0.605307
-1.432138	-9.883928	-3.158560	-0.280114	0.734762	-0.617787
1.432138	-9.883928	-3.158560	0.280114	0.734762	-0.617787
-1.180002	-9.794642	-3.158108	-0.237419	0.734762	-0.635419
1.180002	-9.794642	-3.158108	0.237419	0.734762	-0.635419
-1.805235	-10.040178	-3.157726	-0.336659	0.734762	-0.588885
1.805235	-10.040178	-3.157726	0.336659	0.734762	-0.588885
-1.949828	-10.107142	-3.156139	-0.356514	0.734762	-0.577081
1.949828	-10.107142	-3.156139	0.356514	0.734762	-0.577081
-1.496068	-9.906250	-3.155565	-0.290592	0.734762	-0.612928
1.496068	-9.906250	-3.155565	0.290592	0.734762	-0.612928
-1.117983	-9.772322	-3.154952	-0.226566	0.734762	-0.639369
1.117983	-9.772322	-3.154952	0.226566	0.734762	-0.639369
-2.299667	-10.285714	-3.153913	-0.399643	0.734762	-0.548097
2.299667	-10.285714	-3.153913	0.399643	0.734762	-0.548097
-2.258654	-10.263392	-3.153720	-0.394963	0.734762	-0.551479
2.258654	-10.263392	-3.153720	0.394963	0.734762	-0.551479
-2.340847	-10.308036	-3.153635	-0.404295	0.734762	-0.544675
2.340847	-10.308036	-3.153635	0.404295	0.734762	-0.544675
-1.662837	-9.973214	-3.153200	-0.316413	0.734762	-0.600007
1.662837	-9.973214	-3.153200	0.316413	0.734762	-0.600007
-2.217812	-10.241072	-3.153059	-0.390253	0.734762	-0.554822
2.217812	-10.241072	-3.153059	0.390253	0.734762	-0.554822
-2.382186	-10.330358	-3.152883	-0.408918	0.734762	-0.541213
2.382186	-10.330358	-3.152883	0.408918	0.734762	-0.541213
-1.910355	-10.084822	-3.151947	-0.351588	0.734762	-0.580095
1.910355	-10.084822	-3.151947	0.351588	0.734762	-0.580095
-2.177146	-10.218750	-3.151933	-0.385515	0.734762	-0.558124
2.177146	-10.218750	-3.151933	0.385515	0.734762	-0.558124
-1.766465	-10.017858	-3.151889	-0.331633	0.734762	-0.591730
1.766465	-10.017858	-3.151889	0.331633	0.734762	-0.591730
-2.423682	-10.352678	-3.151654	-0.413511	0.734762	-0.537712
2.423682	-10.352678	-3.151654	0.413511	0.734762	-0.537712
-1.560309	-9.928572	-3.151302	-0.300986	0.734762	-0.607892
1.560309	-9.928572	-3.151302	0.300986	0.734762	-0.607892
-1.056415	-9.750000	-3.150606	-0.215646	0.734762	-0.643134
1.056415	-9.750000	-3.150606	0.215646	0.734762	-0.643134
-2.136661	-10.196428	-3.150344	-0.380750	0.734762	-0.561386
2.136661	-10.196428	-3.150344	0.380750	0.734762	-0.561386
-2.465329	-10.375000	-3.149945	-0.418074	0.734762	-0.534172
2.465329	-10.375000	-3.149945	0.418074	0.734762	-0.534172
-1.332168	-9.839286	-3.149567	-0.264245	0.734762	-0.624740
1.332168	-9.839286	-3.149567	0.264245	0.734762	-0.624740
-1.269309	-9.816964	-3.149368	-0.253570	0.734762	-0.629148
1.269309	-9.816964	-3.149368	0.253570	0.734762	-0.629148
-1.395398	-9.861608	-3.148533	-0.274844	0.734762	-0.620150
1.395398	-9.861608	-3.148533	0.274844	0.734762	-0.620150
-2.096362	-10.174108	-3.148295	-0.375956	0.734762	-0.564608
2.096362	-10.174108	-3.148295	0.375956	0.734762	-0.564608
-1.206846	-9.794642	-3.147947	-0.242820	0.734762	-0.633375
1.206846	-9.794642	-3.147947	0.242820	0.734762	-0.633375
-1.871095	-10.062500	-3.147314	-0.346637	0.734762	-0.583068
1.871095	-10.062500	-3.147314	0.346637	0.734762	-0.583068
-1.458977	-9.883928	-3.146253	-0.285363	0.734762	-0.615380
1.458977	-9.883928	-3.146253	0.285363	0.734762	-0.615380
-2.056253	-10.151786	-3.145790	-0.371136	0.734762	-0.567788
2.056253	-10.151786	-3.145790	0.371136	0.734762	-0.567788
-1.624835	-9.950892	-3.145761	-0.311293	0.734762	-0.602679
1.624835	-9.950892	-3.145761	0.311293	0.734762	-0.602679
-1.727926	-9.995536	-3.145622	-0.326583	0.734762	-0.594532
1.727926	-9.995536	-3.145622	0.326583	0.734762	-0.594532
-1.144802	-9.772322	-3.145319	-0.232001	0.734762	-0.637417
1.144802	-9.772322	-3.145319	0.232001	0.734762	-0.637417
-2.016340	-10.129464	-3.142832	-0.366289	0.734762	-0.570927
2.016340	-10.129464	-3.142832	0.366289	0.734762	-0.570927
-1.522880	-9.906250	-3.142713	-0.295800	0.734762	-0.610432
1.522880	-9.906250	-3.142713	0.295800	0.734762	-0.610432
-1.832054	-10.040178	-3.142242	-0.341660	0.734762	-0.585998
1.832054	-10.040178	-3.142242	0.341660	0.734762	-0.585998
-1.083200	-9.750000	-3.141497	-0.221114	0.734762	-0.641275
1.083200	-9.750000	-3.141497	0.221114	0.734762	-0.641275
-1.976628	-10.107142	-3.139424	-0.361415	0.734762	-0.574025
1.976628	-10.107142	-3.139424	0.361415	0.734762	-0.574025
-1.689622	-9.973214	-3.138929	-0.321510	0.734762	-0.597291
1.689622	-9.973214	-3.138929	0.321510	0.734762	-0.597291
-1.296076	-9.816964	-3.138447	-0.258917	0.734762	-0.626967
1.296076	-9.816964	-3.138447	0.258917	0.734762	-0.626967
-1.358934	-9.839286	-3.138112	-0.269554	0.734762	-0.622467
1.358934	-9.839286	-3.138112	0.269554	0.734762	-0.622467
-1.587082	-9.928572	-3.137904	-0.306151	0.734762	-0.605307
1.587082	-9.928572	-3.137904	0.306151	0.734762	-0.605307
-1.233603	-9.794642	-3.137558	-0.248204	0.734762	-0.631284
1.233603	-9.794642	-3.137558	0.248204	0.734762	-0.631284
-1.793235	-10.017858	-3.136735	-0.336659	0.734762	-0.588885
1.793235	-10.017858	-3.136735	0.336659	0.734762	-0.588885
-1.422153	-9.861608	-3.136539	-0.280114	0.734762	-0.617787
1.422153	-9.861608	-3.136539	0.280114	0.734762	-0.617787
-1.937120	-10.084822	-3.135569	-0.356514	0.734762	-0.577081
1.937120	-10.084822	-3.135569	0.356514	0.734762	-0.577081
-1.171539	-9.772322	-3.135458	-0.237419	0.734762	-0.635419
1.171539	-9.772322	-3.135458	0.237419	0.734762	-0.635419
-2.285422	-10.263392	-3.134377	-0.399643	0.734762	-0.548097
2.285422	-10.263392	-3.134377	0.399643	0.734762	-0.548097
-2.326436	-10.285714	-3.134220	-0.404295	0.734762	-0.544675
2.326436	-10.285714	-3.134220	0.404295	0.734762	-0.544675
-2.244576	-10.241072	-3.134063	-0.394963	0.734762	-0.551479
2.244576	-10.241072	-3.134063	0.394963	0.734762	-0.551479
-1.485710	-9.883928	-3.133717	-0.290592	0.734762	-0.612928
1.485710	-9.883928	-3.133717	0.290592	0.734762	-0.612928
-2.367611	-10.308036	-3.133591	-0.408918	0.734762	-0.541213
2.367611	-10.308036	-3.133591	0.408918	0.734762	-0.541213
-2.203902	-10.218750	-3.133283	-0.390253	0.734762	-0.554822
2.203902	-10.218750	-3.133283	0.390253	0.734762	-0.554822
-2.408943	-10.330358	-3.132487	-0.413511	0.734762	-0.537712
2.408943	-10.330358	-3.132487	0.413511	0.734762	-0.537712
-1.109907	-9.750000	-3.132162	-0.226566	0.734762	-0.639369
1.109907	-9.750000	-3.132162	0.226566	0.734762	-0.639369
-2.163405	-10.196428	-3.132039	-0.385515	0.734762	-0.558124
2.163405	-10.196428	-3.132039	0.385515	0.734762	-0.558124
-1.651559	-9.950892	-3.131813	-0.316413	0.734762	-0.600007
1.651559	-9.950892	-3.131813	0.316413	0.734762	-0.600007
-1.897822	-10.062500	-3.131270	-0.351588	0.734762	-0.580095
1.897822	-10.062500	-3.131270	0.351588	0.734762	-0.580095
-2.450427	-10.352678	-3.130905	-0.418074	0.734762	-0.534172
2.450427	-10.352678	-3.130905	0.418074	0.734762	-0.534172
-1.754644	-9.995536	-3.130797	-0.331633	0.734762	-0.591730
1.754644	-9.995536	-3.130797	0.331633	0.734762	-0.591730
-2.123090	-10.174108	-3.130333	-0.380750	0.734762	-0.561386
2.123090	-10.174108	-3.130333	0.380750	0.734762	-0.561386
-1.549581	-9.906250	-3.129634	-0.300986	0.734762	-0.607892
1.549581	-9.906250	-3.129634	0.300986	0.734762	-0.607892
-2.492057	-10.375000	-3.128842	-0.422606	0.734762	-0.530593
2.492057	-10.375000	-3.128842	0.422606	0.734762	-0.530593
-2.082961	-10.151786	-3.128170	-0.375956	0.734762	-0.564608
2.082961	-10.151786	-3.128170	0.375956	0.734762	-0.564608
-1.322749	-9.816964	-3.127299	-0.264245	0.734762	-0.624740
1.322749	-9.816964	-3.127299	0.264245	0.734762	-0.624740
-1.260271	-9.794642	-3.126942	-0.253570	0.734762	-0.629148
1.260271	-9.794642	-3.126942	0.253570	0.734762	-0.629148
-1.858739	-10.040178	-3.126531	-0.346637	0.734762	-0.583068
1.858739	-10.040178	-3.126531	0.346637	0.734762	-0.583068
-1.385602	-9.839286	-3.126428	-0.274844	0.734762	-0.620150
1.385602	-9.839286	-3.126428	0.274844	0.734762	-0.620150
-2.043024	-10.129464	-3.125552	-0.371136	0.734762	-0.567788
2.043024	-10.129464	-3.125552	0.371136	0.734762	-0.567788
-1.198191	-9.772322	-3.125371	-0.242820	0.734762	-0.633375
1.198191	-9.772322	-3.125371	0.242820	0.734762	-0.633375
-1.716285	-9.973214	-3.124430	-0.326583	0.734762	-0.594532
1.716285	-9.973214	-3.124430	0.326583	0.734762	-0.594532
-1.448805	-9.861608	-3.124318	-0.285363	0.734762	-0.615380
1.448805	-9.861608	-3.124318	0.285363	0.734762	-0.615380
-1.613739	-9.928572	-3.124278	-0.311293	0.734762	-0.602679
1.613739	-9.928572	-3.124278	0.311293	0.734762	-0.602679
-1.136533	-9.750000	-3.122599	-0.232001	0.734762	-0.637417
1.136533	-9.750000	-3.122599	0.232001	0.734762	-0.637417
-2.003284	-10.107142	-3.122482	-0.366289	0.734762	-0.570927
2.003284	-10.107142	-3.122482	0.366289	0.734762	-0.570927
-1.819875	-10.017858	-3.121355	-0.341660	0.734762	-0.585998
1.819875	-10.017858	-3.121355	0.341660	0.734762	-0.585998
-1.512336	-9.883928	-3.120955	-0.295800	0.734762	-0.610432
1.512336	-9.883928	-3.120955	0.295800	0.734762	-0.610432
-1.963745	-10.084822	-3.118963	-0.361415	0.734762	-0.574025
1.963745	-10.084822	-3.118963	0.361415	0.734762	-0.574025
-1.678162	-9.950892	-3.117639	-0.321510	0.734762	-0.597291
1.678162	-9.950892	-3.117639	0.321510	0.734762	-0.597291
-1.576169	-9.906250	-3.116328	-0.306151	0.734762	-0.605307
1.576169	-9.906250	-3.116328	0.306151	0.734762	-0.605307
-1.286847	-9.794642	-3.116099	-0.258917	0.734762	-0.626967
1.286847	-9.794642	-3.116099	0.258917	0.734762	-0.626967
-1.349326	-9.816964	-3.115924	-0.269554	0.734762	-0.622467
1.349326	-9.816964	-3.115924	0.269554	0.734762	-0.622467
-1.781235	-9.995536	-3.115745	-0.336659	0.734762	-0.588885
1.781235	-9.995536	-3.115745	0.336659	0.734762	-0.588885
-1.224756	-9.772322	-3.115057	-0.248204	0.734762	-0.631284
1.224756	-9.772322	-3.115057	0.248204	0.734762	-0.631284
-1.924412	-10.062500	-3.114999	-0.356514	0.734762	-0.577081
1.924412	-10.062500	-3.114999	0.356514	0.734762	-0.577081
-2.271177	-10.241072	-3.114840	-0.399643	0.734762	-0.548097
2.271177	-10.241072	-3.114840	0.399643	0.734762	-0.548097
-2.312025	-10.263392	-3.114806	-0.404295	0.734762	-0.544675
2.312025	-10.263392	-3.114806	0.404295	0.734762	-0.544675
-1.412169	-9.839286	-3.114518	-0.280114	0.734762	-0.617787
1.412169	-9.839286	-3.114518	0.280114	0.734762	-0.617787
-2.230498	-10.218750	-3.114406	-0.394963	0.734762	-0.551479
2.230498	-10.218750	-3.114406	0.394963	0.734762	-0.551479
-2.353035	-10.285714	-3.114300	-0.408918	0.734762	-0.541213
2.353035	-10.285714	-3.114300	0.408918	0.734762	-0.541213
-2.189991	-10.196428	-3.113507	-0.390253	0.734762	-0.554822
2.189991	-10.196428	-3.113507	0.390253	0.734762	-0.554822
-2.394203	-10.308036	-3.113321	-0.413511	0.734762	-0.537712
2.394203	-10.308036	-3.113321	0.413511	0.734762	-0.537712
-1.163077	-9.750000	-3.112809	-0.237419	0.734762	-0.635419
1.163077	-9.750000	-3.112809	0.237419	0.734762	-0.635419
-2.149663	-10.174108	-3.112144	-0.385515	0.734762	-0.558124
2.149663	-10.174108	-3.112144	0.385515	0.734762	-0.558124
-1.475352	-9.861608	-3.111870	-0.290592	0.734762	-0.612928
1.475352	-9.861608	-3.111870	0.290592	0.734762	-0.612928
-2.435524	-10.330358	-3.111865	-0.418074	0.734762	-0.534172
2.435524	-10.330358	-3.111865	0.418074	0.734762	-0.534172
-1.885290	-10.040178	-3.110593	-0.351588	0.734762	-0.580095
1.885290	-10.040178	-3.110593	0.351588	0.734762	-0.580095
-1.640280	-9.928572	-3.110426	-0.316413	0.734762	-0.600007
1.640280	-9.928572	-3.110426	0.316413	0.734762	-0.600007
-2.109518	-10.151786	-3.110323	-0.380750	0.734762	-0.561386
2.109518	-10.151786	-3.110323	0.380750	0.734762	-0.561386
-2.476993	-10.352678	-3.109929	-0.422606	0.734762	-0.530593
2.476993	-10.352678	-3.109929	0.422606	0.734762	-0.530593
-1.742823	-9.973214	-3.109705	-0.331633	0.734762	-0.591730
1.742823	-9.973214	-3.109705	0.331633	0.734762	-0.591730
-2.069560	-10.129464	-3.108045	-0.375956	0.734762	-0.564608
2.069560	-10.129464	-3.108045	0.375956	0.734762	-0.564608
-1.538852	-9.883928	-3.107966	-0.300986	0.734762	-0.607892
1.538852	-9.883928	-3.107966	0.300986	0.734762	-0.607892
-2.518605	-10.375000	-3.107512	-0.427108	0.734762	-0.526976
2.518605	-10.375000	-3.107512	0.427108	0.734762	-0.526976
-1.846383	-10.017858	-3.105748	-0.346637	0.734762	-0.583068
1.846383	-10.017858	-3.105748	0.346637	0.734762	-0.583068
-2.029795	-10.107142	-3.105313	-0.371136	0.734762	-0.567788
2.029795	-10.107142	-3.105313	0.371136	0.734762	-0.567788
-1.313330	-9.794642	-3.105030	-0.264245	0.734762	-0.624740
1.313330	-9.794642	-3.105030	0.264245	0.734762	-0.624740
-1.251233	-9.772322	-3.104516	-0.253570	0.734762	-0.629148
1.251233	-9.772322	-3.104516	0.253570	0.734762	-0.629148
-1.375805	-9.816964	-3.104323	-0.274844	0.734762	-0.620150
1.375805	-9.816964	-3.104323	0.274844	0.734762	-0.620150
-1.704644	-9.950892	-3.103238	-0.326583	0.734762	-0.594532
1.704644	-9.950892	-3.103238	0.326583	0.734762	-0.594532
-1.602644	-9.906250	-3.102796	-0.311293	0.734762	-0.602679
1.602644	-9.906250	-3.102796	0.311293	0.734762	-0.602679
-1.189536	-9.750000	-3.102794	-0.242820	0.734762	-0.633375
1.189536	-9.750000	-3.102794	0.242820	0.734762	-0.633375
-1.438634	-9.839286	-3.102383	-0.285363	0.734762	-0.615380
1.438634	-9.839286	-3.102383	0.285363	0.734762	-0.615380
-1.990228	-10.084822	-3.102131	-0.366289	0.734762	-0.570927
1.990228	-10.084822	-3.102131	0.366289	0.734762	-0.570927
-1.807697	-9.995536	-3.100467	-0.341660	0.734762	-0.585998
1.807697	-9.995536	-3.100467	0.341660	0.734762	-0.585998
-1.501792	-9.861608	-3.099196	-0.295800	0.734762	-0.610432
1.501792	-9.861608	-3.099196	0.295800	0.734762	-0.610432
-1.950863	-10.062500	-3.098502	-0.361415	0.734762	-0.574025
1.950863	-10.062500	-3.098502	0.361415	0.734762	-0.574025
-1.666702	-9.928572	-3.096349	-0.321510	0.734762	-0.597291
1.666702	-9.928572	-3.096349	0.321510	0.734762	-0.597291
-2.297614	-10.241072	-3.095391	-0.404295	0.734762	-0.544675
2.297614	-10.241072	-3.095391	0.404295	0.734762	-0.544675
-2.256932	-10.218750	-3.095303	-0.399643	0.734762	-0.548097
2.256932	-10.218750	-3.095303	0.399643	0.734762	-0.548097
-2.338459	-10.263392	-3.095009	-0.408918	0.734762	-0.541213
2.338459	-10.263392	-3.095009	0.408918	0.734762	-0.541213
-1.769235	-9.973214	-3.094754	-0.336659	0.734762	-0.588885
1.769235	-9.973214	-3.094754	0.336659	0.734762	-0.588885
-1.565257	-9.883928	-3.094752	-0.306151	0.734762	-0.605307
1.565257	-9.883928	-3.094752	0.306151	0.734762	-0.605307
-2.216420	-10.196428	-3.094749	-0.394963	0.734762	-0.551479
2.216420	-10.196428	-3.094749	0.394963	0.734762	-0.551479
-1.911705	-10.040178	-3.094429	-0.356514	0.734762	-0.577081
1.911705	-10.040178	-3.094429	0.356514	0.734762	-0.577081
-2.379464	-10.285714	-3.094154	-0.413511	0.734762	-0.537712
2.379464	-10.285714	-3.094154	0.413511	0.734762	-0.537712
-1.277618	-9.772322	-3.093751	-0.258917	0.734762	-0.626967
1.277618	-9.772322	-3.093751	0.258917	0.734762	-0.626967
-1.339718	-9.794642	-3.093737	-0.269554	0.734762	-0.622467
1.339718	-9.794642	-3.093737	0.269554	0.734762	-0.622467
-2.176081	-10.174108	-3.093730	-0.390253	0.734762	-0.554822
2.176081	-10.174108	-3.093730	0.390253	0.734762	-0.554822
-2.420623	-10.308036	-3.092824	-0.418074	0.734762	-0.534172
2.420623	-10.308036	-3.092824	0.418074	0.734762	-0.534172
-1.215909	-9.750000	-3.092555	-0.248204	0.734762	-0.631284
1.215909	-9.750000	-3.092555	0.248204	0.734762	-0.631284
-1.402184	-9.816964	-3.092498	-0.280114	0.734762	-0.617787
1.402184	-9.816964	-3.092498	0.280114	0.734762	-0.617787
-2.135922	-10.151786	-3.092251	-0.385515	0.734762	-0.558124
2.135922	-10.151786	-3.092251	0.385515	0.734762	-0.558124
-2.461930	-10.330358	-3.091017	-0.422606	0.734762	-0.530593
2.461930	-10.330358	-3.091017	0.422606	0.734762	-0.530593
-2.095946	-10.129464	-3.090313	-0.380750	0.734762	-0.561386
2.095946	-10.129464	-3.090313	0.380750	0.734762	-0.561386
-1.464994	-9.839286	-3.090022	-0.290592	0.734762	-0.612928
1.464994	-9.839286	-3.090022	0.290592	0.734762	-0.612928
-1.872758	-10.017858	-3.089916	-0.351588	0.734762	-0.580095
1.872758	-10.017858	-3.089916	0.351588	0.734762	-0.580095
-1.629002	-9.906250	-3.089039	-0.316413	0.734762	-0.600007
1.629002	-9.906250	-3.089039	0.316413	0.734762	-0.600007
-2.503381	-10.352678	-3.088728	-0.427108	0.734762	-0.526976
2.503381	-10.352678	-3.088728	0.427108	0.734762	-0.526976
-1.731002	-9.950892	-3.088613	-0.331633	0.734762	-0.591730
1.731002	-9.950892	-3.088613	0.331633	0.734762	-0.591730
-2.056159	-10.107142	-3.087920	-0.375956	0.734762	-0.564608
2.056159	-10.107142	-3.087920	0.375956	0.734762	-0.564608
-1.528124	-9.861608	-3.086298	-0.300986	0.734762	-0.607892
1.528124	-9.861608	-3.086298	0.300986	0.734762	-0.607892
-2.544970	-10.375000	-3.085957	-0.431579	0.734762	-0.523321
2.544970	-10.375000	-3.085957	0.431579	0.734762	-0.523321
-2.016566	-10.084822	-3.085075	-0.371136	0.734762	-0.567788
2.016566	-10.084822	-3.085075	0.371136	0.734762	-0.567788
-1.834028	-9.995536	-3.084965	-0.346637	0.734762	-0.583068
1.834028	-9.995536	-3.084965	0.346637	0.734762	-0.583068
-1.303911	-9.772322	-3.082762	-0.264245	0.734762	-0.624740
1.303911	-9.772322	-3.082762	0.264245	0.734762	-0.624740
-1.366008	-9.794642	-3.082218	-0.274844	0.734762	-0.620150
1.366008	-9.794642	-3.082218	0.274844	0.734762	-0.620150
-1.242194	-9.750000	-3.082091	-0.253570	0.734762	-0.629148
1.242194	-9.750000	-3.082091	0.253570	0.734762	-0.629148
-1.693003	-9.928572	-3.082047	-0.326583	0.734762	-0.594532
1.693003	-9.928572	-3.082047	0.326583	0.734762	-0.594532
-1.977172	-10.062500	-3.081781	-0.366289	0.734762	-0.570927
1.977172	-10.062500	-3.081781	0.366289	0.734762	-0.570927
-1.591548	-9.883928	-3.081314	-0.311293	0.734762	-0.602679
1.591548	-9.883928	-3.081314	0.311293	0.734762	-0.602679
-1.428462	-9.816964	-3.080448	-0.285363	0.734762	-0.615380
1.428462	-9.816964	-3.080448	0.285363	0.734762	-0.615380
-1.795519	-9.973214	-3.079580	-0.341660	0.734762	-0.585998
1.795519	-9.973214	-3.079580	0.341660	0.734762	-0.585998
-1.937980	-10.040178	-3.078042	-0.361415	0.734762	-0.574025
1.937980	-10.040178	-3.078042	0.361415	0.734762	-0.574025
-1.491249	-9.839286	-3.077438	-0.295800	0.734762	-0.610432
1.491249	-9.839286	-3.077438	0.295800	0.734762	-0.610432
-2.283203	-10.218750	-3.075976	-0.404295	0.734762	-0.544675
2.283203	-10.218750	-3.075976	0.404295	0.734762	-0.544675
-2.242687	-10.196428	-3.075767	-0.399643	0.734762	-0.548097
2.242687	-10.196428	-3.075767	0.399643	0.734762	-0.548097
-2.323884	-10.241072	-3.075718	-0.408918	0.734762	-0.541213
2.323884	-10.241072	-3.075718	0.408918	0.734762	-0.541213
-2.202341	-10.174108	-3.075092	-0.394963	0.734762	-0.551479
2.202341	-10.174108	-3.075092	0.394963	0.734762	-0.551479
-1.655242	-9.906250	-3.075058	-0.321510	0.734762	-0.597291
1.655242	-9.906250	-3.075058	0.321510	0.734762	-0.597291
-2.364725	-10.263392	-3.074988	-0.413511	0.734762	-0.537712
2.364725	-10.263392	-3.074988	0.413511	0.734762	-0.537712
-2.162171	-10.151786	-3.073954	-0.390253	0.734762	-0.554822
2.162171	-10.151786	-3.073954	0.390253	0.734762	-0.554822
-1.898997	-10.017858	-3.073860	-0.356514	0.734762	-0.577081
1.898997	-10.017858	-3.073860	0.356514	0.734762	-0.577081
-2.405720	-10.285714	-3.073784	-0.418074	0.734762	-0.534172
2.405720	-10.285714	-3.073784	0.418074	0.734762	-0.534172
-1.757235	-9.950892	-3.073764	-0.336659	0.734762	-0.588885
1.757235	-9.950892	-3.073764	0.336659	0.734762	-0.588885
-1.554344	-9.861608	-3.073176	-0.306151	0.734762	-0.605307
1.554344	-9.861608	-3.073176	0.306151	0.734762	-0.605307
-2.122180	-10.129464	-3.072356	-0.385515	0.734762	-0.558124
2.122180	-10.129464	-3.072356	0.385515	0.734762	-0.558124
-2.446866	-10.308036	-3.072104	-0.422606	0.734762	-0.530593
2.446866	-10.308036	-3.072104	0.422606	0.734762	-0.530593
-1.330109	-9.772322	-3.071549	-0.269554	0.734762	-0.622467
1.330109	-9.772322	-3.071549	0.269554	0.734762	-0.622467
-1.268389	-9.750000	-3.071403	-0.258917	0.734762	-0.626967
1.268389	-9.750000	-3.071403	0.258917	0.734762	-0.626967
-1.392200	-9.794642	-3.070477	-0.280114	0.734762	-0.617787
1.392200	-9.794642	-3.070477	0.280114	0.734762	-0.617787
-2.082375	-10.107142	-3.070302	-0.380750	0.734762	-0.561386
2.082375	-10.107142	-3.070302	0.380750	0.734762	-0.561386
-2.488157	-10.330358	-3.069944	-0.427108	0.734762	-0.526976
2.488157	-10.330358	-3.069944	0.427108	0.734762	-0.526976
-1.860226	-9.995536	-3.069238	-0.351588	0.734762	-0.580095
1.860226	-9.995536	-3.069238	0.351588	0.734762	-0.580095
-1.454636	-9.816964	-3.068175	-0.290592	0.734762	-0.612928
1.454636	-9.816964	-3.068175	0.290592	0.734762	-0.612928
-2.042759	-10.084822	-3.067795	-0.375956	0.734762	-0.564608
2.042759	-10.084822	-3.067795	0.375956	0.734762	-0.564608
-1.617723	-9.883928	-3.067652	-0.316413	0.734762	-0.600007
1.617723	-9.883928	-3.067652	0.316413	0.734762	-0.600007
-1.719181	-9.928572	-3.067521	-0.331633	0.734762	-0.591730
1.719181	-9.928572	-3.067521	0.331633	0.734762	-0.591730
-2.529586	-10.352678	-3.067303	-0.431579	0.734762	-0.523321
2.529586	-10.352678	-3.067303	0.431579	0.734762	-0.523321
-2.003337	-10.062500	-3.064836	-0.371136	0.734762	-0.567788
2.003337	-10.062500	-3.064836	0.371136	0.734762	-0.567788
-1.517395	-9.839286	-3.064630	-0.300986	0.734762	-0.607892
1.517395	-9.839286	-3.064630	0.300986	0.734762	-0.607892
-1.821672	-9.973214	-3.064182	-0.346637	0.734762	-0.583068
1.821672	-9.973214	-3.064182	0.346637	0.734762	-0.583068
-2.571151	-10.375000	-3.064178	-0.436019	0.734762	-0.519627
2.571151	-10.375000	-3.064178	0.436019	0.734762	-0.519627
-1.964116	-10.040178	-3.061431	-0.366289	0.734762	-0.570927
1.964116	-10.040178	-3.061431	0.366289	0.734762	-0.570927
-1.681362	-9.906250	-3.060855	-0.326583	0.734762	-0.594532
1.681362	-9.906250	-3.060855	0.326583	0.734762	-0.594532
-1.294492	-9.750000	-3.060493	-0.264245	0.734762	-0.624740
1.294492	-9.750000	-3.060493	0.264245	0.734762	-0.624740
-1.356212	-9.772322	-3.060113	-0.274844	0.734762	-0.620150
1.356212	-9.772322	-3.060113	0.274844	0.734762	-0.620150
-1.580452	-9.861608	-3.059832	-0.311293	0.734762	-0.602679
1.580452	-9.861608	-3.059832	0.311293	0.734762	-0.602679
-1.783340	-9.950892	-3.058692	-0.341660	0.734762	-0.585998
1.783340	-9.950892	-3.058692	0.341660	0.734762	-0.585998
-1.418290	-9.794642	-3.058513	-0.285363	0.734762	-0.615380
1.418290	-9.794642	-3.058513	0.285363	0.734762	-0.615380
-1.925098	-10.017858	-3.057581	-0.361415	0.734762	-0.574025
1.925098	-10.017858	-3.057581	0.361415	0.734762	-0.574025
-2.268792	-10.196428	-3.056562	-0.404295	0.734762	-0.544675
2.268792	-10.196428	-3.056562	0.404295	0.734762	-0.544675
-2.309308	-10.218750	-3.056426	-0.408918	0.734762	-0.541213
2.309308	-10.218750	-3.056426	0.408918	0.734762	-0.541213
-2.228442	-10.174108	-3.056230	-0.399643	0.734762	-0.548097
2.228442	-10.174108	-3.056230	0.399643	0.734762	-0.548097
-2.349985	-10.241072	-3.055821	-0.413511	0.734762	-0.537712
2.349985	-10.241072	-3.055821	0.413511	0.734762	-0.537712
-1.480705	-9.816964	-3.055679	-0.295800	0.734762	-0.610432
1.480705	-9.816964	-3.055679	0.295800	0.734762	-0.610432
-2.188263	-10.151786	-3.055434	-0.394963	0.734762	-0.551479
2.188263	-10.151786	-3.055434	0.394963	0.734762	-0.551479
-2.390818	-10.263392	-3.054744	-0.418074	0.734762	-0.534172
2.390818	-10.263392	-3.054744	0.418074	0.734762	-0.534172
-2.148260	-10.129464	-3.054178	-0.390253	0.734762	-0.554822
2.148260	-10.129464	-3.054178	0.390253	0.734762	-0.554822
-1.643782	-9.883928	-3.053768	-0.321510	0.734762	-0.597291
1.643782	-9.883928	-3.053768	0.321510	0.734762	-0.597291
-1.886289	-9.995536	-3.053290	-0.356514	0.734762	-0.577081
1.886289	-9.995536	-3.053290	0.356514	0.734762	-0.577081
-2.431803	-10.285714	-3.053191	-0.422606	0.734762	-0.530593
2.431803	-10.285714	-3.053191	0.422606	0.734762	-0.530593
-1.745235	-9.928572	-3.052773	-0.336659	0.734762	-0.588885
1.745235	-9.928572	-3.052773	0.336659	0.734762	-0.588885
-2.108439	-10.107142	-3.052462	-0.385515	0.734762	-0.558124
2.108439	-10.107142	-3.052462	0.385515	0.734762	-0.558124
-1.543431	-9.839286	-3.051600	-0.306151	0.734762	-0.605307
1.543431	-9.839286	-3.051600	0.306151	0.734762	-0.605307
-2.472932	-10.308036	-3.051161	-0.427108	0.734762	-0.526976
2.472932	-10.308036	-3.051161	0.427108	0.734762	-0.526976
-2.068803	-10.084822	-3.050292	-0.380750	0.734762	-0.561386
