-1.973235	-10.397322	3.451593	-0.336659	-0.734762	0.588885
1.290017	-10.665178	3.452547	0.237419	-0.734762	0.635419
-1.290017	-10.665178	3.452547	-0.237419	-0.734762	0.635419
1.357463	-10.642858	3.452584	0.248204	-0.734762	0.631284
-1.357463	-10.642858	3.452584	-0.248204	-0.734762	0.631284
1.820734	-10.464286	3.452617	0.316413	-0.734762	0.600007
-1.820734	-10.464286	3.452617	-0.316413	-0.734762	0.600007
0.324317	-10.866072	3.452874	0.063434	-0.734762	0.675353
-0.324317	-10.866072	3.452874	-0.063434	-0.734762	0.675353
1.601380	-10.553572	3.453342	0.285363	-0.734762	0.615380
-1.601380	-10.553572	3.453342	-0.285363	-0.734762	0.615380
1.060792	-10.732142	3.453914	0.199151	-0.734762	0.648432
-1.060792	-10.732142	3.453914	-0.199151	-0.734762	0.648432
0.777360	-10.799108	3.454216	0.148930	-0.734762	0.661774
-0.777360	-10.799108	3.454216	-0.148930	-0.734762	0.661774
1.710508	-10.508928	3.454654	0.300986	-0.734762	0.607892
-1.710508	-10.508928	3.454654	-0.300986	-0.734762	0.607892
0.654795	-10.821428	3.454926	0.126311	-0.734762	0.666461
-0.654795	-10.821428	3.454926	-0.126311	-0.734762	0.666461
0.294908	-10.866072	3.455510	0.057682	-0.734762	0.675868
-0.294908	-10.866072	3.455510	-0.057682	-0.734762	0.675868
2.014728	-10.375000	3.455556	0.341660	-0.734762	0.585998
-2.014728	-10.375000	3.455556	-0.341660	-0.734762	0.585998
0.503687	-10.843750	3.455736	0.097835	-0.734762	0.671233
-0.503687	-10.843750	3.455736	-0.097835	-0.734762	0.671233
0.965732	-10.754464	3.456592	0.182526	-0.734762	0.653306
-0.965732	-10.754464	3.456592	-0.182526	-0.734762	0.653306
0.871231	-10.776786	3.456682	0.165782	-0.734762	0.657755
-0.871231	-10.776786	3.456682	-0.165782	-0.734762	0.657755
0.265478	-10.866072	3.457896	0.051925	-0.734762	0.676335
-0.265478	-10.866072	3.457896	-0.051925	-0.734762	0.676335
1.532552	-10.575892	3.458002	0.274844	-0.734762	0.620150
-1.532552	-10.575892	3.458002	-0.274844	-0.734762	0.620150
1.861523	-10.441964	3.458281	0.321510	-0.734762	0.597291
-1.861523	-10.441964	3.458281	-0.321510	-0.734762	0.597291
1.126939	-10.709822	3.458340	0.210163	-0.734762	0.644947
-1.126939	-10.709822	3.458340	-0.210163	-0.734762	0.644947
0.474247	-10.843750	3.459899	0.092117	-0.734762	0.672041
-0.474247	-10.843750	3.459899	-0.092117	-0.734762	0.672041
0.236029	-10.866072	3.460030	0.046165	-0.734762	0.676752
-0.236029	-10.866072	3.460030	-0.046165	-0.734762	0.676752
0.625358	-10.821428	3.460375	0.120633	-0.734762	0.667512
-0.625358	-10.821428	3.460375	-0.120633	-0.734762	0.667512
0.747923	-10.799108	3.460709	0.143290	-0.734762	0.663018
-0.747923	-10.799108	3.460709	-0.143290	-0.734762	0.663018
1.464032	-10.598214	3.461327	0.264245	-0.734762	0.624740
-1.464032	-10.598214	3.461327	-0.264245	-0.734762	0.624740
1.641081	-10.531250	3.461430	0.290592	-0.734762	0.612928
-1.641081	-10.531250	3.461430	-0.290592	-0.734762	0.612928
1.193541	-10.687500	3.461509	0.221114	-0.734762	0.641275
-1.193541	-10.687500	3.461509	-0.221114	-0.734762	0.641275
1.750771	-10.486608	3.461542	0.306151	-0.734762	0.605307
-1.750771	-10.486608	3.461542	-0.306151	-0.734762	0.605307
0.206563	-10.866072	3.461914	0.040402	-0.734762	0.677121
-0.206563	-10.866072	3.461914	-0.040402	-0.734762	0.677121
1.031348	-10.732142	3.462820	0.193624	-0.734762	0.650104
-1.031348	-10.732142	3.462820	-0.193624	-0.734762	0.650104
1.395846	-10.620536	3.463327	0.253570	-0.734762	0.629148
-1.395846	-10.620536	3.463327	-0.253570	-0.734762	0.629148
1.260576	-10.665178	3.463405	0.232001	-0.734762	0.637417
-1.260576	-10.665178	3.463405	-0.232001	-0.734762	0.637417
1.902539	-10.419642	3.463499	0.326583	-0.734762	0.594532
-1.902539	-10.419642	3.463499	-0.326583	-0.734762	0.594532
0.177082	-10.866072	3.463547	0.034636	-0.734762	0.677440
-0.177082	-10.866072	3.463547	-0.034636	-0.734762	0.677440
0.444774	-10.843750	3.463811	0.086392	-0.734762	0.672801
-0.444774	-10.843750	3.463811	-0.086392	-0.734762	0.672801
0.841771	-10.776786	3.463974	0.160176	-0.734762	0.659142
-0.841771	-10.776786	3.463974	-0.160176	-0.734762	0.659142
1.328019	-10.642858	3.464016	0.242820	-0.734762	0.633375
-1.328019	-10.642858	3.464016	-0.242820	-0.734762	0.633375
0.936269	-10.754464	3.464688	0.176958	-0.734762	0.654837
-0.936269	-10.754464	3.464688	-0.176958	-0.734762	0.654837
0.147588	-10.866072	3.464930	0.028867	-0.734762	0.677711
-0.147588	-10.866072	3.464930	-0.028867	-0.734762	0.677711
0.595874	-10.821428	3.465574	0.114945	-0.734762	0.668515
-0.595874	-10.821428	3.465574	-0.114945	-0.734762	0.668515
0.118083	-10.866072	3.466061	0.023096	-0.734762	0.677932
-0.118083	-10.866072	3.466061	-0.023096	-0.734762	0.677932
1.571921	-10.553572	3.466850	0.280114	-0.734762	0.617787
-1.571921	-10.553572	3.466850	-0.280114	-0.734762	0.617787
0.088570	-10.866072	3.466940	0.017323	-0.734762	0.678104
-0.088570	-10.866072	3.466940	-0.017323	-0.734762	0.678104
0.718433	-10.799108	3.466952	0.137641	-0.734762	0.664214
-0.718433	-10.799108	3.466952	-0.137641	-0.734762	0.664214
0.415268	-10.843750	3.467472	0.080660	-0.734762	0.673512
-0.415268	-10.843750	3.467472	-0.080660	-0.734762	0.673512
0.059050	-10.866072	3.467569	0.011550	-0.734762	0.678227
-0.059050	-10.866072	3.467569	-0.011550	-0.734762	0.678227
1.097455	-10.709822	3.467809	0.204665	-0.734762	0.646713
-1.097455	-10.709822	3.467809	-0.204665	-0.734762	0.646713
0.029526	-10.866072	3.467946	0.005775	-0.734762	0.678301
-0.029526	-10.866072	3.467946	-0.005775	-0.734762	0.678301
1.791274	-10.464286	3.467993	0.311293	-0.734762	0.602679
-1.791274	-10.464286	3.467993	-0.311293	-0.734762	0.602679
0.000000	-10.866072	3.468071	0.000000	-0.734762	0.678325
1.943778	-10.397322	3.468268	0.331633	-0.734762	0.591730
-1.943778	-10.397322	3.468268	-0.331633	-0.734762	0.591730
1.681034	-10.508928	3.469092	0.295800	-0.734762	0.610432
-1.681034	-10.508928	3.469092	-0.295800	-0.734762	0.610432
0.566348	-10.821428	3.470522	0.109249	-0.734762	0.669470
-0.566348	-10.821428	3.470522	-0.109249	-0.734762	0.669470
0.385732	-10.843750	3.470882	0.074923	-0.734762	0.674175
-0.385732	-10.843750	3.470882	-0.074923	-0.734762	0.674175
1.503056	-10.575892	3.470925	0.269554	-0.734762	0.622467
-1.503056	-10.575892	3.470925	-0.269554	-0.734762	0.622467
0.812249	-10.776786	3.471015	0.154559	-0.734762	0.660482
-0.812249	-10.776786	3.471015	-0.154559	-0.734762	0.660482
1.001830	-10.732142	3.471475	0.188082	-0.734762	0.651729
-1.001830	-10.732142	3.471475	-0.188082	-0.734762	0.651729
1.164028	-10.687500	3.471545	0.215646	-0.734762	0.643134
-1.164028	-10.687500	3.471545	-0.215646	-0.734762	0.643134
0.906738	-10.754464	3.472534	0.171376	-0.734762	0.656319
-0.906738	-10.754464	3.472534	-0.171376	-0.734762	0.656319
1.985236	-10.375000	3.472584	0.336659	-0.734762	0.588885
-1.985236	-10.375000	3.472584	-0.336659	-0.734762	0.588885
0.688890	-10.799108	3.472942	0.131981	-0.734762	0.665362
-0.688890	-10.799108	3.472942	-0.131981	-0.734762	0.665362
1.434510	-10.598214	3.473666	0.258917	-0.734762	0.626967
-1.434510	-10.598214	3.473666	-0.258917	-0.734762	0.626967
1.832013	-10.441964	3.474004	0.316413	-0.734762	0.600007
-1.832013	-10.441964	3.474004	-0.316413	-0.734762	0.600007
1.231044	-10.665178	3.474012	0.226566	-0.734762	0.639369
-1.231044	-10.665178	3.474012	-0.226566	-0.734762	0.639369
0.356168	-10.843750	3.474040	0.069181	-0.734762	0.674788
-0.356168	-10.843750	3.474040	-0.069181	-0.734762	0.674788
1.366310	-10.620536	3.475085	0.248204	-0.734762	0.631284
-1.366310	-10.620536	3.475085	-0.248204	-0.734762	0.631284
1.298480	-10.642858	3.475196	0.237419	-0.734762	0.635419
-1.298480	-10.642858	3.475196	-0.237419	-0.734762	0.635419
0.536780	-10.821428	3.475218	0.103546	-0.734762	0.670375
-0.536780	-10.821428	3.475218	-0.103546	-0.734762	0.670375
1.611552	-10.531250	3.475276	0.285363	-0.734762	0.615380
-1.611552	-10.531250	3.475276	-0.285363	-0.734762	0.615380
1.721237	-10.486608	3.476322	0.300986	-0.734762	0.607892
-1.721237	-10.486608	3.476322	-0.300986	-0.734762	0.607892
0.326578	-10.843750	3.476947	0.063434	-0.734762	0.675353
-0.326578	-10.843750	3.476947	-0.063434	-0.734762	0.675353
1.067891	-10.709822	3.477027	0.199151	-0.734762	0.648432
-1.067891	-10.709822	3.477027	-0.199151	-0.734762	0.648432
0.782668	-10.776786	3.477805	0.148930	-0.734762	0.661774
-0.782668	-10.776786	3.477805	-0.148930	-0.734762	0.661774
0.659298	-10.799108	3.478682	0.126311	-0.734762	0.666461
-0.659298	-10.799108	3.478682	-0.126311	-0.734762	0.666461
1.872983	-10.419642	3.479571	0.321510	-0.734762	0.597291
-1.872983	-10.419642	3.479571	-0.321510	-0.734762	0.597291
0.296964	-10.843750	3.479601	0.057682	-0.734762	0.675868
-0.296964	-10.843750	3.479601	-0.057682	-0.734762	0.675868
0.507174	-10.821428	3.479661	0.097835	-0.734762	0.671233
-0.507174	-10.821428	3.479661	-0.097835	-0.734762	0.671233
0.972238	-10.732142	3.479878	0.182526	-0.734762	0.653306
-0.972238	-10.732142	3.479878	-0.182526	-0.734762	0.653306
1.542349	-10.553572	3.480107	0.274844	-0.734762	0.620150
-1.542349	-10.553572	3.480107	-0.274844	-0.734762	0.620150
0.877141	-10.754464	3.480128	0.165782	-0.734762	0.657755
-0.877141	-10.754464	3.480128	-0.165782	-0.734762	0.657755
1.134430	-10.687500	3.481329	0.210163	-0.734762	0.644947
-1.134430	-10.687500	3.481329	-0.210163	-0.734762	0.644947
0.267329	-10.843750	3.482003	0.051925	-0.734762	0.676335
-0.267329	-10.843750	3.482003	-0.051925	-0.734762	0.676335
1.761683	-10.464286	3.483118	0.306151	-0.734762	0.605307
-1.761683	-10.464286	3.483118	-0.306151	-0.734762	0.605307
1.651439	-10.508928	3.483278	0.290592	-0.734762	0.612928
-1.651439	-10.508928	3.483278	-0.290592	-0.734762	0.612928
1.473451	-10.575892	3.483596	0.264245	-0.734762	0.624740
-1.473451	-10.575892	3.483596	-0.264245	-0.734762	0.624740
0.477531	-10.821428	3.483853	0.092117	-0.734762	0.672041
-0.477531	-10.821428	3.483853	-0.092117	-0.734762	0.672041
0.237675	-10.843750	3.484153	0.046165	-0.734762	0.676752
-0.237675	-10.843750	3.484153	-0.046165	-0.734762	0.676752
0.629657	-10.799108	3.484169	0.120633	-0.734762	0.667512
-0.629657	-10.799108	3.484169	-0.120633	-0.734762	0.667512
0.753031	-10.776786	3.484342	0.143290	-0.734762	0.663018
-0.753031	-10.776786	3.484342	-0.143290	-0.734762	0.663018
1.201423	-10.665178	3.484366	0.221114	-0.734762	0.641275
-1.201423	-10.665178	3.484366	-0.221114	-0.734762	0.641275
1.914180	-10.397322	3.484691	0.326583	-0.734762	0.594532
-1.914180	-10.397322	3.484691	-0.326583	-0.734762	0.594532
1.404885	-10.598214	3.485753	0.253570	-0.734762	0.629148
-1.404885	-10.598214	3.485753	-0.253570	-0.734762	0.629148
1.038250	-10.709822	3.485992	0.193624	-0.734762	0.650104
-1.038250	-10.709822	3.485992	-0.193624	-0.734762	0.650104
0.208003	-10.843750	3.486050	0.040402	-0.734762	0.677121
-0.208003	-10.843750	3.486050	-0.040402	-0.734762	0.677121
1.268846	-10.642858	3.486125	0.232001	-0.734762	0.637417
-1.268846	-10.642858	3.486125	-0.232001	-0.734762	0.637417
1.336675	-10.620536	3.486592	0.242820	-0.734762	0.633375
-1.336675	-10.620536	3.486592	-0.242820	-0.734762	0.633375
0.847480	-10.754464	3.487469	0.160176	-0.734762	0.659142
-0.847480	-10.754464	3.487469	-0.160176	-0.734762	0.659142
0.178316	-10.843750	3.487695	0.034636	-0.734762	0.677440
-0.178316	-10.843750	3.487695	-0.034636	-0.734762	0.677440
0.447853	-10.821428	3.487793	0.086392	-0.734762	0.672801
-0.447853	-10.821428	3.487793	-0.086392	-0.734762	0.672801
0.942576	-10.732142	3.488030	0.176958	-0.734762	0.654837
-0.942576	-10.732142	3.488030	-0.176958	-0.734762	0.654837
1.581906	-10.531250	3.488871	0.280114	-0.734762	0.617787
-1.581906	-10.531250	3.488871	-0.280114	-0.734762	0.617787
0.148617	-10.843750	3.489086	0.028867	-0.734762	0.677711
-0.148617	-10.843750	3.489086	-0.028867	-0.734762	0.677711
1.955599	-10.375000	3.489360	0.331633	-0.734762	0.591730
-1.955599	-10.375000	3.489360	-0.331633	-0.734762	0.591730
0.599971	-10.799108	3.489403	0.114945	-0.734762	0.668515
-0.599971	-10.799108	3.489403	-0.114945	-0.734762	0.668515
1.802370	-10.441964	3.489475	0.311293	-0.734762	0.602679
-1.802370	-10.441964	3.489475	-0.311293	-0.734762	0.602679
0.118906	-10.843750	3.490225	0.023096	-0.734762	0.677932
-0.118906	-10.843750	3.490225	-0.023096	-0.734762	0.677932
0.723339	-10.776786	3.490627	0.137641	-0.734762	0.664214
-0.723339	-10.776786	3.490627	-0.137641	-0.734762	0.664214
1.691578	-10.486608	3.490850	0.295800	-0.734762	0.610432
-1.691578	-10.486608	3.490850	-0.295800	-0.734762	0.610432
1.104750	-10.687500	3.490861	0.204665	-0.734762	0.646713
-1.104750	-10.687500	3.490861	-0.204665	-0.734762	0.646713
0.089187	-10.843750	3.491111	0.017323	-0.734762	0.678104
-0.089187	-10.843750	3.491111	-0.017323	-0.734762	0.678104
0.418143	-10.821428	3.491479	0.080660	-0.734762	0.673512
-0.418143	-10.821428	3.491479	-0.080660	-0.734762	0.673512
0.059462	-10.843750	3.491744	0.011550	-0.734762	0.678227
-0.059462	-10.843750	3.491744	-0.011550	-0.734762	0.678227
0.029732	-10.843750	3.492123	0.005775	-0.734762	0.678301
-0.029732	-10.843750	3.492123	-0.005775	-0.734762	0.678301
0.000000	-10.843750	3.492250	0.000000	-0.734762	0.678325
1.512664	-10.553572	3.493112	0.269554	-0.734762	0.622467
-1.512664	-10.553572	3.493112	-0.269554	-0.734762	0.622467
0.570242	-10.799108	3.494385	0.109249	-0.734762	0.669470
-0.570242	-10.799108	3.494385	-0.109249	-0.734762	0.669470
1.171715	-10.665178	3.494469	0.215646	-0.734762	0.643134
-1.171715	-10.665178	3.494469	-0.215646	-0.734762	0.643134
0.817758	-10.754464	3.494558	0.154559	-0.734762	0.660482
-0.817758	-10.754464	3.494558	-0.154559	-0.734762	0.660482
1.008534	-10.709822	3.494705	0.188082	-0.734762	0.651729
-1.008534	-10.709822	3.494705	-0.188082	-0.734762	0.651729
0.388402	-10.821428	3.494913	0.074923	-0.734762	0.674175
-0.388402	-10.821428	3.494913	-0.074923	-0.734762	0.674175
1.843291	-10.419642	3.495391	0.316413	-0.734762	0.600007
-1.843291	-10.419642	3.495391	-0.316413	-0.734762	0.600007
0.912846	-10.732142	3.495928	0.171376	-0.734762	0.656319
-0.912846	-10.732142	3.495928	-0.171376	-0.734762	0.656319
1.443739	-10.575892	3.496014	0.258917	-0.734762	0.626967
-1.443739	-10.575892	3.496014	-0.258917	-0.734762	0.626967
0.693595	-10.776786	3.496659	0.131981	-0.734762	0.665362
-0.693595	-10.776786	3.496659	-0.131981	-0.734762	0.665362
1.239120	-10.642858	3.496802	0.226566	-0.734762	0.639369
-1.239120	-10.642858	3.496802	-0.226566	-0.734762	0.639369
1.621723	-10.508928	3.497211	0.285363	-0.734762	0.615380
-1.621723	-10.508928	3.497211	-0.285363	-0.734762	0.615380
1.375157	-10.598214	3.497587	0.248204	-0.734762	0.631284
-1.375157	-10.598214	3.497587	-0.248204	-0.734762	0.631284
1.306942	-10.620536	3.497846	0.237419	-0.734762	0.635419
-1.306942	-10.620536	3.497846	-0.237419	-0.734762	0.635419
1.731965	-10.464286	3.497990	0.300986	-0.734762	0.607892
-1.731965	-10.464286	3.497990	-0.300986	-0.734762	0.607892
0.358633	-10.821428	3.498093	0.069181	-0.734762	0.674788
-0.358633	-10.821428	3.498093	-0.069181	-0.734762	0.674788
0.540471	-10.799108	3.499113	0.103546	-0.734762	0.670375
-0.540471	-10.799108	3.499113	-0.103546	-0.734762	0.670375
1.074990	-10.687500	3.500140	0.199151	-0.734762	0.648432
-1.074990	-10.687500	3.500140	-0.199151	-0.734762	0.648432
1.884443	-10.397322	3.500861	0.321510	-0.734762	0.597291
-1.884443	-10.397322	3.500861	-0.321510	-0.734762	0.597291
0.328839	-10.821428	3.501019	0.063434	-0.734762	0.675353
-0.328839	-10.821428	3.501019	-0.063434	-0.734762	0.675353
0.787977	-10.754464	3.501394	0.148930	-0.734762	0.661774
-0.787977	-10.754464	3.501394	-0.148930	-0.734762	0.661774
1.552145	-10.531250	3.502212	0.274844	-0.734762	0.620150
-1.552145	-10.531250	3.502212	-0.274844	-0.734762	0.620150
0.663800	-10.776786	3.502437	0.126311	-0.734762	0.666461
-0.663800	-10.776786	3.502437	-0.126311	-0.734762	0.666461
0.978744	-10.709822	3.503165	0.182526	-0.734762	0.653306
-0.978744	-10.709822	3.503165	-0.182526	-0.734762	0.653306
0.883050	-10.732142	3.503573	0.165782	-0.734762	0.657755
-0.883050	-10.732142	3.503573	-0.165782	-0.734762	0.657755
0.510661	-10.799108	3.503587	0.097835	-0.734762	0.671233
-0.510661	-10.799108	3.503587	-0.097835	-0.734762	0.671233
0.299020	-10.821428	3.503692	0.057682	-0.734762	0.675868
-0.299020	-10.821428	3.503692	-0.057682	-0.734762	0.675868
1.141921	-10.665178	3.504318	0.210163	-0.734762	0.644947
-1.141921	-10.665178	3.504318	-0.210163	-0.734762	0.644947
1.772596	-10.441964	3.504694	0.306151	-0.734762	0.605307
-1.772596	-10.441964	3.504694	-0.306151	-0.734762	0.605307
1.661797	-10.486608	3.505125	0.290592	-0.734762	0.612928
-1.661797	-10.486608	3.505125	-0.290592	-0.734762	0.612928
1.482870	-10.553572	3.505864	0.264245	-0.734762	0.624740
-1.482870	-10.553572	3.505864	-0.264245	-0.734762	0.624740
1.925821	-10.375000	3.505883	0.326583	-0.734762	0.594532
-1.925821	-10.375000	3.505883	-0.326583	-0.734762	0.594532
0.269180	-10.821428	3.506111	0.051925	-0.734762	0.676335
-0.269180	-10.821428	3.506111	-0.051925	-0.734762	0.676335
1.209304	-10.642858	3.507224	0.221114	-0.734762	0.641275
-1.209304	-10.642858	3.507224	-0.221114	-0.734762	0.641275
0.480814	-10.799108	3.507808	0.092117	-0.734762	0.672041
-0.480814	-10.799108	3.507808	-0.092117	-0.734762	0.672041
0.633957	-10.776786	3.507962	0.120633	-0.734762	0.667512
-0.633957	-10.776786	3.507962	-0.120633	-0.734762	0.667512
0.758138	-10.754464	3.507975	0.143290	-0.734762	0.663018
-0.758138	-10.754464	3.507975	-0.143290	-0.734762	0.663018
1.413923	-10.575892	3.508179	0.253570	-0.734762	0.629148
-1.413923	-10.575892	3.508179	-0.253570	-0.734762	0.629148
0.239320	-10.821428	3.508275	0.046165	-0.734762	0.676752
-0.239320	-10.821428	3.508275	-0.046165	-0.734762	0.676752
1.277115	-10.620536	3.508846	0.232001	-0.734762	0.637417
-1.277115	-10.620536	3.508846	-0.232001	-0.734762	0.637417
1.045152	-10.687500	3.509165	0.193624	-0.734762	0.650104
-1.045152	-10.687500	3.509165	-0.193624	-0.734762	0.650104
1.345330	-10.598214	3.509168	0.242820	-0.734762	0.633375
-1.345330	-10.598214	3.509168	-0.242820	-0.734762	0.633375
0.209443	-10.821428	3.510186	0.040402	-0.734762	0.677121
-0.209443	-10.821428	3.510186	-0.040402	-0.734762	0.677121
1.591890	-10.508928	3.510892	0.280114	-0.734762	0.617787
-1.591890	-10.508928	3.510892	-0.280114	-0.734762	0.617787
1.813465	-10.419642	3.510958	0.311293	-0.734762	0.602679
-1.813465	-10.419642	3.510958	-0.311293	-0.734762	0.602679
0.853189	-10.732142	3.510964	0.160176	-0.734762	0.659142
-0.853189	-10.732142	3.510964	-0.160176	-0.734762	0.659142
0.948884	-10.709822	3.511371	0.176958	-0.734762	0.654837
-0.948884	-10.709822	3.511371	-0.176958	-0.734762	0.654837
0.450932	-10.799108	3.511774	0.086392	-0.734762	0.672801
-0.450932	-10.799108	3.511774	-0.086392	-0.734762	0.672801
0.179551	-10.821428	3.511842	0.034636	-0.734762	0.677440
-0.179551	-10.821428	3.511842	-0.034636	-0.734762	0.677440
1.702122	-10.464286	3.512609	0.295800	-0.734762	0.610432
-1.702122	-10.464286	3.512609	-0.295800	-0.734762	0.610432
0.604069	-10.776786	3.513232	0.114945	-0.734762	0.668515
-0.604069	-10.776786	3.513232	-0.114945	-0.734762	0.668515
0.149646	-10.821428	3.513243	0.028867	-0.734762	0.677711
-0.149646	-10.821428	3.513243	-0.028867	-0.734762	0.677711
1.112045	-10.665178	3.513913	0.204665	-0.734762	0.646713
-1.112045	-10.665178	3.513913	-0.204665	-0.734762	0.646713
0.728245	-10.754464	3.514303	0.137641	-0.734762	0.664214
-0.728245	-10.754464	3.514303	-0.137641	-0.734762	0.664214
0.119730	-10.821428	3.514390	0.023096	-0.734762	0.677932
-0.119730	-10.821428	3.514390	-0.023096	-0.734762	0.677932
0.089805	-10.821428	3.515282	0.017323	-0.734762	0.678104
-0.089805	-10.821428	3.515282	-0.017323	-0.734762	0.678104
1.522272	-10.531250	3.515300	0.269554	-0.734762	0.622467
-1.522272	-10.531250	3.515300	-0.269554	-0.734762	0.622467
0.421018	-10.799108	3.515486	0.080660	-0.734762	0.673512
-0.421018	-10.799108	3.515486	-0.080660	-0.734762	0.673512
0.059873	-10.821428	3.515919	0.011550	-0.734762	0.678227
-0.059873	-10.821428	3.515919	-0.011550	-0.734762	0.678227
0.029938	-10.821428	3.516301	0.005775	-0.734762	0.678301
-0.029938	-10.821428	3.516301	-0.005775	-0.734762	0.678301
0.000000	-10.821428	3.516428	0.000000	-0.734762	0.678325
1.854569	-10.397322	3.516778	0.316413	-0.734762	0.600007
-1.854569	-10.397322	3.516778	-0.316413	-0.734762	0.600007
1.179401	-10.642858	3.517393	0.215646	-0.734762	0.643134
-1.179401	-10.642858	3.517393	-0.215646	-0.734762	0.643134
1.015238	-10.687500	3.517936	0.188082	-0.734762	0.651729
-1.015238	-10.687500	3.517936	-0.188082	-0.734762	0.651729
0.823267	-10.732142	3.518101	0.154559	-0.734762	0.660482
-0.823267	-10.732142	3.518101	-0.154559	-0.734762	0.660482
0.574136	-10.776786	3.518247	0.109249	-0.734762	0.669470
-0.574136	-10.776786	3.518247	-0.109249	-0.734762	0.669470
1.452968	-10.553572	3.518362	0.258917	-0.734762	0.626967
-1.452968	-10.553572	3.518362	-0.258917	-0.734762	0.626967
0.391073	-10.799108	3.518943	0.074923	-0.734762	0.674175
-0.391073	-10.799108	3.518943	-0.074923	-0.734762	0.674175
1.631895	-10.486608	3.519146	0.285363	-0.734762	0.615380
-1.631895	-10.486608	3.519146	-0.285363	-0.734762	0.615380
0.918955	-10.709822	3.519322	0.171376	-0.734762	0.656319
-0.918955	-10.709822	3.519322	-0.171376	-0.734762	0.656319
1.247196	-10.620536	3.519592	0.226566	-0.734762	0.639369
-1.247196	-10.620536	3.519592	-0.226566	-0.734762	0.639369
1.742694	-10.441964	3.519658	0.300986	-0.734762	0.607892
-1.742694	-10.441964	3.519658	-0.300986	-0.734762	0.607892
1.384004	-10.575892	3.520089	0.248204	-0.734762	0.631284
-1.384004	-10.575892	3.520089	-0.248204	-0.734762	0.631284
0.698299	-10.754464	3.520375	0.131981	-0.734762	0.665362
-0.698299	-10.754464	3.520375	-0.131981	-0.734762	0.665362
1.315405	-10.598214	3.520495	0.237419	-0.734762	0.635419
-1.315405	-10.598214	3.520495	-0.237419	-0.734762	0.635419
0.361099	-10.799108	3.522145	0.069181	-0.734762	0.674788
-0.361099	-10.799108	3.522145	-0.069181	-0.734762	0.674788
1.895903	-10.375000	3.522151	0.321510	-0.734762	0.597291
-1.895903	-10.375000	3.522151	-0.321510	-0.734762	0.597291
0.544162	-10.776786	3.523008	0.103546	-0.734762	0.670375
-0.544162	-10.776786	3.523008	-0.103546	-0.734762	0.670375
1.082088	-10.665178	3.523253	0.199151	-0.734762	0.648432
-1.082088	-10.665178	3.523253	-0.199151	-0.734762	0.648432
1.561942	-10.508928	3.524317	0.274844	-0.734762	0.620150
-1.561942	-10.508928	3.524317	-0.274844	-0.734762	0.620150
0.793285	-10.732142	3.524982	0.148930	-0.734762	0.661774
-0.793285	-10.732142	3.524982	-0.148930	-0.734762	0.661774
0.331100	-10.799108	3.525092	0.063434	-0.734762	0.675353
-0.331100	-10.799108	3.525092	-0.063434	-0.734762	0.675353
0.668302	-10.754464	3.526193	0.126311	-0.734762	0.666461
-0.668302	-10.754464	3.526193	-0.126311	-0.734762	0.666461
1.783509	-10.419642	3.526270	0.306151	-0.734762	0.605307
-1.783509	-10.419642	3.526270	-0.306151	-0.734762	0.605307
0.985250	-10.687500	3.526452	0.182526	-0.734762	0.653306
-0.985250	-10.687500	3.526452	-0.182526	-0.734762	0.653306
1.672155	-10.464286	3.526973	0.290592	-0.734762	0.612928
-1.672155	-10.464286	3.526973	-0.290592	-0.734762	0.612928
0.888959	-10.709822	3.527018	0.165782	-0.734762	0.657755
-0.888959	-10.709822	3.527018	-0.165782	-0.734762	0.657755
1.149412	-10.642858	3.527307	0.210163	-0.734762	0.644947
-1.149412	-10.642858	3.527307	-0.210163	-0.734762	0.644947
0.514148	-10.776786	3.527513	0.097835	-0.734762	0.671233
-0.514148	-10.776786	3.527513	-0.097835	-0.734762	0.671233
0.301076	-10.799108	3.527783	0.057682	-0.734762	0.675868
-0.301076	-10.799108	3.527783	-0.057682	-0.734762	0.675868
1.492289	-10.531250	3.528133	0.264245	-0.734762	0.624740
-1.492289	-10.531250	3.528133	-0.264245	-0.734762	0.624740
1.217186	-10.620536	3.530082	0.221114	-0.734762	0.641275
-1.217186	-10.620536	3.530082	-0.221114	-0.734762	0.641275
0.271031	-10.799108	3.530218	0.051925	-0.734762	0.676335
-0.271031	-10.799108	3.530218	-0.051925	-0.734762	0.676335
1.422961	-10.553572	3.530604	0.253570	-0.734762	0.629148
-1.422961	-10.553572	3.530604	-0.253570	-0.734762	0.629148
1.285385	-10.598214	3.531566	0.232001	-0.734762	0.637417
-1.285385	-10.598214	3.531566	-0.232001	-0.734762	0.637417
0.763246	-10.732142	3.531608	0.143290	-0.734762	0.663018
-0.763246	-10.732142	3.531608	-0.143290	-0.734762	0.663018
1.353985	-10.575892	3.531745	0.242820	-0.734762	0.633375
-1.353985	-10.575892	3.531745	-0.242820	-0.734762	0.633375
0.638257	-10.754464	3.531755	0.120633	-0.734762	0.667512
-0.638257	-10.754464	3.531755	-0.120633	-0.734762	0.667512
0.484098	-10.776786	3.531763	0.092117	-0.734762	0.672041
-0.484098	-10.776786	3.531763	-0.092117	-0.734762	0.672041
1.052053	-10.665178	3.532338	0.193624	-0.734762	0.650104
-1.052053	-10.665178	3.532338	-0.193624	-0.734762	0.650104
0.240966	-10.799108	3.532398	0.046165	-0.734762	0.676752
-0.240966	-10.799108	3.532398	-0.046165	-0.734762	0.676752
1.824561	-10.397322	3.532440	0.311293	-0.734762	0.602679
-1.824561	-10.397322	3.532440	-0.311293	-0.734762	0.602679
1.601875	-10.486608	3.532912	0.280114	-0.734762	0.617787
-1.601875	-10.486608	3.532912	-0.280114	-0.734762	0.617787
0.210883	-10.799108	3.534321	0.040402	-0.734762	0.677121
-0.210883	-10.799108	3.534321	-0.040402	-0.734762	0.677121
1.712665	-10.441964	3.534367	0.295800	-0.734762	0.610432
-1.712665	-10.441964	3.534367	-0.295800	-0.734762	0.610432
0.858899	-10.709822	3.534459	0.160176	-0.734762	0.659142
-0.858899	-10.709822	3.534459	-0.160176	-0.734762	0.659142
0.955192	-10.687500	3.534712	0.176958	-0.734762	0.654837
-0.955192	-10.687500	3.534712	-0.176958	-0.734762	0.654837
0.454012	-10.776786	3.535756	0.086392	-0.734762	0.672801
-0.454012	-10.776786	3.535756	-0.086392	-0.734762	0.672801
0.180786	-10.799108	3.535989	0.034636	-0.734762	0.677440
-0.180786	-10.799108	3.535989	-0.034636	-0.734762	0.677440
1.119340	-10.642858	3.536964	0.204665	-0.734762	0.646713
-1.119340	-10.642858	3.536964	-0.204665	-0.734762	0.646713
0.608166	-10.754464	3.537061	0.114945	-0.734762	0.668515
-0.608166	-10.754464	3.537061	-0.114945	-0.734762	0.668515
0.150675	-10.799108	3.537400	0.028867	-0.734762	0.677711
-0.150675	-10.799108	3.537400	-0.028867	-0.734762	0.677711
1.531880	-10.508928	3.537487	0.269554	-0.734762	0.622467
-1.531880	-10.508928	3.537487	-0.269554	-0.734762	0.622467
0.733151	-10.732142	3.537978	0.137641	-0.734762	0.664214
-0.733151	-10.732142	3.537978	-0.137641	-0.734762	0.664214
1.865848	-10.375000	3.538165	0.316413	-0.734762	0.600007
-1.865848	-10.375000	3.538165	-0.316413	-0.734762	0.600007
0.120553	-10.799108	3.538554	0.023096	-0.734762	0.677932
-0.120553	-10.799108	3.538554	-0.023096	-0.734762	0.677932
0.090422	-10.799108	3.539452	0.017323	-0.734762	0.678104
-0.090422	-10.799108	3.539452	-0.017323	-0.734762	0.678104
0.423893	-10.776786	3.539493	0.080660	-0.734762	0.673512
-0.423893	-10.776786	3.539493	-0.080660	-0.734762	0.673512
0.060285	-10.799108	3.540094	0.011550	-0.734762	0.678227
-0.060285	-10.799108	3.540094	-0.011550	-0.734762	0.678227
1.187088	-10.620536	3.540317	0.215646	-0.734762	0.643134
-1.187088	-10.620536	3.540317	-0.215646	-0.734762	0.643134
0.030144	-10.799108	3.540479	0.005775	-0.734762	0.678301
-0.030144	-10.799108	3.540479	-0.005775	-0.734762	0.678301
0.000000	-10.799108	3.540607	0.000000	-0.734762	0.678325
1.462197	-10.531250	3.540710	0.258917	-0.734762	0.626967
-1.462197	-10.531250	3.540710	-0.258917	-0.734762	0.626967
1.642066	-10.464286	3.541081	0.285363	-0.734762	0.615380
-1.642066	-10.464286	3.541081	-0.285363	-0.734762	0.615380
1.021942	-10.665178	3.541167	0.188082	-0.734762	0.651729
-1.021942	-10.665178	3.541167	-0.188082	-0.734762	0.651729
1.753422	-10.419642	3.541326	0.300986	-0.734762	0.607892
-1.753422	-10.419642	3.541326	-0.300986	-0.734762	0.607892
0.828776	-10.709822	3.541643	0.154559	-0.734762	0.660482
-0.828776	-10.709822	3.541643	-0.154559	-0.734762	0.660482
0.578030	-10.754464	3.542110	0.109249	-0.734762	0.669470
-0.578030	-10.754464	3.542110	-0.109249	-0.734762	0.669470
1.255272	-10.598214	3.542382	0.226566	-0.734762	0.639369
-1.255272	-10.598214	3.542382	-0.226566	-0.734762	0.639369
1.392851	-10.553572	3.542591	0.248204	-0.734762	0.631284
-1.392851	-10.553572	3.542591	-0.248204	-0.734762	0.631284
0.925063	-10.687500	3.542717	0.171376	-0.734762	0.656319
-0.925063	-10.687500	3.542717	-0.171376	-0.734762	0.656319
0.393743	-10.776786	3.542974	0.074923	-0.734762	0.674175
-0.393743	-10.776786	3.542974	-0.074923	-0.734762	0.674175
1.323868	-10.575892	3.543144	0.237419	-0.734762	0.635419
-1.323868	-10.575892	3.543144	-0.237419	-0.734762	0.635419
0.703003	-10.732142	3.544092	0.131981	-0.734762	0.665362
-0.703003	-10.732142	3.544092	-0.131981	-0.734762	0.665362
0.363565	-10.776786	3.546198	0.069181	-0.734762	0.674788
-0.363565	-10.776786	3.546198	-0.069181	-0.734762	0.674788
1.089187	-10.642858	3.546366	0.199151	-0.734762	0.648432
-1.089187	-10.642858	3.546366	-0.199151	-0.734762	0.648432
1.571739	-10.486608	3.546422	0.274844	-0.734762	0.620150
-1.571739	-10.486608	3.546422	-0.274844	-0.734762	0.620150
0.547853	-10.754464	3.546903	0.103546	-0.734762	0.670375
-0.547853	-10.754464	3.546903	-0.103546	-0.734762	0.670375
1.794421	-10.397322	3.547846	0.306151	-0.734762	0.605307
-1.794421	-10.397322	3.547846	-0.306151	-0.734762	0.605307
0.798594	-10.709822	3.548571	0.148930	-0.734762	0.661774
-0.798594	-10.709822	3.548571	-0.148930	-0.734762	0.661774
1.682513	-10.441964	3.548820	0.290592	-0.734762	0.612928
-1.682513	-10.441964	3.548820	-0.290592	-0.734762	0.612928
0.333361	-10.776786	3.549164	0.063434	-0.734762	0.675353
-0.333361	-10.776786	3.549164	-0.063434	-0.734762	0.675353
0.991756	-10.665178	3.549739	0.182526	-0.734762	0.653306
-0.991756	-10.665178	3.549739	-0.182526	-0.734762	0.653306
0.672805	-10.732142	3.549949	0.126311	-0.734762	0.666461
-0.672805	-10.732142	3.549949	-0.126311	-0.734762	0.666461
1.156904	-10.620536	3.550295	0.210163	-0.734762	0.644947
-1.156904	-10.620536	3.550295	-0.210163	-0.734762	0.644947
1.501708	-10.508928	3.550401	0.264245	-0.734762	0.624740
-1.501708	-10.508928	3.550401	-0.264245	-0.734762	0.624740
0.894868	-10.687500	3.550464	0.165782	-0.734762	0.657755
-0.894868	-10.687500	3.550464	-0.165782	-0.734762	0.657755
0.517636	-10.754464	3.551439	0.097835	-0.734762	0.671233
-0.517636	-10.754464	3.551439	-0.097835	-0.734762	0.671233
0.303132	-10.776786	3.551874	0.057682	-0.734762	0.675868
-0.303132	-10.776786	3.551874	-0.057682	-0.734762	0.675868
1.225067	-10.598214	3.552940	0.221114	-0.734762	0.641275
-1.225067	-10.598214	3.552940	-0.221114	-0.734762	0.641275
1.432000	-10.531250	3.553030	0.253570	-0.734762	0.629148
-1.432000	-10.531250	3.553030	-0.253570	-0.734762	0.629148
1.835657	-10.375000	3.553922	0.311293	-0.734762	0.602679
-1.835657	-10.375000	3.553922	-0.311293	-0.734762	0.602679
1.293655	-10.575892	3.554287	0.232001	-0.734762	0.637417
-1.293655	-10.575892	3.554287	-0.232001	-0.734762	0.637417
1.362640	-10.553572	3.554321	0.242820	-0.734762	0.633375
-1.362640	-10.553572	3.554321	-0.242820	-0.734762	0.633375
0.272882	-10.776786	3.554326	0.051925	-0.734762	0.676335
-0.272882	-10.776786	3.554326	-0.051925	-0.734762	0.676335
1.611859	-10.464286	3.554933	0.280114	-0.734762	0.617787
-1.611859	-10.464286	3.554933	-0.280114	-0.734762	0.617787
0.768354	-10.709822	3.555241	0.143290	-0.734762	0.663018
-0.768354	-10.709822	3.555241	-0.143290	-0.734762	0.663018
1.058955	-10.642858	3.555511	0.193624	-0.734762	0.650104
-1.058955	-10.642858	3.555511	-0.193624	-0.734762	0.650104
0.642557	-10.732142	3.555548	0.120633	-0.734762	0.667512
-0.642557	-10.732142	3.555548	-0.120633	-0.734762	0.667512
0.487381	-10.754464	3.555717	0.092117	-0.734762	0.672041
-0.487381	-10.754464	3.555717	-0.092117	-0.734762	0.672041
1.723209	-10.419642	3.556126	0.295800	-0.734762	0.610432
-1.723209	-10.419642	3.556126	-0.295800	-0.734762	0.610432
0.242611	-10.776786	3.556520	0.046165	-0.734762	0.676752
-0.242611	-10.776786	3.556520	-0.046165	-0.734762	0.676752
0.864608	-10.687500	3.557954	0.160176	-0.734762	0.659142
-0.864608	-10.687500	3.557954	-0.160176	-0.734762	0.659142
0.961499	-10.665178	3.558054	0.176958	-0.734762	0.654837
-0.961499	-10.665178	3.558054	-0.176958	-0.734762	0.654837
0.212323	-10.776786	3.558457	0.040402	-0.734762	0.677121
-0.212323	-10.776786	3.558457	-0.040402	-0.734762	0.677121
1.541488	-10.486608	3.559675	0.269554	-0.734762	0.622467
-1.541488	-10.486608	3.559675	-0.269554	-0.734762	0.622467
0.457091	-10.754464	3.559738	0.086392	-0.734762	0.672801
-0.457091	-10.754464	3.559738	-0.086392	-0.734762	0.672801
1.126635	-10.620536	3.560016	0.204665	-0.734762	0.646713
-1.126635	-10.620536	3.560016	-0.204665	-0.734762	0.646713
0.182020	-10.776786	3.560136	0.034636	-0.734762	0.677440
-0.182020	-10.776786	3.560136	-0.034636	-0.734762	0.677440
0.612263	-10.732142	3.560890	0.114945	-0.734762	0.668515
-0.612263	-10.732142	3.560890	-0.114945	-0.734762	0.668515
0.151704	-10.776786	3.561556	0.028867	-0.734762	0.677711
-0.151704	-10.776786	3.561556	-0.028867	-0.734762	0.677711
0.738057	-10.709822	3.561654	0.137641	-0.734762	0.664214
-0.738057	-10.709822	3.561654	-0.137641	-0.734762	0.664214
0.121376	-10.776786	3.562719	0.023096	-0.734762	0.677932
-0.121376	-10.776786	3.562719	-0.023096	-0.734762	0.677932
1.764151	-10.397322	3.562994	0.300986	-0.734762	0.607892
-1.764151	-10.397322	3.562994	-0.300986	-0.734762	0.607892
1.652238	-10.441964	3.563016	0.285363	-0.734762	0.615380
-1.652238	-10.441964	3.563016	-0.285363	-0.734762	0.615380
1.471426	-10.508928	3.563058	0.258917	-0.734762	0.626967
-1.471426	-10.508928	3.563058	-0.258917	-0.734762	0.626967
1.194774	-10.598214	3.563241	0.215646	-0.734762	0.643134
-1.194774	-10.598214	3.563241	-0.215646	-0.734762	0.643134
0.426768	-10.754464	3.563500	0.080660	-0.734762	0.673512
-0.426768	-10.754464	3.563500	-0.080660	-0.734762	0.673512
0.091040	-10.776786	3.563623	0.017323	-0.734762	0.678104
-0.091040	-10.776786	3.563623	-0.017323	-0.734762	0.678104
0.060697	-10.776786	3.564269	0.011550	-0.734762	0.678227
-0.060697	-10.776786	3.564269	-0.011550	-0.734762	0.678227
1.028646	-10.642858	3.564397	0.188082	-0.734762	0.651729
-1.028646	-10.642858	3.564397	-0.188082	-0.734762	0.651729
0.030350	-10.776786	3.564656	0.005775	-0.734762	0.678301
-0.030350	-10.776786	3.564656	-0.005775	-0.734762	0.678301
0.000000	-10.776786	3.564786	0.000000	-0.734762	0.678325
1.401698	-10.531250	3.565093	0.248204	-0.734762	0.631284
-1.401698	-10.531250	3.565093	-0.248204	-0.734762	0.631284
1.263348	-10.575892	3.565172	0.226566	-0.734762	0.639369
-1.263348	-10.575892	3.565172	-0.226566	-0.734762	0.639369
0.834286	-10.687500	3.565186	0.154559	-0.734762	0.660482
-0.834286	-10.687500	3.565186	-0.154559	-0.734762	0.660482
1.332330	-10.553572	3.565793	0.237419	-0.734762	0.635419
-1.332330	-10.553572	3.565793	-0.237419	-0.734762	0.635419
0.581924	-10.732142	3.565973	0.109249	-0.734762	0.669470
-0.581924	-10.732142	3.565973	-0.109249	-0.734762	0.669470
0.931172	-10.665178	3.566111	0.171376	-0.734762	0.656319
-0.931172	-10.665178	3.566111	-0.171376	-0.734762	0.656319
0.396414	-10.754464	3.567004	0.074923	-0.734762	0.674175
-0.396414	-10.754464	3.567004	-0.074923	-0.734762	0.674175
0.707708	-10.709822	3.567808	0.131981	-0.734762	0.665362
-0.707708	-10.709822	3.567808	-0.131981	-0.734762	0.665362
1.581535	-10.464286	3.568527	0.274844	-0.734762	0.620150
-1.581535	-10.464286	3.568527	-0.274844	-0.734762	0.620150
1.805334	-10.375000	3.569422	0.306151	-0.734762	0.605307
-1.805334	-10.375000	3.569422	-0.306151	-0.734762	0.605307
1.096286	-10.620536	3.569479	0.199151	-0.734762	0.648432
-1.096286	-10.620536	3.569479	-0.199151	-0.734762	0.648432
0.366031	-10.754464	3.570250	0.069181	-0.734762	0.674788
-0.366031	-10.754464	3.570250	-0.069181	-0.734762	0.674788
1.692871	-10.419642	3.570668	0.290592	-0.734762	0.612928
-1.692871	-10.419642	3.570668	-0.290592	-0.734762	0.612928
0.551544	-10.732142	3.570798	0.103546	-0.734762	0.670375
-0.551544	-10.732142	3.570798	-0.103546	-0.734762	0.670375
0.803902	-10.687500	3.572160	0.148930	-0.734762	0.661774
-0.803902	-10.687500	3.572160	-0.148930	-0.734762	0.661774
1.511127	-10.486608	3.572670	0.264245	-0.734762	0.624740
-1.511127	-10.486608	3.572670	-0.264245	-0.734762	0.624740
0.998263	-10.642858	3.573026	0.182526	-0.734762	0.653306
-0.998263	-10.642858	3.573026	-0.182526	-0.734762	0.653306
0.335622	-10.754464	3.573237	0.063434	-0.734762	0.675353
-0.335622	-10.754464	3.573237	-0.063434	-0.734762	0.675353
1.164395	-10.598214	3.573284	0.210163	-0.734762	0.644947
-1.164395	-10.598214	3.573284	-0.210163	-0.734762	0.644947
0.677307	-10.709822	3.573704	0.126311	-0.734762	0.666461
-0.677307	-10.709822	3.573704	-0.126311	-0.734762	0.666461
0.900778	-10.665178	3.573909	0.165782	-0.734762	0.657755
-0.900778	-10.665178	3.573909	-0.165782	-0.734762	0.657755
0.521123	-10.732142	3.575365	0.097835	-0.734762	0.671233
-0.521123	-10.732142	3.575365	-0.097835	-0.734762	0.671233
1.441038	-10.508928	3.575456	0.253570	-0.734762	0.629148
-1.441038	-10.508928	3.575456	-0.253570	-0.734762	0.629148
1.232949	-10.575892	3.575798	0.221114	-0.734762	0.641275
-1.232949	-10.575892	3.575798	-0.221114	-0.734762	0.641275
0.305188	-10.754464	3.575965	0.057682	-0.734762	0.675868
-0.305188	-10.754464	3.575965	-0.057682	-0.734762	0.675868
1.371295	-10.531250	3.576897	0.242820	-0.734762	0.633375
-1.371295	-10.531250	3.576897	-0.242820	-0.734762	0.633375
1.621844	-10.441964	3.576954	0.280114	-0.734762	0.617787
-1.621844	-10.441964	3.576954	-0.280114	-0.734762	0.617787
1.301924	-10.553572	3.577007	0.232001	-0.734762	0.637417
-1.301924	-10.553572	3.577007	-0.232001	-0.734762	0.637417
1.733753	-10.397322	3.577884	0.295800	-0.734762	0.610432
-1.733753	-10.397322	3.577884	-0.295800	-0.734762	0.610432
0.274733	-10.754464	3.578434	0.051925	-0.734762	0.676335
-0.274733	-10.754464	3.578434	-0.051925	-0.734762	0.676335
1.065857	-10.620536	3.578683	0.193624	-0.734762	0.650104
-1.065857	-10.620536	3.578683	-0.193624	-0.734762	0.650104
0.773461	-10.687500	3.578874	0.143290	-0.734762	0.663018
-0.773461	-10.687500	3.578874	-0.143290	-0.734762	0.663018
0.646857	-10.709822	3.579341	0.120633	-0.734762	0.667512
-0.646857	-10.709822	3.579341	-0.120633	-0.734762	0.667512
0.490665	-10.732142	3.579672	0.092117	-0.734762	0.672041
-0.490665	-10.732142	3.579672	-0.092117	-0.734762	0.672041
0.244257	-10.754464	3.580643	0.046165	-0.734762	0.676752
-0.244257	-10.754464	3.580643	-0.046165	-0.734762	0.676752
0.967807	-10.642858	3.581395	0.176958	-0.734762	0.654837
-0.967807	-10.642858	3.581395	-0.176958	-0.734762	0.654837
0.870318	-10.665178	3.581449	0.160176	-0.734762	0.659142
-0.870318	-10.665178	3.581449	-0.160176	-0.734762	0.659142
1.551097	-10.464286	3.581862	0.269554	-0.734762	0.622467
-1.551097	-10.464286	3.581862	-0.269554	-0.734762	0.622467
0.213764	-10.754464	3.582593	0.040402	-0.734762	0.677121
-0.213764	-10.754464	3.582593	-0.040402	-0.734762	0.677121
1.133931	-10.598214	3.583068	0.204665	-0.734762	0.646713
-1.133931	-10.598214	3.583068	-0.204665	-0.734762	0.646713
0.460170	-10.732142	3.583719	0.086392	-0.734762	0.672801
-0.460170	-10.732142	3.583719	-0.086392	-0.734762	0.672801
0.183255	-10.754464	3.584283	0.034636	-0.734762	0.677440
-0.183255	-10.754464	3.584283	-0.034636	-0.734762	0.677440
1.774879	-10.375000	3.584662	0.300986	-0.734762	0.607892
-1.774879	-10.375000	3.584662	-0.300986	-0.734762	0.607892
0.616360	-10.709822	3.584719	0.114945	-0.734762	0.668515
-0.616360	-10.709822	3.584719	-0.114945	-0.734762	0.668515
1.662410	-10.419642	3.584951	0.285363	-0.734762	0.615380
-1.662410	-10.419642	3.584951	-0.285363	-0.734762	0.615380
0.742964	-10.687500	3.585330	0.137641	-0.734762	0.664214
-0.742964	-10.687500	3.585330	-0.137641	-0.734762	0.664214
1.480655	-10.486608	3.585406	0.258917	-0.734762	0.626967
-1.480655	-10.486608	3.585406	-0.258917	-0.734762	0.626967
0.152733	-10.754464	3.585713	0.028867	-0.734762	0.677711
-0.152733	-10.754464	3.585713	-0.028867	-0.734762	0.677711
1.202461	-10.575892	3.586165	0.215646	-0.734762	0.643134
-1.202461	-10.575892	3.586165	-0.215646	-0.734762	0.643134
0.122199	-10.754464	3.586883	0.023096	-0.734762	0.677932
-0.122199	-10.754464	3.586883	-0.023096	-0.734762	0.677932
0.429643	-10.732142	3.587507	0.080660	-0.734762	0.673512
-0.429643	-10.732142	3.587507	-0.080660	-0.734762	0.673512
1.410546	-10.508928	3.587595	0.248204	-0.734762	0.631284
-1.410546	-10.508928	3.587595	-0.248204	-0.734762	0.631284
1.035350	-10.620536	3.587628	0.188082	-0.734762	0.651729
-1.035350	-10.620536	3.587628	-0.188082	-0.734762	0.651729
0.091657	-10.754464	3.587794	0.017323	-0.734762	0.678104
-0.091657	-10.754464	3.587794	-0.017323	-0.734762	0.678104
1.271423	-10.553572	3.587962	0.226566	-0.734762	0.639369
-1.271423	-10.553572	3.587962	-0.226566	-0.734762	0.639369
1.340793	-10.531250	3.588443	0.237419	-0.734762	0.635419
-1.340793	-10.531250	3.588443	-0.237419	-0.734762	0.635419
0.061109	-10.754464	3.588444	0.011550	-0.734762	0.678227
-0.061109	-10.754464	3.588444	-0.011550	-0.734762	0.678227
0.839795	-10.665178	3.588728	0.154559	-0.734762	0.660482
-0.839795	-10.665178	3.588728	-0.154559	-0.734762	0.660482
0.030555	-10.754464	3.588834	0.005775	-0.734762	0.678301
-0.030555	-10.754464	3.588834	-0.005775	-0.734762	0.678301
0.000000	-10.754464	3.588964	0.000000	-0.734762	0.678325
0.937281	-10.642858	3.589505	0.171376	-0.734762	0.656319
-0.937281	-10.642858	3.589505	-0.171376	-0.734762	0.656319
0.585819	-10.709822	3.589836	0.109249	-0.734762	0.669470
-0.585819	-10.709822	3.589836	-0.109249	-0.734762	0.669470
1.591332	-10.441964	3.590632	0.274844	-0.734762	0.620150
-1.591332	-10.441964	3.590632	-0.274844	-0.734762	0.620150
0.399085	-10.732142	3.591035	0.074923	-0.734762	0.674175
-0.399085	-10.732142	3.591035	-0.074923	-0.734762	0.674175
0.712412	-10.687500	3.591525	0.131981	-0.734762	0.665362
-0.712412	-10.687500	3.591525	-0.131981	-0.734762	0.665362
1.703229	-10.397322	3.592515	0.290592	-0.734762	0.612928
-1.703229	-10.397322	3.592515	-0.290592	-0.734762	0.612928
1.103384	-10.598214	3.592592	0.199151	-0.734762	0.648432
-1.103384	-10.598214	3.592592	-0.199151	-0.734762	0.648432
0.368497	-10.732142	3.594303	0.069181	-0.734762	0.674788
-0.368497	-10.732142	3.594303	-0.069181	-0.734762	0.674788
0.555234	-10.709822	3.594694	0.103546	-0.734762	0.670375
-0.555234	-10.709822	3.594694	-0.103546	-0.734762	0.670375
1.520545	-10.464286	3.594938	0.264245	-0.734762	0.624740
-1.520545	-10.464286	3.594938	-0.264245	-0.734762	0.624740
0.809211	-10.665178	3.595748	0.148930	-0.734762	0.661774
-0.809211	-10.665178	3.595748	-0.148930	-0.734762	0.661774
1.171886	-10.575892	3.596273	0.210163	-0.734762	0.644947
-1.171886	-10.575892	3.596273	-0.210163	-0.734762	0.644947
1.004769	-10.620536	3.596312	0.182526	-0.734762	0.653306
-1.004769	-10.620536	3.596312	-0.182526	-0.734762	0.653306
0.337883	-10.732142	3.597310	0.063434	-0.734762	0.675353
-0.337883	-10.732142	3.597310	-0.063434	-0.734762	0.675353
0.906687	-10.642858	3.597354	0.165782	-0.734762	0.657755
-0.906687	-10.642858	3.597354	-0.165782	-0.734762	0.657755
0.681809	-10.687500	3.597460	0.126311	-0.734762	0.666461
-0.681809	-10.687500	3.597460	-0.126311	-0.734762	0.666461
1.450076	-10.486608	3.597881	0.253570	-0.734762	0.629148
-1.450076	-10.486608	3.597881	-0.253570	-0.734762	0.629148
1.240830	-10.553572	3.598656	0.221114	-0.734762	0.641275
-1.240830	-10.553572	3.598656	-0.221114	-0.734762	0.641275
1.631828	-10.419642	3.598974	0.280114	-0.734762	0.617787
-1.631828	-10.419642	3.598974	-0.280114	-0.734762	0.617787
0.524610	-10.709822	3.599290	0.097835	-0.734762	0.671233
-0.524610	-10.709822	3.599290	-0.097835	-0.734762	0.671233
1.379951	-10.508928	3.599474	0.242820	-0.734762	0.633375
-1.379951	-10.508928	3.599474	-0.242820	-0.734762	0.633375
1.744296	-10.375000	3.599643	0.295800	-0.734762	0.610432
-1.744296	-10.375000	3.599643	-0.295800	-0.734762	0.610432
1.310194	-10.531250	3.599727	0.232001	-0.734762	0.637417
-1.310194	-10.531250	3.599727	-0.232001	-0.734762	0.637417
0.307244	-10.732142	3.600056	0.057682	-0.734762	0.675868
-0.307244	-10.732142	3.600056	-0.057682	-0.734762	0.675868
1.072758	-10.598214	3.601856	0.193624	-0.734762	0.650104
-1.072758	-10.598214	3.601856	-0.193624	-0.734762	0.650104
0.778569	-10.665178	3.602507	0.143290	-0.734762	0.663018
-0.778569	-10.665178	3.602507	-0.143290	-0.734762	0.663018
0.276583	-10.732142	3.602541	0.051925	-0.734762	0.676335
-0.276583	-10.732142	3.602541	-0.051925	-0.734762	0.676335
0.651157	-10.687500	3.603134	0.120633	-0.734762	0.667512
-0.651157	-10.687500	3.603134	-0.120633	-0.734762	0.667512
0.493948	-10.709822	3.603626	0.092117	-0.734762	0.672041
-0.493948	-10.709822	3.603626	-0.092117	-0.734762	0.672041
1.560705	-10.441964	3.604050	0.269554	-0.734762	0.622467
-1.560705	-10.441964	3.604050	-0.269554	-0.734762	0.622467
0.974114	-10.620536	3.604736	0.176958	-0.734762	0.654837
-0.974114	-10.620536	3.604736	-0.176958	-0.734762	0.654837
0.245902	-10.732142	3.604765	0.046165	-0.734762	0.676752
-0.245902	-10.732142	3.604765	-0.046165	-0.734762	0.676752
0.876027	-10.642858	3.604943	0.160176	-0.734762	0.659142
-0.876027	-10.642858	3.604943	-0.160176	-0.734762	0.659142
1.141226	-10.575892	3.606120	0.204665	-0.734762	0.646713
-1.141226	-10.575892	3.606120	-0.204665	-0.734762	0.646713
0.215204	-10.732142	3.606728	0.040402	-0.734762	0.677121
-0.215204	-10.732142	3.606728	-0.040402	-0.734762	0.677121
1.672581	-10.397322	3.606886	0.285363	-0.734762	0.615380
-1.672581	-10.397322	3.606886	-0.285363	-0.734762	0.615380
0.463250	-10.709822	3.607701	0.086392	-0.734762	0.672801
-0.463250	-10.709822	3.607701	-0.086392	-0.734762	0.672801
1.489884	-10.464286	3.607753	0.258917	-0.734762	0.626967
-1.489884	-10.464286	3.607753	-0.258917	-0.734762	0.626967
0.184489	-10.732142	3.608430	0.034636	-0.734762	0.677440
-0.184489	-10.732142	3.608430	-0.034636	-0.734762	0.677440
0.620457	-10.687500	3.608547	0.114945	-0.734762	0.668515
-0.620457	-10.687500	3.608547	-0.114945	-0.734762	0.668515
0.747870	-10.665178	3.609005	0.137641	-0.734762	0.664214
-0.747870	-10.665178	3.609005	-0.137641	-0.734762	0.664214
1.210148	-10.553572	3.609090	0.215646	-0.734762	0.643134
-1.210148	-10.553572	3.609090	-0.215646	-0.734762	0.643134
0.153761	-10.732142	3.609870	0.028867	-0.734762	0.677711
-0.153761	-10.732142	3.609870	-0.028867	-0.734762	0.677711
1.419393	-10.486608	3.610096	0.248204	-0.734762	0.631284
-1.419393	-10.486608	3.610096	-0.248204	-0.734762	0.631284
1.279499	-10.531250	3.610752	0.226566	-0.734762	0.639369
-1.279499	-10.531250	3.610752	-0.226566	-0.734762	0.639369
1.042054	-10.598214	3.610858	0.188082	-0.734762	0.651729
-1.042054	-10.598214	3.610858	-0.188082	-0.734762	0.651729
0.123023	-10.732142	3.611048	0.023096	-0.734762	0.677932
-0.123023	-10.732142	3.611048	-0.023096	-0.734762	0.677932
1.349256	-10.508928	3.611092	0.237419	-0.734762	0.635419
-1.349256	-10.508928	3.611092	-0.237419	-0.734762	0.635419
0.432518	-10.709822	3.611514	0.080660	-0.734762	0.673512
-0.432518	-10.709822	3.611514	-0.080660	-0.734762	0.673512
0.092275	-10.732142	3.611964	0.017323	-0.734762	0.678104
-0.092275	-10.732142	3.611964	-0.017323	-0.734762	0.678104
0.845304	-10.642858	3.612271	0.154559	-0.734762	0.660482
-0.845304	-10.642858	3.612271	-0.154559	-0.734762	0.660482
0.061520	-10.732142	3.612619	0.011550	-0.734762	0.678227
-0.061520	-10.732142	3.612619	-0.011550	-0.734762	0.678227
1.601129	-10.419642	3.612737	0.274844	-0.734762	0.620150
-1.601129	-10.419642	3.612737	-0.274844	-0.734762	0.620150
0.943389	-10.620536	3.612899	0.171376	-0.734762	0.656319
-0.943389	-10.620536	3.612899	-0.171376	-0.734762	0.656319
0.030761	-10.732142	3.613012	0.005775	-0.734762	0.678301
-0.030761	-10.732142	3.613012	-0.005775	-0.734762	0.678301
0.000000	-10.732142	3.613143	0.000000	-0.734762	0.678325
0.589713	-10.687500	3.613699	0.109249	-0.734762	0.669470
-0.589713	-10.687500	3.613699	-0.109249	-0.734762	0.669470
1.713587	-10.375000	3.614363	0.290592	-0.734762	0.612928
-1.713587	-10.375000	3.614363	-0.290592	-0.734762	0.612928
0.401755	-10.709822	3.615066	0.074923	-0.734762	0.674175
-0.401755	-10.709822	3.615066	-0.074923	-0.734762	0.674175
0.717117	-10.665178	3.615241	0.131981	-0.734762	0.665362
-0.717117	-10.665178	3.615241	-0.131981	-0.734762	0.665362
1.110483	-10.575892	3.615705	0.199151	-0.734762	0.648432
-1.110483	-10.575892	3.615705	-0.199151	-0.734762	0.648432
1.529964	-10.441964	3.617207	0.264245	-0.734762	0.624740
