-0.375049	-14.816964	-3.374759	-0.074923	0.734762	-0.674175
0.375049	-14.816964	-3.374759	0.074923	0.734762	-0.674175
-1.599649	-15.129464	-3.374040	-0.290592	0.734762	-0.612928
1.599649	-15.129464	-3.374040	0.290592	0.734762	-0.612928
-1.293399	-15.017858	-3.373710	-0.242820	0.734762	-0.633375
1.293399	-15.017858	-3.373710	0.242820	0.734762	-0.633375
-1.359693	-15.040178	-3.373625	-0.253570	0.734762	-0.629148
1.359693	-15.040178	-3.373625	0.253570	0.734762	-0.629148
-1.815683	-15.218750	-3.373121	-0.321510	0.734762	-0.597291
1.815683	-15.218750	-3.373121	0.321510	0.734762	-0.597291
-1.227498	-14.995536	-3.372523	-0.232001	0.734762	-0.637417
1.227498	-14.995536	-3.372523	0.232001	0.734762	-0.637417
-1.426357	-15.062500	-3.372253	-0.264245	0.734762	-0.624740
1.426357	-15.062500	-3.372253	0.264245	0.734762	-0.624740
-0.698808	-14.861608	-3.372249	-0.137641	0.734762	-0.664214
0.698808	-14.861608	-3.372249	0.137641	0.734762	-0.664214
-1.966015	-15.285714	-3.372006	-0.341660	0.734762	-0.585998
1.966015	-15.285714	-3.372006	0.341660	0.734762	-0.585998
-0.403767	-14.816964	-3.371444	-0.080660	0.734762	-0.673512
0.403767	-14.816964	-3.371444	0.080660	0.734762	-0.673512
0.000000	-14.794642	-3.371357	0.000000	0.734762	-0.678325
-0.911039	-14.906250	-3.371323	-0.176958	0.734762	-0.654837
0.911039	-14.906250	-3.371323	0.176958	0.734762	-0.654837
-0.028703	-14.794642	-3.371235	-0.005775	0.734762	-0.678301
0.028703	-14.794642	-3.371235	0.005775	0.734762	-0.678301
-0.057403	-14.794642	-3.370868	-0.011550	0.734762	-0.678227
0.057403	-14.794642	-3.370868	0.011550	0.734762	-0.678227
-0.579486	-14.839286	-3.370259	-0.114945	0.734762	-0.668515
0.579486	-14.839286	-3.370259	0.114945	0.734762	-0.668515
-0.086100	-14.794642	-3.370258	-0.017323	0.734762	-0.678104
0.086100	-14.794642	-3.370258	0.017323	0.734762	-0.678104
-1.003742	-14.928572	-3.370129	-0.193624	0.734762	-0.650104
1.003742	-14.928572	-3.370129	0.193624	0.734762	-0.650104
-1.162015	-14.973214	-3.370077	-0.221114	0.734762	-0.641275
1.162015	-14.973214	-3.370077	0.221114	0.734762	-0.641275
-0.818933	-14.883928	-3.369995	-0.160176	0.734762	-0.659142
0.818933	-14.883928	-3.369995	0.160176	0.734762	-0.659142
-1.493365	-15.084822	-3.369583	-0.274844	0.734762	-0.620150
1.493365	-15.084822	-3.369583	0.274844	0.734762	-0.620150
-0.114790	-14.794642	-3.369402	-0.023096	0.734762	-0.677932
0.114790	-14.794642	-3.369402	0.023096	0.734762	-0.677932
-0.143472	-14.794642	-3.368303	-0.028867	0.734762	-0.677711
0.143472	-14.794642	-3.368303	0.028867	0.734762	-0.677711
-1.667594	-15.151786	-3.367982	-0.300986	0.734762	-0.607892
1.667594	-15.151786	-3.367982	0.300986	0.734762	-0.607892
-0.432456	-14.816964	-3.367884	-0.086392	0.734762	-0.672801
0.432456	-14.816964	-3.367884	0.086392	0.734762	-0.672801
-1.925235	-15.263392	-3.367631	-0.336659	0.734762	-0.588885
1.925235	-15.263392	-3.367631	0.336659	0.734762	-0.588885
-1.775621	-15.196428	-3.367069	-0.316413	0.734762	-0.600007
1.775621	-15.196428	-3.367069	0.316413	0.734762	-0.600007
-0.172144	-14.794642	-3.366959	-0.034636	0.734762	-0.677440
0.172144	-14.794642	-3.366959	0.034636	0.734762	-0.677440
-2.159958	-15.375000	-3.366687	-0.366289	0.734762	-0.570927
2.159958	-15.375000	-3.366687	0.366289	0.734762	-0.570927
-1.096974	-14.950892	-3.366385	-0.210163	0.734762	-0.644947
1.096974	-14.950892	-3.366385	0.210163	0.734762	-0.644947
-0.727493	-14.861608	-3.366178	-0.143290	0.734762	-0.663018
0.727493	-14.861608	-3.366178	0.143290	0.734762	-0.663018
-1.560693	-15.107142	-3.365602	-0.285363	0.734762	-0.615380
1.560693	-15.107142	-3.365602	0.285363	0.734762	-0.615380
-0.200803	-14.794642	-3.365372	-0.040402	0.734762	-0.677121
0.200803	-14.794642	-3.365372	0.040402	0.734762	-0.677121
-0.608158	-14.839286	-3.365203	-0.120633	0.734762	-0.667512
0.608158	-14.839286	-3.365203	0.120633	0.734762	-0.667512
-2.118335	-15.352678	-3.364493	-0.361415	0.734762	-0.574025
2.118335	-15.352678	-3.364493	0.361415	0.734762	-0.574025
-0.461113	-14.816964	-3.364080	-0.092117	0.734762	-0.672041
0.461113	-14.816964	-3.364080	0.092117	0.734762	-0.672041
-0.229447	-14.794642	-3.363540	-0.046165	0.734762	-0.676752
0.229447	-14.794642	-3.363540	0.046165	0.734762	-0.676752
-0.939708	-14.906250	-3.363445	-0.182526	0.734762	-0.653306
0.939708	-14.906250	-3.363445	0.182526	0.734762	-0.653306
-0.847594	-14.883928	-3.362901	-0.165782	0.734762	-0.657755
0.847594	-14.883928	-3.362901	0.165782	0.734762	-0.657755
-1.884674	-15.241072	-3.362808	-0.331633	0.734762	-0.591730
1.884674	-15.241072	-3.362808	0.331633	0.734762	-0.591730
-1.322074	-15.017858	-3.362576	-0.248204	0.734762	-0.631284
1.322074	-15.017858	-3.362576	0.248204	0.734762	-0.631284
-1.256166	-14.995536	-3.361950	-0.237419	0.734762	-0.635419
1.256166	-14.995536	-3.361950	0.237419	0.734762	-0.635419
-1.388366	-15.040178	-3.361926	-0.258917	0.734762	-0.626967
1.388366	-15.040178	-3.361926	0.258917	0.734762	-0.626967
-2.076906	-15.330358	-3.361836	-0.356514	0.734762	-0.577081
2.076906	-15.330358	-3.361836	0.356514	0.734762	-0.577081
-0.258075	-14.794642	-3.361465	-0.051925	0.734762	-0.676335
0.258075	-14.794642	-3.361465	0.051925	0.734762	-0.676335
-1.032398	-14.928572	-3.361462	-0.199151	0.734762	-0.648432
1.032398	-14.928572	-3.361462	0.199151	0.734762	-0.648432
-1.735794	-15.174108	-3.360582	-0.311293	0.734762	-0.602679
1.735794	-15.174108	-3.360582	0.311293	0.734762	-0.602679
-1.628316	-15.129464	-3.360299	-0.295800	0.734762	-0.610432
1.628316	-15.129464	-3.360299	0.295800	0.734762	-0.610432
-1.190665	-14.973214	-3.360062	-0.226566	0.734762	-0.639369
1.190665	-14.973214	-3.360062	0.226566	0.734762	-0.639369
-0.489738	-14.816964	-3.360033	-0.097835	0.734762	-0.671233
0.489738	-14.816964	-3.360033	0.097835	0.734762	-0.671233
-1.455015	-15.062500	-3.359987	-0.269554	0.734762	-0.622467
1.455015	-15.062500	-3.359987	0.269554	0.734762	-0.622467
-0.636786	-14.839286	-3.359903	-0.126311	0.734762	-0.666461
0.636786	-14.839286	-3.359903	0.126311	0.734762	-0.666461
-0.756126	-14.861608	-3.359862	-0.148930	0.734762	-0.661774
0.756126	-14.861608	-3.359862	0.148930	0.734762	-0.661774
-0.286684	-14.794642	-3.359146	-0.057682	0.734762	-0.675868
0.286684	-14.794642	-3.359146	0.057682	0.734762	-0.675868
-2.035676	-15.308036	-3.358720	-0.351588	0.734762	-0.580095
2.035676	-15.308036	-3.358720	0.351588	0.734762	-0.580095
-1.844335	-15.218750	-3.357540	-0.326583	0.734762	-0.594532
1.844335	-15.218750	-3.357540	0.326583	0.734762	-0.594532
-1.125595	-14.950892	-3.356923	-0.215646	0.734762	-0.643134
1.125595	-14.950892	-3.356923	0.215646	0.734762	-0.643134
-1.521999	-15.084822	-3.356746	-0.280114	0.734762	-0.617787
1.521999	-15.084822	-3.356746	0.280114	0.734762	-0.617787
-0.315272	-14.794642	-3.356583	-0.063434	0.734762	-0.675353
0.315272	-14.794642	-3.356583	0.063434	0.734762	-0.675353
-0.518326	-14.816964	-3.355742	-0.103546	0.734762	-0.670375
0.518326	-14.816964	-3.355742	0.103546	0.734762	-0.670375
-0.876194	-14.883928	-3.355563	-0.171376	0.734762	-0.656319
0.876194	-14.883928	-3.355563	0.171376	0.734762	-0.656319
-0.968309	-14.906250	-3.355322	-0.188082	0.734762	-0.651729
0.968309	-14.906250	-3.355322	0.188082	0.734762	-0.651729
-1.994652	-15.285714	-3.355146	-0.346637	0.734762	-0.583068
1.994652	-15.285714	-3.355146	0.346637	0.734762	-0.583068
-0.665368	-14.839286	-3.354360	-0.131981	0.734762	-0.665362
0.665368	-14.839286	-3.354360	0.131981	0.734762	-0.665362
-0.343838	-14.794642	-3.353778	-0.069181	0.734762	-0.674788
0.343838	-14.794642	-3.353778	0.069181	0.734762	-0.674788
-1.696208	-15.151786	-3.353663	-0.306151	0.734762	-0.605307
1.696208	-15.151786	-3.353663	0.306151	0.734762	-0.605307
-0.784703	-14.861608	-3.353303	-0.154559	0.734762	-0.660482
0.784703	-14.861608	-3.353303	0.154559	0.734762	-0.660482
-1.060979	-14.928572	-3.352550	-0.204665	0.734762	-0.646713
1.060979	-14.928572	-3.352550	0.204665	0.734762	-0.646713
-1.589290	-15.107142	-3.352193	-0.290592	0.734762	-0.612928
1.589290	-15.107142	-3.352193	0.290592	0.734762	-0.612928
-1.804223	-15.196428	-3.351830	-0.321510	0.734762	-0.597291
1.804223	-15.196428	-3.351830	0.321510	0.734762	-0.597291
-0.546877	-14.816964	-3.351207	-0.109249	0.734762	-0.669470
0.546877	-14.816964	-3.351207	0.109249	0.734762	-0.669470
-1.350654	-15.017858	-3.351199	-0.253570	0.734762	-0.629148
1.350654	-15.017858	-3.351199	0.253570	0.734762	-0.629148
-1.284743	-14.995536	-3.351134	-0.242820	0.734762	-0.633375
1.284743	-14.995536	-3.351134	0.242820	0.734762	-0.633375
-1.953837	-15.263392	-3.351118	-0.341660	0.734762	-0.585998
1.953837	-15.263392	-3.351118	0.341660	0.734762	-0.585998
-0.372378	-14.794642	-3.350729	-0.074923	0.734762	-0.674175
0.372378	-14.794642	-3.350729	0.074923	0.734762	-0.674175
-1.416938	-15.040178	-3.349984	-0.264245	0.734762	-0.624740
1.416938	-15.040178	-3.349984	0.264245	0.734762	-0.624740
-1.219229	-14.973214	-3.349803	-0.232001	0.734762	-0.637417
1.219229	-14.973214	-3.349803	0.232001	0.734762	-0.637417
-0.693902	-14.839286	-3.348574	-0.137641	0.734762	-0.664214
0.693902	-14.839286	-3.348574	0.137641	0.734762	-0.664214
-2.188543	-15.375000	-3.348176	-0.371136	0.734762	-0.567788
2.188543	-15.375000	-3.348176	0.371136	0.734762	-0.567788
-0.904731	-14.883928	-3.347982	-0.176958	0.734762	-0.654837
0.904731	-14.883928	-3.347982	0.176958	0.734762	-0.654837
-1.483568	-15.062500	-3.347478	-0.274844	0.734762	-0.620150
1.483568	-15.062500	-3.347478	0.274844	0.734762	-0.620150
-0.400892	-14.794642	-3.347437	-0.080660	0.734762	-0.673512
0.400892	-14.794642	-3.347437	0.080660	0.734762	-0.673512
-1.154134	-14.950892	-3.347219	-0.221114	0.734762	-0.641275
1.154134	-14.950892	-3.347219	0.221114	0.734762	-0.641275
0.000000	-14.772322	-3.347178	0.000000	0.734762	-0.678325
-0.028497	-14.772322	-3.347057	-0.005775	0.734762	-0.678301
0.028497	-14.772322	-3.347057	0.005775	0.734762	-0.678301
-0.996840	-14.906250	-3.346957	-0.193624	0.734762	-0.650104
0.996840	-14.906250	-3.346957	0.193624	0.734762	-0.650104
-0.056992	-14.772322	-3.346693	-0.011550	0.734762	-0.678227
0.056992	-14.772322	-3.346693	0.011550	0.734762	-0.678227
-1.913235	-15.241072	-3.346641	-0.336659	0.734762	-0.588885
1.913235	-15.241072	-3.346641	0.336659	0.734762	-0.588885
-0.813224	-14.861608	-3.346500	-0.160176	0.734762	-0.659142
0.813224	-14.861608	-3.346500	0.160176	0.734762	-0.659142
-0.575388	-14.816964	-3.346430	-0.114945	0.734762	-0.668515
0.575388	-14.816964	-3.346430	0.114945	0.734762	-0.668515
-2.146902	-15.352678	-3.346337	-0.366289	0.734762	-0.570927
2.146902	-15.352678	-3.346337	0.366289	0.734762	-0.570927
-1.656866	-15.129464	-3.346314	-0.300986	0.734762	-0.607892
1.656866	-15.129464	-3.346314	0.300986	0.734762	-0.607892
-0.085482	-14.772322	-3.346087	-0.017323	0.734762	-0.678104
0.085482	-14.772322	-3.346087	0.017323	0.734762	-0.678104
-1.764342	-15.174108	-3.345683	-0.316413	0.734762	-0.600007
1.764342	-15.174108	-3.345683	0.316413	0.734762	-0.600007
-0.113967	-14.772322	-3.345238	-0.023096	0.734762	-0.677932
0.113967	-14.772322	-3.345238	0.023096	0.734762	-0.677932
-0.142443	-14.772322	-3.344146	-0.028867	0.734762	-0.677711
0.142443	-14.772322	-3.344146	0.028867	0.734762	-0.677711
-2.105452	-15.330358	-3.344033	-0.361415	0.734762	-0.574025
2.105452	-15.330358	-3.344033	0.361415	0.734762	-0.574025
-0.429377	-14.794642	-3.343903	-0.086392	0.734762	-0.672801
0.429377	-14.794642	-3.343903	0.086392	0.734762	-0.672801
-1.550522	-15.084822	-3.343667	-0.285363	0.734762	-0.615380
1.550522	-15.084822	-3.343667	0.285363	0.734762	-0.615380
-1.089483	-14.928572	-3.343396	-0.210163	0.734762	-0.644947
1.089483	-14.928572	-3.343396	0.210163	0.734762	-0.644947
-0.170909	-14.772322	-3.342812	-0.034636	0.734762	-0.677440
0.170909	-14.772322	-3.342812	0.034636	0.734762	-0.677440
-0.722386	-14.839286	-3.342545	-0.143290	0.734762	-0.663018
0.722386	-14.839286	-3.342545	0.143290	0.734762	-0.663018
-1.872853	-15.218750	-3.341716	-0.331633	0.734762	-0.591730
1.872853	-15.218750	-3.341716	0.331633	0.734762	-0.591730
-0.603858	-14.816964	-3.341410	-0.120633	0.734762	-0.667512
0.603858	-14.816964	-3.341410	0.120633	0.734762	-0.667512
-2.064198	-15.308036	-3.341267	-0.356514	0.734762	-0.577081
2.064198	-15.308036	-3.341267	0.356514	0.734762	-0.577081
-0.199362	-14.772322	-3.341236	-0.040402	0.734762	-0.677121
0.199362	-14.772322	-3.341236	0.040402	0.734762	-0.677121
-0.933202	-14.883928	-3.340158	-0.182526	0.734762	-0.653306
0.933202	-14.883928	-3.340158	0.182526	0.734762	-0.653306
-0.457830	-14.794642	-3.340126	-0.092117	0.734762	-0.672041
0.457830	-14.794642	-3.340126	0.092117	0.734762	-0.672041
-1.313227	-14.995536	-3.340075	-0.248204	0.734762	-0.631284
1.313227	-14.995536	-3.340075	0.248204	0.734762	-0.631284
-1.379137	-15.017858	-3.339578	-0.258917	0.734762	-0.626967
1.379137	-15.017858	-3.339578	0.258917	0.734762	-0.626967
-0.841685	-14.861608	-3.339456	-0.165782	0.734762	-0.657755
0.841685	-14.861608	-3.339456	0.165782	0.734762	-0.657755
-0.227801	-14.772322	-3.339418	-0.046165	0.734762	-0.676752
0.227801	-14.772322	-3.339418	0.046165	0.734762	-0.676752
-1.247704	-14.973214	-3.339301	-0.237419	0.734762	-0.635419
1.247704	-14.973214	-3.339301	0.237419	0.734762	-0.635419
-1.724698	-15.151786	-3.339100	-0.311293	0.734762	-0.602679
1.724698	-15.151786	-3.339100	0.311293	0.734762	-0.602679
-1.617772	-15.107142	-3.338540	-0.295800	0.734762	-0.610432
1.617772	-15.107142	-3.338540	0.295800	0.734762	-0.610432
-1.025299	-14.906250	-3.338349	-0.199151	0.734762	-0.648432
1.025299	-14.906250	-3.338349	0.199151	0.734762	-0.648432
-2.023144	-15.285714	-3.338042	-0.351588	0.734762	-0.580095
2.023144	-15.285714	-3.338042	0.351588	0.734762	-0.580095
-1.445407	-15.040178	-3.337800	-0.269554	0.734762	-0.622467
1.445407	-15.040178	-3.337800	0.269554	0.734762	-0.622467
-0.256224	-14.772322	-3.337357	-0.051925	0.734762	-0.676335
0.256224	-14.772322	-3.337357	0.051925	0.734762	-0.676335
-1.182589	-14.950892	-3.337271	-0.226566	0.734762	-0.639369
1.182589	-14.950892	-3.337271	0.226566	0.734762	-0.639369
-1.832694	-15.196428	-3.336348	-0.326583	0.734762	-0.594532
1.832694	-15.196428	-3.336348	0.326583	0.734762	-0.594532
-0.750817	-14.839286	-3.336273	-0.148930	0.734762	-0.661774
0.750817	-14.839286	-3.336273	0.148930	0.734762	-0.661774
-0.632284	-14.816964	-3.336148	-0.126311	0.734762	-0.666461
0.632284	-14.816964	-3.336148	0.126311	0.734762	-0.666461
-0.486250	-14.794642	-3.336107	-0.097835	0.734762	-0.671233
0.486250	-14.794642	-3.336107	0.097835	0.734762	-0.671233
-0.284628	-14.772322	-3.335055	-0.057682	0.734762	-0.675868
0.284628	-14.772322	-3.335055	0.057682	0.734762	-0.675868
-1.512014	-15.062500	-3.334726	-0.280114	0.734762	-0.617787
1.512014	-15.062500	-3.334726	0.280114	0.734762	-0.617787
-1.982296	-15.263392	-3.334363	-0.346637	0.734762	-0.583068
1.982296	-15.263392	-3.334363	0.346637	0.734762	-0.583068
-1.117908	-14.928572	-3.333999	-0.215646	0.734762	-0.643134
1.117908	-14.928572	-3.333999	0.215646	0.734762	-0.643134
-0.313011	-14.772322	-3.332511	-0.063434	0.734762	-0.675353
0.313011	-14.772322	-3.332511	0.063434	0.734762	-0.675353
-0.870086	-14.861608	-3.332169	-0.171376	0.734762	-0.656319
0.870086	-14.861608	-3.332169	0.171376	0.734762	-0.656319
-0.961605	-14.883928	-3.332092	-0.188082	0.734762	-0.651729
0.961605	-14.883928	-3.332092	0.188082	0.734762	-0.651729
-1.685295	-15.129464	-3.332087	-0.306151	0.734762	-0.605307
1.685295	-15.129464	-3.332087	0.306151	0.734762	-0.605307
-0.514635	-14.794642	-3.331846	-0.103546	0.734762	-0.670375
0.514635	-14.794642	-3.331846	0.103546	0.734762	-0.670375
-0.660664	-14.816964	-3.330643	-0.131981	0.734762	-0.665362
0.660664	-14.816964	-3.330643	0.131981	0.734762	-0.665362
-1.792763	-15.174108	-3.330540	-0.321510	0.734762	-0.597291
1.792763	-15.174108	-3.330540	0.321510	0.734762	-0.597291
-1.578933	-15.084822	-3.330345	-0.290592	0.734762	-0.612928
1.578933	-15.084822	-3.330345	0.290592	0.734762	-0.612928
-1.941658	-15.241072	-3.330231	-0.341660	0.734762	-0.585998
1.941658	-15.241072	-3.330231	0.341660	0.734762	-0.585998
-0.779194	-14.839286	-3.329760	-0.154559	0.734762	-0.660482
0.779194	-14.839286	-3.329760	0.154559	0.734762	-0.660482
-0.341372	-14.772322	-3.329725	-0.069181	0.734762	-0.674788
0.341372	-14.772322	-3.329725	0.069181	0.734762	-0.674788
-1.053684	-14.906250	-3.329499	-0.204665	0.734762	-0.646713
1.053684	-14.906250	-3.329499	0.204665	0.734762	-0.646713
-2.216969	-15.375000	-3.329422	-0.375956	0.734762	-0.564608
2.216969	-15.375000	-3.329422	0.375956	0.734762	-0.564608
-1.341616	-14.995536	-3.328773	-0.253570	0.734762	-0.629148
1.341616	-14.995536	-3.328773	0.253570	0.734762	-0.629148
-1.276088	-14.973214	-3.328558	-0.242820	0.734762	-0.633375
1.276088	-14.973214	-3.328558	0.242820	0.734762	-0.633375
-2.175314	-15.352678	-3.327937	-0.371136	0.734762	-0.567788
2.175314	-15.352678	-3.327937	0.371136	0.734762	-0.567788
-1.407519	-15.017858	-3.327716	-0.264245	0.734762	-0.624740
1.407519	-15.017858	-3.327716	0.264245	0.734762	-0.624740
-0.542983	-14.794642	-3.327344	-0.109249	0.734762	-0.669470
0.542983	-14.794642	-3.327344	0.109249	0.734762	-0.669470
-1.210959	-14.950892	-3.327082	-0.232001	0.734762	-0.637417
1.210959	-14.950892	-3.327082	0.232001	0.734762	-0.637417
-0.369708	-14.772322	-3.326698	-0.074923	0.734762	-0.674175
0.369708	-14.772322	-3.326698	0.074923	0.734762	-0.674175
-2.133846	-15.330358	-3.325986	-0.366289	0.734762	-0.570927
2.133846	-15.330358	-3.325986	0.366289	0.734762	-0.570927
-1.901235	-15.218750	-3.325650	-0.336659	0.734762	-0.588885
1.901235	-15.218750	-3.325650	0.336659	0.734762	-0.588885
-1.473772	-15.040178	-3.325373	-0.274844	0.734762	-0.620150
1.473772	-15.040178	-3.325373	0.274844	0.734762	-0.620150
-0.688996	-14.816964	-3.324898	-0.137641	0.734762	-0.664214
0.688996	-14.816964	-3.324898	0.137641	0.734762	-0.664214
-1.646137	-15.107142	-3.324646	-0.300986	0.734762	-0.607892
1.646137	-15.107142	-3.324646	0.300986	0.734762	-0.607892
-0.898423	-14.861608	-3.324640	-0.176958	0.734762	-0.654837
0.898423	-14.861608	-3.324640	0.176958	0.734762	-0.654837
-1.146252	-14.928572	-3.324361	-0.221114	0.734762	-0.641275
1.146252	-14.928572	-3.324361	0.221114	0.734762	-0.641275
-1.753064	-15.151786	-3.324296	-0.316413	0.734762	-0.600007
1.753064	-15.151786	-3.324296	0.316413	0.734762	-0.600007
-0.989939	-14.883928	-3.323784	-0.193624	0.734762	-0.650104
0.989939	-14.883928	-3.323784	0.193624	0.734762	-0.650104
-2.092570	-15.308036	-3.323572	-0.361415	0.734762	-0.574025
2.092570	-15.308036	-3.323572	0.361415	0.734762	-0.574025
-0.398017	-14.772322	-3.323430	-0.080660	0.734762	-0.673512
0.398017	-14.772322	-3.323430	0.080660	0.734762	-0.673512
-0.807514	-14.839286	-3.323006	-0.160176	0.734762	-0.659142
0.807514	-14.839286	-3.323006	0.160176	0.734762	-0.659142
0.000000	-14.750000	-3.323000	0.000000	0.734762	-0.678325
-0.028291	-14.750000	-3.322880	-0.005775	0.734762	-0.678301
0.028291	-14.750000	-3.322880	0.005775	0.734762	-0.678301
-0.571291	-14.794642	-3.322601	-0.114945	0.734762	-0.668515
0.571291	-14.794642	-3.322601	0.114945	0.734762	-0.668515
-0.056580	-14.750000	-3.322518	-0.011550	0.734762	-0.678227
0.056580	-14.750000	-3.322518	0.011550	0.734762	-0.678227
-0.084865	-14.750000	-3.321916	-0.017323	0.734762	-0.678104
0.084865	-14.750000	-3.321916	0.017323	0.734762	-0.678104
-1.540350	-15.062500	-3.321732	-0.285363	0.734762	-0.615380
1.540350	-15.062500	-3.321732	0.285363	0.734762	-0.615380
-0.113144	-14.750000	-3.321073	-0.023096	0.734762	-0.677932
0.113144	-14.750000	-3.321073	0.023096	0.734762	-0.677932
-2.051490	-15.285714	-3.320697	-0.356514	0.734762	-0.577081
2.051490	-15.285714	-3.320697	0.356514	0.734762	-0.577081
-1.861032	-15.196428	-3.320624	-0.331633	0.734762	-0.591730
1.861032	-15.196428	-3.320624	0.331633	0.734762	-0.591730
-1.081992	-14.906250	-3.320407	-0.210163	0.734762	-0.644947
1.081992	-14.906250	-3.320407	0.210163	0.734762	-0.644947
-0.141414	-14.750000	-3.319990	-0.028867	0.734762	-0.677711
0.141414	-14.750000	-3.319990	0.028867	0.734762	-0.677711
-0.426297	-14.772322	-3.319921	-0.086392	0.734762	-0.672801
0.426297	-14.772322	-3.319921	0.086392	0.734762	-0.672801
-0.717278	-14.816964	-3.318912	-0.143290	0.734762	-0.663018
0.717278	-14.816964	-3.318912	0.143290	0.734762	-0.663018
-0.169674	-14.750000	-3.318665	-0.034636	0.734762	-0.677440
0.169674	-14.750000	-3.318665	0.034636	0.734762	-0.677440
-1.713603	-15.129464	-3.317618	-0.311293	0.734762	-0.602679
1.713603	-15.129464	-3.317618	0.311293	0.734762	-0.602679
-0.599558	-14.794642	-3.317616	-0.120633	0.734762	-0.667512
0.599558	-14.794642	-3.317616	0.120633	0.734762	-0.667512
-1.304380	-14.973214	-3.317573	-0.248204	0.734762	-0.631284
1.304380	-14.973214	-3.317573	0.248204	0.734762	-0.631284
-2.010612	-15.263392	-3.317365	-0.351588	0.734762	-0.580095
2.010612	-15.263392	-3.317365	0.351588	0.734762	-0.580095
-1.369908	-14.995536	-3.317230	-0.258917	0.734762	-0.626967
1.369908	-14.995536	-3.317230	0.258917	0.734762	-0.626967
-0.197922	-14.750000	-3.317101	-0.040402	0.734762	-0.677121
0.197922	-14.750000	-3.317101	0.040402	0.734762	-0.677121
-0.926696	-14.861608	-3.316871	-0.182526	0.734762	-0.653306
0.926696	-14.861608	-3.316871	0.182526	0.734762	-0.653306
-1.607229	-15.084822	-3.316782	-0.295800	0.734762	-0.610432
1.607229	-15.084822	-3.316782	0.295800	0.734762	-0.610432
-1.239241	-14.950892	-3.316652	-0.237419	0.734762	-0.635419
1.239241	-14.950892	-3.316652	0.237419	0.734762	-0.635419
-0.454547	-14.772322	-3.316171	-0.092117	0.734762	-0.672041
0.454547	-14.772322	-3.316171	0.092117	0.734762	-0.672041
-0.835776	-14.839286	-3.316010	-0.165782	0.734762	-0.657755
0.835776	-14.839286	-3.316010	0.165782	0.734762	-0.657755
-1.435799	-15.017858	-3.315612	-0.269554	0.734762	-0.622467
1.435799	-15.017858	-3.315612	0.269554	0.734762	-0.622467
-0.226156	-14.750000	-3.315295	-0.046165	0.734762	-0.676752
0.226156	-14.750000	-3.315295	0.046165	0.734762	-0.676752
-1.018201	-14.883928	-3.315236	-0.199151	0.734762	-0.648432
1.018201	-14.883928	-3.315236	0.199151	0.734762	-0.648432
-1.821053	-15.174108	-3.315156	-0.326583	0.734762	-0.594532
1.821053	-15.174108	-3.315156	0.326583	0.734762	-0.594532
-1.174513	-14.928572	-3.314481	-0.226566	0.734762	-0.639369
1.174513	-14.928572	-3.314481	0.226566	0.734762	-0.639369
-1.969941	-15.241072	-3.313579	-0.346637	0.734762	-0.583068
1.969941	-15.241072	-3.313579	0.346637	0.734762	-0.583068
-0.254373	-14.750000	-3.313250	-0.051925	0.734762	-0.676335
0.254373	-14.750000	-3.313250	0.051925	0.734762	-0.676335
-1.502030	-15.040178	-3.312705	-0.280114	0.734762	-0.617787
1.502030	-15.040178	-3.312705	0.280114	0.734762	-0.617787
-0.745509	-14.816964	-3.312685	-0.148930	0.734762	-0.661774
0.745509	-14.816964	-3.312685	0.148930	0.734762	-0.661774
-0.627782	-14.794642	-3.312392	-0.126311	0.734762	-0.666461
0.627782	-14.794642	-3.312392	0.126311	0.734762	-0.666461
-0.482763	-14.772322	-3.312181	-0.097835	0.734762	-0.671233
0.482763	-14.772322	-3.312181	0.097835	0.734762	-0.671233
-1.110222	-14.906250	-3.311075	-0.215646	0.734762	-0.643134
1.110222	-14.906250	-3.311075	0.215646	0.734762	-0.643134
-0.282572	-14.750000	-3.310964	-0.057682	0.734762	-0.675868
0.282572	-14.750000	-3.310964	0.057682	0.734762	-0.675868
-1.674383	-15.107142	-3.310511	-0.306151	0.734762	-0.605307
1.674383	-15.107142	-3.310511	0.306151	0.734762	-0.605307
-2.245234	-15.375000	-3.310426	-0.380750	0.734762	-0.561386
2.245234	-15.375000	-3.310426	0.380750	0.734762	-0.561386
-1.929480	-15.218750	-3.309343	-0.341660	0.734762	-0.585998
1.929480	-15.218750	-3.309343	0.341660	0.734762	-0.585998
-2.203568	-15.352678	-3.309297	-0.375956	0.734762	-0.564608
2.203568	-15.352678	-3.309297	0.375956	0.734762	-0.564608
-1.781302	-15.151786	-3.309250	-0.321510	0.734762	-0.597291
1.781302	-15.151786	-3.309250	0.321510	0.734762	-0.597291
-0.954901	-14.861608	-3.308861	-0.188082	0.734762	-0.651729
0.954901	-14.861608	-3.308861	0.188082	0.734762	-0.651729
-0.863977	-14.839286	-3.308774	-0.171376	0.734762	-0.656319
0.863977	-14.839286	-3.308774	0.171376	0.734762	-0.656319
-1.568575	-15.062500	-3.308498	-0.290592	0.734762	-0.612928
1.568575	-15.062500	-3.308498	0.290592	0.734762	-0.612928
-0.310750	-14.750000	-3.308438	-0.063434	0.734762	-0.675353
0.310750	-14.750000	-3.308438	0.063434	0.734762	-0.675353
-0.510944	-14.772322	-3.307951	-0.103546	0.734762	-0.670375
0.510944	-14.772322	-3.307951	0.103546	0.734762	-0.670375
-2.162085	-15.330358	-3.307699	-0.371136	0.734762	-0.567788
2.162085	-15.330358	-3.307699	0.371136	0.734762	-0.567788
-0.655960	-14.794642	-3.306927	-0.131981	0.734762	-0.665362
0.655960	-14.794642	-3.306927	0.131981	0.734762	-0.665362
-1.046389	-14.883928	-3.306447	-0.204665	0.734762	-0.646713
1.046389	-14.883928	-3.306447	0.204665	0.734762	-0.646713
-1.332578	-14.973214	-3.306347	-0.253570	0.734762	-0.629148
1.332578	-14.973214	-3.306347	0.253570	0.734762	-0.629148
-0.773685	-14.816964	-3.306218	-0.154559	0.734762	-0.660482
0.773685	-14.816964	-3.306218	0.154559	0.734762	-0.660482
-1.267433	-14.950892	-3.305981	-0.242820	0.734762	-0.633375
1.267433	-14.950892	-3.305981	0.242820	0.734762	-0.633375
-0.338906	-14.750000	-3.305673	-0.069181	0.734762	-0.674788
0.338906	-14.750000	-3.305673	0.069181	0.734762	-0.674788
-2.120790	-15.308036	-3.305636	-0.366289	0.734762	-0.570927
2.120790	-15.308036	-3.305636	0.366289	0.734762	-0.570927
-1.398100	-14.995536	-3.305447	-0.264245	0.734762	-0.624740
1.398100	-14.995536	-3.305447	0.264245	0.734762	-0.624740
-1.889235	-15.196428	-3.304660	-0.336659	0.734762	-0.588885
1.889235	-15.196428	-3.304660	0.336659	0.734762	-0.588885
-1.202689	-14.928572	-3.304362	-0.232001	0.734762	-0.637417
1.202689	-14.928572	-3.304362	0.232001	0.734762	-0.637417
-0.539089	-14.772322	-3.303481	-0.109249	0.734762	-0.669470
0.539089	-14.772322	-3.303481	0.109249	0.734762	-0.669470
-1.463975	-15.017858	-3.303268	-0.274844	0.734762	-0.620150
1.463975	-15.017858	-3.303268	0.274844	0.734762	-0.620150
-2.079687	-15.285714	-3.303111	-0.361415	0.734762	-0.574025
2.079687	-15.285714	-3.303111	0.361415	0.734762	-0.574025
-1.635409	-15.084822	-3.302978	-0.300986	0.734762	-0.607892
1.635409	-15.084822	-3.302978	0.300986	0.734762	-0.607892
-1.741786	-15.129464	-3.302909	-0.316413	0.734762	-0.600007
1.741786	-15.129464	-3.302909	0.316413	0.734762	-0.600007
-0.367037	-14.750000	-3.302668	-0.074923	0.734762	-0.674175
0.367037	-14.750000	-3.302668	0.074923	0.734762	-0.674175
-1.138371	-14.906250	-3.301503	-0.221114	0.734762	-0.641275
1.138371	-14.906250	-3.301503	0.221114	0.734762	-0.641275
-0.892116	-14.839286	-3.301299	-0.176958	0.734762	-0.654837
0.892116	-14.839286	-3.301299	0.176958	0.734762	-0.654837
-0.684090	-14.794642	-3.301223	-0.137641	0.734762	-0.664214
0.684090	-14.794642	-3.301223	0.137641	0.734762	-0.664214
-0.983037	-14.861608	-3.300611	-0.193624	0.734762	-0.650104
0.983037	-14.861608	-3.300611	0.193624	0.734762	-0.650104
-2.038782	-15.263392	-3.300127	-0.356514	0.734762	-0.577081
2.038782	-15.263392	-3.300127	0.356514	0.734762	-0.577081
-1.530178	-15.040178	-3.299797	-0.285363	0.734762	-0.615380
1.530178	-15.040178	-3.299797	0.285363	0.734762	-0.615380
-1.849211	-15.174108	-3.299532	-0.331633	0.734762	-0.591730
1.849211	-15.174108	-3.299532	0.331633	0.734762	-0.591730
-0.801805	-14.816964	-3.299511	-0.160176	0.734762	-0.659142
0.801805	-14.816964	-3.299511	0.160176	0.734762	-0.659142
-0.395142	-14.750000	-3.299423	-0.080660	0.734762	-0.673512
0.395142	-14.750000	-3.299423	0.080660	0.734762	-0.673512
-0.567194	-14.772322	-3.298772	-0.114945	0.734762	-0.668515
0.567194	-14.772322	-3.298772	0.114945	0.734762	-0.668515
-1.074501	-14.883928	-3.297418	-0.210163	0.734762	-0.644947
1.074501	-14.883928	-3.297418	0.210163	0.734762	-0.644947
-1.998080	-15.241072	-3.296688	-0.351588	0.734762	-0.580095
1.998080	-15.241072	-3.296688	0.351588	0.734762	-0.580095
-1.702507	-15.107142	-3.296136	-0.311293	0.734762	-0.602679
1.702507	-15.107142	-3.296136	0.311293	0.734762	-0.602679
-0.423218	-14.750000	-3.295939	-0.086392	0.734762	-0.672801
0.423218	-14.750000	-3.295939	0.086392	0.734762	-0.672801
-0.712171	-14.794642	-3.295279	-0.143290	0.734762	-0.663018
0.712171	-14.794642	-3.295279	0.143290	0.734762	-0.663018
-1.295533	-14.950892	-3.295071	-0.248204	0.734762	-0.631284
1.295533	-14.950892	-3.295071	0.248204	0.734762	-0.631284
-1.596685	-15.062500	-3.295023	-0.295800	0.734762	-0.610432
1.596685	-15.062500	-3.295023	0.295800	0.734762	-0.610432
-1.360679	-14.973214	-3.294883	-0.258917	0.734762	-0.626967
1.360679	-14.973214	-3.294883	0.258917	0.734762	-0.626967
-1.230778	-14.928572	-3.294003	-0.237419	0.734762	-0.635419
1.230778	-14.928572	-3.294003	0.237419	0.734762	-0.635419
-1.809412	-15.151786	-3.293965	-0.326583	0.734762	-0.594532
1.809412	-15.151786	-3.293965	0.326583	0.734762	-0.594532
-0.595258	-14.772322	-3.293823	-0.120633	0.734762	-0.667512
0.595258	-14.772322	-3.293823	0.120633	0.734762	-0.667512
-0.920190	-14.839286	-3.293584	-0.182526	0.734762	-0.653306
0.920190	-14.839286	-3.293584	0.182526	0.734762	-0.653306
-1.426191	-14.995536	-3.293424	-0.269554	0.734762	-0.622467
1.426191	-14.995536	-3.293424	0.269554	0.734762	-0.622467
-1.957585	-15.218750	-3.292796	-0.346637	0.734762	-0.583068
1.957585	-15.218750	-3.292796	0.346637	0.734762	-0.583068
-0.829867	-14.816964	-3.292565	-0.165782	0.734762	-0.657755
0.829867	-14.816964	-3.292565	0.165782	0.734762	-0.657755
-0.451263	-14.750000	-3.292217	-0.092117	0.734762	-0.672041
0.451263	-14.750000	-3.292217	0.092117	0.734762	-0.672041
-1.011102	-14.861608	-3.292123	-0.199151	0.734762	-0.648432
1.011102	-14.861608	-3.292123	0.199151	0.734762	-0.648432
-1.166438	-14.906250	-3.291692	-0.226566	0.734762	-0.639369
1.166438	-14.906250	-3.291692	0.226566	0.734762	-0.639369
-2.273337	-15.375000	-3.291191	-0.385515	0.734762	-0.558124
2.273337	-15.375000	-3.291191	0.385515	0.734762	-0.558124
-1.492045	-15.017858	-3.290684	-0.280114	0.734762	-0.617787
1.492045	-15.017858	-3.290684	0.280114	0.734762	-0.617787
-2.231663	-15.352678	-3.290416	-0.380750	0.734762	-0.561386
2.231663	-15.352678	-3.290416	0.380750	0.734762	-0.561386
-2.190167	-15.330358	-3.289171	-0.375956	0.734762	-0.564608
2.190167	-15.330358	-3.289171	0.375956	0.734762	-0.564608
-0.740200	-14.794642	-3.289096	-0.148930	0.734762	-0.661774
0.740200	-14.794642	-3.289096	0.148930	0.734762	-0.661774
-1.663470	-15.084822	-3.288935	-0.306151	0.734762	-0.605307
1.663470	-15.084822	-3.288935	0.306151	0.734762	-0.605307
-0.623279	-14.772322	-3.288636	-0.126311	0.734762	-0.666461
0.623279	-14.772322	-3.288636	0.126311	0.734762	-0.666461
-1.917302	-15.196428	-3.288456	-0.341660	0.734762	-0.585998
1.917302	-15.196428	-3.288456	0.341660	0.734762	-0.585998
-0.479276	-14.750000	-3.288255	-0.097835	0.734762	-0.671233
0.479276	-14.750000	-3.288255	0.097835	0.734762	-0.671233
-1.102535	-14.883928	-3.288151	-0.215646	0.734762	-0.643134
1.102535	-14.883928	-3.288151	0.215646	0.734762	-0.643134
-1.769842	-15.129464	-3.287960	-0.321510	0.734762	-0.597291
1.769842	-15.129464	-3.287960	0.321510	0.734762	-0.597291
-2.148856	-15.308036	-3.287460	-0.371136	0.734762	-0.567788
2.148856	-15.308036	-3.287460	0.371136	0.734762	-0.567788
-1.558216	-15.040178	-3.286650	-0.290592	0.734762	-0.612928
1.558216	-15.040178	-3.286650	0.290592	0.734762	-0.612928
-0.948197	-14.839286	-3.285630	-0.188082	0.734762	-0.651729
0.948197	-14.839286	-3.285630	0.188082	0.734762	-0.651729
-0.857869	-14.816964	-3.285380	-0.171376	0.734762	-0.656319
0.857869	-14.816964	-3.285380	0.171376	0.734762	-0.656319
-2.107733	-15.285714	-3.285285	-0.366289	0.734762	-0.570927
2.107733	-15.285714	-3.285285	0.366289	0.734762	-0.570927
-0.507254	-14.750000	-3.284056	-0.103546	0.734762	-0.670375
0.507254	-14.750000	-3.284056	0.103546	0.734762	-0.670375
-1.323539	-14.950892	-3.283922	-0.253570	0.734762	-0.629148
1.323539	-14.950892	-3.283922	0.253570	0.734762	-0.629148
-1.877235	-15.174108	-3.283669	-0.336659	0.734762	-0.588885
1.877235	-15.174108	-3.283669	0.336659	0.734762	-0.588885
-1.258778	-14.928572	-3.283405	-0.242820	0.734762	-0.633375
1.258778	-14.928572	-3.283405	0.242820	0.734762	-0.633375
-1.039093	-14.861608	-3.283395	-0.204665	0.734762	-0.646713
1.039093	-14.861608	-3.283395	0.204665	0.734762	-0.646713
-0.651255	-14.772322	-3.283211	-0.131981	0.734762	-0.665362
0.651255	-14.772322	-3.283211	0.131981	0.734762	-0.665362
-1.388681	-14.973214	-3.283179	-0.264245	0.734762	-0.624740
1.388681	-14.973214	-3.283179	0.264245	0.734762	-0.624740
-0.768176	-14.794642	-3.282675	-0.154559	0.734762	-0.660482
0.768176	-14.794642	-3.282675	0.154559	0.734762	-0.660482
-2.066805	-15.263392	-3.282650	-0.361415	0.734762	-0.574025
2.066805	-15.263392	-3.282650	0.361415	0.734762	-0.574025
-1.194420	-14.906250	-3.281641	-0.232001	0.734762	-0.637417
1.194420	-14.906250	-3.281641	0.232001	0.734762	-0.637417
-1.730507	-15.107142	-3.281522	-0.316413	0.734762	-0.600007
1.730507	-15.107142	-3.281522	0.316413	0.734762	-0.600007
-1.624680	-15.062500	-3.281310	-0.300986	0.734762	-0.607892
1.624680	-15.062500	-3.281310	0.300986	0.734762	-0.607892
-1.454178	-14.995536	-3.281163	-0.274844	0.734762	-0.620150
1.454178	-14.995536	-3.281163	0.274844	0.734762	-0.620150
-0.535195	-14.750000	-3.279618	-0.109249	0.734762	-0.669470
0.535195	-14.750000	-3.279618	0.109249	0.734762	-0.669470
-2.026074	-15.241072	-3.279557	-0.356514	0.734762	-0.577081
2.026074	-15.241072	-3.279557	0.356514	0.734762	-0.577081
-1.130489	-14.883928	-3.278645	-0.221114	0.734762	-0.641275
1.130489	-14.883928	-3.278645	0.221114	0.734762	-0.641275
-1.837390	-15.151786	-3.278440	-0.331633	0.734762	-0.591730
1.837390	-15.151786	-3.278440	0.331633	0.734762	-0.591730
-0.885808	-14.816964	-3.277958	-0.176958	0.734762	-0.654837
0.885808	-14.816964	-3.277958	0.176958	0.734762	-0.654837
-1.520007	-15.017858	-3.277862	-0.285363	0.734762	-0.615380
1.520007	-15.017858	-3.277862	0.285363	0.734762	-0.615380
-0.679184	-14.772322	-3.277547	-0.137641	0.734762	-0.664214
0.679184	-14.772322	-3.277547	0.137641	0.734762	-0.664214
-0.976135	-14.839286	-3.277439	-0.193624	0.734762	-0.650104
0.976135	-14.839286	-3.277439	0.193624	0.734762	-0.650104
-0.796095	-14.794642	-3.276016	-0.160176	0.734762	-0.659142
0.796095	-14.794642	-3.276016	0.160176	0.734762	-0.659142
-1.985548	-15.218750	-3.276011	-0.351588	0.734762	-0.580095
1.985548	-15.218750	-3.276011	0.351588	0.734762	-0.580095
-0.563097	-14.750000	-3.274943	-0.114945	0.734762	-0.668515
0.563097	-14.750000	-3.274943	0.114945	0.734762	-0.668515
-1.691411	-15.084822	-3.274654	-0.311293	0.734762	-0.602679
1.691411	-15.084822	-3.274654	0.311293	0.734762	-0.602679
-1.067010	-14.861608	-3.274430	-0.210163	0.734762	-0.644947
1.067010	-14.861608	-3.274430	0.210163	0.734762	-0.644947
-1.586142	-15.040178	-3.273265	-0.295800	0.734762	-0.610432
1.586142	-15.040178	-3.273265	0.295800	0.734762	-0.610432
-1.797771	-15.129464	-3.272773	-0.326583	0.734762	-0.594532
1.797771	-15.129464	-3.272773	0.326583	0.734762	-0.594532
-1.286686	-14.928572	-3.272569	-0.248204	0.734762	-0.631284
1.286686	-14.928572	-3.272569	0.248204	0.734762	-0.631284
-1.351450	-14.950892	-3.272535	-0.258917	0.734762	-0.626967
1.351450	-14.950892	-3.272535	0.258917	0.734762	-0.626967
-1.945229	-15.196428	-3.272013	-0.346637	0.734762	-0.583068
1.945229	-15.196428	-3.272013	0.346637	0.734762	-0.583068
-2.301275	-15.375000	-3.271718	-0.390253	0.734762	-0.554822
2.301275	-15.375000	-3.271718	0.390253	0.734762	-0.554822
-0.707063	-14.772322	-3.271646	-0.143290	0.734762	-0.663018
0.707063	-14.772322	-3.271646	0.143290	0.734762	-0.663018
-1.222315	-14.906250	-3.271354	-0.237419	0.734762	-0.635419
1.222315	-14.906250	-3.271354	0.237419	0.734762	-0.635419
-2.259595	-15.352678	-3.271297	-0.385515	0.734762	-0.558124
2.259595	-15.352678	-3.271297	0.385515	0.734762	-0.558124
-1.416583	-14.973214	-3.271237	-0.269554	0.734762	-0.622467
1.416583	-14.973214	-3.271237	0.269554	0.734762	-0.622467
-2.218091	-15.330358	-3.270406	-0.380750	0.734762	-0.561386
2.218091	-15.330358	-3.270406	0.380750	0.734762	-0.561386
-0.913684	-14.816964	-3.270297	-0.182526	0.734762	-0.653306
0.913684	-14.816964	-3.270297	0.182526	0.734762	-0.653306
-0.590958	-14.750000	-3.270030	-0.120633	0.734762	-0.667512
0.590958	-14.750000	-3.270030	0.120633	0.734762	-0.667512
-0.823958	-14.794642	-3.269120	-0.165782	0.734762	-0.657755
0.823958	-14.794642	-3.269120	0.165782	0.734762	-0.657755
-2.176767	-15.308036	-3.269046	-0.375956	0.734762	-0.564608
2.176767	-15.308036	-3.269046	0.375956	0.734762	-0.564608
-1.004003	-14.839286	-3.269010	-0.199151	0.734762	-0.648432
1.004003	-14.839286	-3.269010	0.199151	0.734762	-0.648432
-1.158362	-14.883928	-3.268902	-0.226566	0.734762	-0.639369
1.158362	-14.883928	-3.268902	0.226566	0.734762	-0.639369
-1.482060	-14.995536	-3.268664	-0.280114	0.734762	-0.617787
1.482060	-14.995536	-3.268664	0.280114	0.734762	-0.617787
-1.905123	-15.174108	-3.267568	-0.341660	0.734762	-0.585998
1.905123	-15.174108	-3.267568	0.341660	0.734762	-0.585998
-1.652557	-15.062500	-3.267359	-0.306151	0.734762	-0.605307
1.652557	-15.062500	-3.267359	0.306151	0.734762	-0.605307
-2.135627	-15.285714	-3.267221	-0.371136	0.734762	-0.567788
2.135627	-15.285714	-3.267221	0.371136	0.734762	-0.567788
-1.758382	-15.107142	-3.266670	-0.321510	0.734762	-0.597291
1.758382	-15.107142	-3.266670	0.321510	0.734762	-0.597291
-0.734891	-14.772322	-3.265507	-0.148930	0.734762	-0.661774
0.734891	-14.772322	-3.265507	0.148930	0.734762	-0.661774
-1.094848	-14.861608	-3.265227	-0.215646	0.734762	-0.643134
1.094848	-14.861608	-3.265227	0.215646	0.734762	-0.643134
-2.094677	-15.263392	-3.264935	-0.366289	0.734762	-0.570927
2.094677	-15.263392	-3.264935	0.366289	0.734762	-0.570927
-0.618777	-14.750000	-3.264880	-0.126311	0.734762	-0.666461
0.618777	-14.750000	-3.264880	0.126311	0.734762	-0.666461
-1.547858	-15.017858	-3.264802	-0.290592	0.734762	-0.612928
1.547858	-15.017858	-3.264802	0.290592	0.734762	-0.612928
-1.865235	-15.151786	-3.262679	-0.336659	0.734762	-0.588885
1.865235	-15.151786	-3.262679	0.336659	0.734762	-0.588885
-0.941493	-14.816964	-3.262400	-0.188082	0.734762	-0.651729
0.941493	-14.816964	-3.262400	0.188082	0.734762	-0.651729
-2.053922	-15.241072	-3.262189	-0.361415	0.734762	-0.574025
2.053922	-15.241072	-3.262189	0.361415	0.734762	-0.574025
-0.851760	-14.794642	-3.261986	-0.171376	0.734762	-0.656319
0.851760	-14.794642	-3.261986	0.171376	0.734762	-0.656319
-1.314501	-14.928572	-3.261496	-0.253570	0.734762	-0.629148
1.314501	-14.928572	-3.261496	0.253570	0.734762	-0.629148
-1.379262	-14.950892	-3.260910	-0.264245	0.734762	-0.624740
1.379262	-14.950892	-3.260910	0.264245	0.734762	-0.624740
-1.250122	-14.906250	-3.260829	-0.242820	0.734762	-0.633375
1.250122	-14.906250	-3.260829	0.242820	0.734762	-0.633375
-1.031798	-14.839286	-3.260343	-0.204665	0.734762	-0.646713
1.031798	-14.839286	-3.260343	0.204665	0.734762	-0.646713
-1.719229	-15.084822	-3.260135	-0.316413	0.734762	-0.600007
1.719229	-15.084822	-3.260135	0.316413	0.734762	-0.600007
-1.613952	-15.040178	-3.259642	-0.300986	0.734762	-0.607892
1.613952	-15.040178	-3.259642	0.300986	0.734762	-0.607892
-0.646551	-14.750000	-3.259494	-0.131981	0.734762	-0.665362
0.646551	-14.750000	-3.259494	0.131981	0.734762	-0.665362
-0.762666	-14.772322	-3.259132	-0.154559	0.734762	-0.660482
0.762666	-14.772322	-3.259132	0.154559	0.734762	-0.660482
-1.444382	-14.973214	-3.259058	-0.274844	0.734762	-0.620150
1.444382	-14.973214	-3.259058	0.274844	0.734762	-0.620150
-2.013367	-15.218750	-3.258988	-0.356514	0.734762	-0.577081
2.013367	-15.218750	-3.258988	0.356514	0.734762	-0.577081
-1.186150	-14.883928	-3.258921	-0.232001	0.734762	-0.637417
1.186150	-14.883928	-3.258921	0.232001	0.734762	-0.637417
-1.825569	-15.129464	-3.257349	-0.331633	0.734762	-0.591730
1.825569	-15.129464	-3.257349	0.331633	0.734762	-0.591730
-1.509835	-14.995536	-3.255927	-0.285363	0.734762	-0.615380
1.509835	-14.995536	-3.255927	0.285363	0.734762	-0.615380
-1.122608	-14.861608	-3.255787	-0.221114	0.734762	-0.641275
1.122608	-14.861608	-3.255787	0.221114	0.734762	-0.641275
-1.973016	-15.196428	-3.255333	-0.351588	0.734762	-0.580095
1.973016	-15.196428	-3.255333	0.351588	0.734762	-0.580095
-0.879501	-14.794642	-3.254616	-0.176958	0.734762	-0.654837
0.879501	-14.794642	-3.254616	0.176958	0.734762	-0.654837
-0.969234	-14.816964	-3.254266	-0.193624	0.734762	-0.650104
0.969234	-14.816964	-3.254266	0.193624	0.734762	-0.650104
-0.674278	-14.750000	-3.253871	-0.137641	0.734762	-0.664214
0.674278	-14.750000	-3.253871	0.137641	0.734762	-0.664214
-1.680315	-15.062500	-3.253171	-0.311293	0.734762	-0.602679
1.680315	-15.062500	-3.253171	0.311293	0.734762	-0.602679
-0.790386	-14.772322	-3.252521	-0.160176	0.734762	-0.659142
0.790386	-14.772322	-3.252521	0.160176	0.734762	-0.659142
-2.329046	-15.375000	-3.252007	-0.394963	0.734762	-0.551479
2.329046	-15.375000	-3.252007	0.394963	0.734762	-0.551479
-2.287364	-15.352678	-3.251941	-0.390253	0.734762	-0.554822
2.287364	-15.352678	-3.251941	0.390253	0.734762	-0.554822
-1.786130	-15.107142	-3.251581	-0.326583	0.734762	-0.594532
1.786130	-15.107142	-3.251581	0.326583	0.734762	-0.594532
-1.575598	-15.017858	-3.251506	-0.295800	0.734762	-0.610432
1.575598	-15.017858	-3.251506	0.295800	0.734762	-0.610432
-1.059518	-14.839286	-3.251441	-0.210163	0.734762	-0.644947
1.059518	-14.839286	-3.251441	0.210163	0.734762	-0.644947
-2.245854	-15.330358	-3.251403	-0.385515	0.734762	-0.558124
2.245854	-15.330358	-3.251403	0.385515	0.734762	-0.558124
-1.932873	-15.174108	-3.251230	-0.346637	0.734762	-0.583068
1.932873	-15.174108	-3.251230	0.346637	0.734762	-0.583068
-2.204519	-15.308036	-3.250395	-0.380750	0.734762	-0.561386
2.204519	-15.308036	-3.250395	0.380750	0.734762	-0.561386
-1.342221	-14.928572	-3.250187	-0.258917	0.734762	-0.626967
1.342221	-14.928572	-3.250187	0.258917	0.734762	-0.626967
-1.277839	-14.906250	-3.250067	-0.248204	0.734762	-0.631284
1.277839	-14.906250	-3.250067	0.248204	0.734762	-0.631284
-1.406975	-14.950892	-3.249049	-0.269554	0.734762	-0.622467
1.406975	-14.950892	-3.249049	0.269554	0.734762	-0.622467
-2.163366	-15.285714	-3.248921	-0.375956	0.734762	-0.564608
2.163366	-15.285714	-3.248921	0.375956	0.734762	-0.564608
-1.213853	-14.883928	-3.248704	-0.237419	0.734762	-0.635419
1.213853	-14.883928	-3.248704	0.237419	0.734762	-0.635419
-0.701956	-14.750000	-3.248013	-0.143290	0.734762	-0.663018
0.701956	-14.750000	-3.248013	0.143290	0.734762	-0.663018
-0.907178	-14.794642	-3.247010	-0.182526	0.734762	-0.653306
0.907178	-14.794642	-3.247010	0.182526	0.734762	-0.653306
-2.122398	-15.263392	-3.246983	-0.371136	0.734762	-0.567788
2.122398	-15.263392	-3.246983	0.371136	0.734762	-0.567788
-1.892945	-15.151786	-3.246680	-0.341660	0.734762	-0.585998
1.892945	-15.151786	-3.246680	0.341660	0.734762	-0.585998
-1.472076	-14.973214	-3.246643	-0.280114	0.734762	-0.617787
1.472076	-14.973214	-3.246643	0.280114	0.734762	-0.617787
-1.150286	-14.861608	-3.246112	-0.226566	0.734762	-0.639369
1.150286	-14.861608	-3.246112	0.226566	0.734762	-0.639369
-0.996905	-14.816964	-3.245897	-0.199151	0.734762	-0.648432
0.996905	-14.816964	-3.245897	0.199151	0.734762	-0.648432
-1.641645	-15.040178	-3.245783	-0.306151	0.734762	-0.605307
1.641645	-15.040178	-3.245783	0.306151	0.734762	-0.605307
-0.818048	-14.772322	-3.245674	-0.165782	0.734762	-0.657755
0.818048	-14.772322	-3.245674	0.165782	0.734762	-0.657755
-1.746922	-15.084822	-3.245380	-0.321510	0.734762	-0.597291
1.746922	-15.084822	-3.245380	0.321510	0.734762	-0.597291
-2.081621	-15.241072	-3.244584	-0.366289	0.734762	-0.570927
2.081621	-15.241072	-3.244584	0.366289	0.734762	-0.570927
-1.537501	-14.995536	-3.242955	-0.290592	0.734762	-0.612928
1.537501	-14.995536	-3.242955	0.290592	0.734762	-0.612928
-1.087162	-14.839286	-3.242302	-0.215646	0.734762	-0.643134
1.087162	-14.839286	-3.242302	0.215646	0.734762	-0.643134
-0.729583	-14.750000	-3.241919	-0.148930	0.734762	-0.661774
0.729583	-14.750000	-3.241919	0.148930	0.734762	-0.661774
-2.041040	-15.218750	-3.241728	-0.361415	0.734762	-0.574025
2.041040	-15.218750	-3.241728	0.361415	0.734762	-0.574025
-1.853235	-15.129464	-3.241688	-0.336659	0.734762	-0.588885
1.853235	-15.129464	-3.241688	0.336659	0.734762	-0.588885
-0.934789	-14.794642	-3.239169	-0.188082	0.734762	-0.651729
0.934789	-14.794642	-3.239169	0.188082	0.734762	-0.651729
-1.305463	-14.906250	-3.239070	-0.253570	0.734762	-0.629148
1.305463	-14.906250	-3.239070	0.253570	0.734762	-0.629148
-1.707950	-15.062500	-3.238748	-0.316413	0.734762	-0.600007
1.707950	-15.062500	-3.238748	0.316413	0.734762	-0.600007
-1.369843	-14.928572	-3.238642	-0.264245	0.734762	-0.624740
1.369843	-14.928572	-3.238642	0.264245	0.734762	-0.624740
-0.845651	-14.772322	-3.238592	-0.171376	0.734762	-0.656319
0.845651	-14.772322	-3.238592	0.171376	0.734762	-0.656319
-2.000659	-15.196428	-3.238418	-0.356514	0.734762	-0.577081
2.000659	-15.196428	-3.238418	0.356514	0.734762	-0.577081
-1.241467	-14.883928	-3.238252	-0.242820	0.734762	-0.633375
1.241467	-14.883928	-3.238252	0.242820	0.734762	-0.633375
-1.603223	-15.017858	-3.237974	-0.300986	0.734762	-0.607892
1.603223	-15.017858	-3.237974	0.300986	0.734762	-0.607892
-1.024503	-14.816964	-3.237292	-0.204665	0.734762	-0.646713
1.024503	-14.816964	-3.237292	0.204665	0.734762	-0.646713
-1.434585	-14.950892	-3.236953	-0.274844	0.734762	-0.620150
1.434585	-14.950892	-3.236953	0.274844	0.734762	-0.620150
-1.813748	-15.107142	-3.236257	-0.331633	0.734762	-0.591730
1.813748	-15.107142	-3.236257	0.331633	0.734762	-0.591730
-1.177881	-14.861608	-3.236201	-0.232001	0.734762	-0.637417
1.177881	-14.861608	-3.236201	0.232001	0.734762	-0.637417
-0.757157	-14.750000	-3.235590	-0.154559	0.734762	-0.660482
0.757157	-14.750000	-3.235590	0.154559	0.734762	-0.660482
-1.960483	-15.174108	-3.234656	-0.351588	0.734762	-0.580095
1.960483	-15.174108	-3.234656	0.351588	0.734762	-0.580095
-1.499664	-14.973214	-3.233992	-0.285363	0.734762	-0.615380
1.499664	-14.973214	-3.233992	0.285363	0.734762	-0.615380
-1.114726	-14.839286	-3.232929	-0.221114	0.734762	-0.641275
1.114726	-14.839286	-3.232929	0.221114	0.734762	-0.641275
-2.314967	-15.352678	-3.232349	-0.394963	0.734762	-0.551479
2.314967	-15.352678	-3.232349	0.394963	0.734762	-0.551479
-2.273454	-15.330358	-3.232165	-0.390253	0.734762	-0.554822
2.273454	-15.330358	-3.232165	0.390253	0.734762	-0.554822
-2.356648	-15.375000	-3.232060	-0.399643	0.734762	-0.548097
2.356648	-15.375000	-3.232060	0.399643	0.734762	-0.548097
-1.669219	-15.040178	-3.231689	-0.311293	0.734762	-0.602679
1.669219	-15.040178	-3.231689	0.311293	0.734762	-0.602679
-2.232112	-15.308036	-3.231509	-0.385515	0.734762	-0.558124
2.232112	-15.308036	-3.231509	0.385515	0.734762	-0.558124
-0.873193	-14.772322	-3.231275	-0.176958	0.734762	-0.654837
0.873193	-14.772322	-3.231275	0.176958	0.734762	-0.654837
-0.962332	-14.794642	-3.231094	-0.193624	0.734762	-0.650104
0.962332	-14.794642	-3.231094	0.193624	0.734762	-0.650104
-1.920518	-15.151786	-3.230447	-0.346637	0.734762	-0.583068
1.920518	-15.151786	-3.230447	0.346637	0.734762	-0.583068
-1.774489	-15.084822	-3.230389	-0.326583	0.734762	-0.594532
1.774489	-15.084822	-3.230389	0.326583	0.734762	-0.594532
-2.190948	-15.285714	-3.230385	-0.380750	0.734762	-0.561386
2.190948	-15.285714	-3.230385	0.380750	0.734762	-0.561386
-1.565054	-14.995536	-3.229748	-0.295800	0.734762	-0.610432
1.565054	-14.995536	-3.229748	0.295800	0.734762	-0.610432
-0.784677	-14.750000	-3.229026	-0.160176	0.734762	-0.659142
0.784677	-14.750000	-3.229026	0.160176	0.734762	-0.659142
-2.149965	-15.263392	-3.228796	-0.375956	0.734762	-0.564608
2.149965	-15.263392	-3.228796	0.375956	0.734762	-0.564608
-1.052027	-14.816964	-3.228452	-0.210163	0.734762	-0.644947
1.052027	-14.816964	-3.228452	0.210163	0.734762	-0.644947
-1.332992	-14.906250	-3.227839	-0.258917	0.734762	-0.626967
1.332992	-14.906250	-3.227839	0.258917	0.734762	-0.626967
-1.268992	-14.883928	-3.227566	-0.248204	0.734762	-0.631284
1.268992	-14.883928	-3.227566	0.248204	0.734762	-0.631284
-1.397366	-14.928572	-3.226862	-0.269554	0.734762	-0.622467
1.397366	-14.928572	-3.226862	0.269554	0.734762	-0.622467
-2.109169	-15.241072	-3.226744	-0.371136	0.734762	-0.567788
2.109169	-15.241072	-3.226744	0.371136	0.734762	-0.567788
