1.844232	-18.187500	-3.163130	0.341660	-0.734762	-0.585998
-1.305305	-18.410715	-3.160795	-0.258917	-0.734762	-0.626967
1.305305	-18.410715	-3.160795	0.258917	-0.734762	-0.626967
-1.368542	-18.388393	-3.160299	-0.269554	-0.734762	-0.622467
1.368542	-18.388393	-3.160299	0.269554	-0.734762	-0.622467
-1.701082	-18.254465	-3.160219	-0.321510	-0.734762	-0.597291
1.701082	-18.254465	-3.160219	0.321510	-0.734762	-0.597291
-1.242450	-18.433035	-3.160060	-0.248204	-0.734762	-0.631284
1.242450	-18.433035	-3.160060	0.248204	-0.734762	-0.631284
-1.989510	-18.120535	-3.159885	-0.361415	-0.734762	-0.574025
1.989510	-18.120535	-3.159885	0.361415	-0.734762	-0.574025
-1.029554	-18.500000	-3.159485	-0.210163	-0.734762	-0.644947
1.029554	-18.500000	-3.159485	0.210163	-0.734762	-0.644947
-1.597994	-18.299107	-3.159480	-0.306151	-0.734762	-0.605307
1.597994	-18.299107	-3.159480	0.306151	-0.734762	-0.605307
-1.432138	-18.366072	-3.158560	-0.280114	-0.734762	-0.617787
1.432138	-18.366072	-3.158560	0.280114	-0.734762	-0.617787
-1.180002	-18.455357	-3.158108	-0.237419	-0.734762	-0.635419
1.180002	-18.455357	-3.158108	0.237419	-0.734762	-0.635419
-1.805235	-18.209822	-3.157726	-0.336659	-0.734762	-0.588885
1.805235	-18.209822	-3.157726	0.336659	-0.734762	-0.588885
-1.949828	-18.142857	-3.156139	-0.356514	-0.734762	-0.577081
1.949828	-18.142857	-3.156139	0.356514	-0.734762	-0.577081
-1.496068	-18.343750	-3.155565	-0.290592	-0.734762	-0.612928
1.496068	-18.343750	-3.155565	0.290592	-0.734762	-0.612928
-1.117983	-18.477678	-3.154952	-0.226566	-0.734762	-0.639369
1.117983	-18.477678	-3.154952	0.226566	-0.734762	-0.639369
-2.299667	-17.964285	-3.153913	-0.399643	-0.734762	-0.548097
2.299667	-17.964285	-3.153913	0.399643	-0.734762	-0.548097
-2.258654	-17.986607	-3.153720	-0.394963	-0.734762	-0.551479
2.258654	-17.986607	-3.153720	0.394963	-0.734762	-0.551479
-2.340847	-17.941965	-3.153635	-0.404295	-0.734762	-0.544675
2.340847	-17.941965	-3.153635	0.404295	-0.734762	-0.544675
-1.662837	-18.276785	-3.153200	-0.316413	-0.734762	-0.600007
1.662837	-18.276785	-3.153200	0.316413	-0.734762	-0.600007
-2.217812	-18.008928	-3.153059	-0.390253	-0.734762	-0.554822
2.217812	-18.008928	-3.153059	0.390253	-0.734762	-0.554822
-2.382186	-17.919643	-3.152883	-0.408918	-0.734762	-0.541213
2.382186	-17.919643	-3.152883	0.408918	-0.734762	-0.541213
-1.910355	-18.165178	-3.151947	-0.351588	-0.734762	-0.580095
1.910355	-18.165178	-3.151947	0.351588	-0.734762	-0.580095
-2.177146	-18.031250	-3.151933	-0.385515	-0.734762	-0.558124
2.177146	-18.031250	-3.151933	0.385515	-0.734762	-0.558124
-1.766465	-18.232143	-3.151889	-0.331633	-0.734762	-0.591730
1.766465	-18.232143	-3.151889	0.331633	-0.734762	-0.591730
-2.423682	-17.897322	-3.151654	-0.413511	-0.734762	-0.537712
2.423682	-17.897322	-3.151654	0.413511	-0.734762	-0.537712
-1.560309	-18.321428	-3.151302	-0.300986	-0.734762	-0.607892
1.560309	-18.321428	-3.151302	0.300986	-0.734762	-0.607892
-1.056415	-18.500000	-3.150606	-0.215646	-0.734762	-0.643134
1.056415	-18.500000	-3.150606	0.215646	-0.734762	-0.643134
-2.136661	-18.053572	-3.150344	-0.380750	-0.734762	-0.561386
2.136661	-18.053572	-3.150344	0.380750	-0.734762	-0.561386
-2.465329	-17.875000	-3.149945	-0.418074	-0.734762	-0.534172
2.465329	-17.875000	-3.149945	0.418074	-0.734762	-0.534172
-1.332168	-18.410715	-3.149567	-0.264245	-0.734762	-0.624740
1.332168	-18.410715	-3.149567	0.264245	-0.734762	-0.624740
-1.269309	-18.433035	-3.149368	-0.253570	-0.734762	-0.629148
1.269309	-18.433035	-3.149368	0.253570	-0.734762	-0.629148
-1.395398	-18.388393	-3.148533	-0.274844	-0.734762	-0.620150
1.395398	-18.388393	-3.148533	0.274844	-0.734762	-0.620150
-2.096362	-18.075893	-3.148295	-0.375956	-0.734762	-0.564608
2.096362	-18.075893	-3.148295	0.375956	-0.734762	-0.564608
-1.206846	-18.455357	-3.147947	-0.242820	-0.734762	-0.633375
1.206846	-18.455357	-3.147947	0.242820	-0.734762	-0.633375
-1.871095	-18.187500	-3.147314	-0.346637	-0.734762	-0.583068
1.871095	-18.187500	-3.147314	0.346637	-0.734762	-0.583068
-1.458977	-18.366072	-3.146253	-0.285363	-0.734762	-0.615380
1.458977	-18.366072	-3.146253	0.285363	-0.734762	-0.615380
-2.056253	-18.098215	-3.145790	-0.371136	-0.734762	-0.567788
2.056253	-18.098215	-3.145790	0.371136	-0.734762	-0.567788
-1.624835	-18.299107	-3.145761	-0.311293	-0.734762	-0.602679
1.624835	-18.299107	-3.145761	0.311293	-0.734762	-0.602679
-1.727926	-18.254465	-3.145622	-0.326583	-0.734762	-0.594532
1.727926	-18.254465	-3.145622	0.326583	-0.734762	-0.594532
-1.144802	-18.477678	-3.145319	-0.232001	-0.734762	-0.637417
1.144802	-18.477678	-3.145319	0.232001	-0.734762	-0.637417
-2.016340	-18.120535	-3.142832	-0.366289	-0.734762	-0.570927
2.016340	-18.120535	-3.142832	0.366289	-0.734762	-0.570927
-1.522880	-18.343750	-3.142713	-0.295800	-0.734762	-0.610432
1.522880	-18.343750	-3.142713	0.295800	-0.734762	-0.610432
-1.832054	-18.209822	-3.142242	-0.341660	-0.734762	-0.585998
1.832054	-18.209822	-3.142242	0.341660	-0.734762	-0.585998
-1.083200	-18.500000	-3.141497	-0.221114	-0.734762	-0.641275
1.083200	-18.500000	-3.141497	0.221114	-0.734762	-0.641275
-1.976628	-18.142857	-3.139424	-0.361415	-0.734762	-0.574025
1.976628	-18.142857	-3.139424	0.361415	-0.734762	-0.574025
-1.689622	-18.276785	-3.138929	-0.321510	-0.734762	-0.597291
1.689622	-18.276785	-3.138929	0.321510	-0.734762	-0.597291
-1.296076	-18.433035	-3.138447	-0.258917	-0.734762	-0.626967
1.296076	-18.433035	-3.138447	0.258917	-0.734762	-0.626967
-1.358934	-18.410715	-3.138112	-0.269554	-0.734762	-0.622467
1.358934	-18.410715	-3.138112	0.269554	-0.734762	-0.622467
-1.587082	-18.321428	-3.137904	-0.306151	-0.734762	-0.605307
1.587082	-18.321428	-3.137904	0.306151	-0.734762	-0.605307
-1.233603	-18.455357	-3.137558	-0.248204	-0.734762	-0.631284
1.233603	-18.455357	-3.137558	0.248204	-0.734762	-0.631284
-1.793235	-18.232143	-3.136735	-0.336659	-0.734762	-0.588885
1.793235	-18.232143	-3.136735	0.336659	-0.734762	-0.588885
-1.422153	-18.388393	-3.136539	-0.280114	-0.734762	-0.617787
1.422153	-18.388393	-3.136539	0.280114	-0.734762	-0.617787
-1.937120	-18.165178	-3.135569	-0.356514	-0.734762	-0.577081
1.937120	-18.165178	-3.135569	0.356514	-0.734762	-0.577081
-1.171539	-18.477678	-3.135458	-0.237419	-0.734762	-0.635419
1.171539	-18.477678	-3.135458	0.237419	-0.734762	-0.635419
-2.285422	-17.986607	-3.134377	-0.399643	-0.734762	-0.548097
2.285422	-17.986607	-3.134377	0.399643	-0.734762	-0.548097
-2.326436	-17.964285	-3.134220	-0.404295	-0.734762	-0.544675
2.326436	-17.964285	-3.134220	0.404295	-0.734762	-0.544675
-2.244576	-18.008928	-3.134063	-0.394963	-0.734762	-0.551479
2.244576	-18.008928	-3.134063	0.394963	-0.734762	-0.551479
-1.485710	-18.366072	-3.133717	-0.290592	-0.734762	-0.612928
1.485710	-18.366072	-3.133717	0.290592	-0.734762	-0.612928
-2.367611	-17.941965	-3.133591	-0.408918	-0.734762	-0.541213
2.367611	-17.941965	-3.133591	0.408918	-0.734762	-0.541213
-2.203902	-18.031250	-3.133283	-0.390253	-0.734762	-0.554822
2.203902	-18.031250	-3.133283	0.390253	-0.734762	-0.554822
-2.408943	-17.919643	-3.132487	-0.413511	-0.734762	-0.537712
2.408943	-17.919643	-3.132487	0.413511	-0.734762	-0.537712
-1.109907	-18.500000	-3.132162	-0.226566	-0.734762	-0.639369
1.109907	-18.500000	-3.132162	0.226566	-0.734762	-0.639369
-2.163405	-18.053572	-3.132039	-0.385515	-0.734762	-0.558124
2.163405	-18.053572	-3.132039	0.385515	-0.734762	-0.558124
-1.651559	-18.299107	-3.131813	-0.316413	-0.734762	-0.600007
1.651559	-18.299107	-3.131813	0.316413	-0.734762	-0.600007
-1.897822	-18.187500	-3.131270	-0.351588	-0.734762	-0.580095
1.897822	-18.187500	-3.131270	0.351588	-0.734762	-0.580095
-2.450427	-17.897322	-3.130905	-0.418074	-0.734762	-0.534172
2.450427	-17.897322	-3.130905	0.418074	-0.734762	-0.534172
-1.754644	-18.254465	-3.130797	-0.331633	-0.734762	-0.591730
1.754644	-18.254465	-3.130797	0.331633	-0.734762	-0.591730
-2.123090	-18.075893	-3.130333	-0.380750	-0.734762	-0.561386
2.123090	-18.075893	-3.130333	0.380750	-0.734762	-0.561386
-1.549581	-18.343750	-3.129634	-0.300986	-0.734762	-0.607892
1.549581	-18.343750	-3.129634	0.300986	-0.734762	-0.607892
-2.492057	-17.875000	-3.128842	-0.422606	-0.734762	-0.530593
2.492057	-17.875000	-3.128842	0.422606	-0.734762	-0.530593
-2.082961	-18.098215	-3.128170	-0.375956	-0.734762	-0.564608
2.082961	-18.098215	-3.128170	0.375956	-0.734762	-0.564608
-1.322749	-18.433035	-3.127299	-0.264245	-0.734762	-0.624740
1.322749	-18.433035	-3.127299	0.264245	-0.734762	-0.624740
-1.260271	-18.455357	-3.126942	-0.253570	-0.734762	-0.629148
1.260271	-18.455357	-3.126942	0.253570	-0.734762	-0.629148
-1.858739	-18.209822	-3.126531	-0.346637	-0.734762	-0.583068
1.858739	-18.209822	-3.126531	0.346637	-0.734762	-0.583068
-1.385602	-18.410715	-3.126428	-0.274844	-0.734762	-0.620150
1.385602	-18.410715	-3.126428	0.274844	-0.734762	-0.620150
-2.043024	-18.120535	-3.125552	-0.371136	-0.734762	-0.567788
2.043024	-18.120535	-3.125552	0.371136	-0.734762	-0.567788
-1.198191	-18.477678	-3.125371	-0.242820	-0.734762	-0.633375
1.198191	-18.477678	-3.125371	0.242820	-0.734762	-0.633375
-1.716285	-18.276785	-3.124430	-0.326583	-0.734762	-0.594532
1.716285	-18.276785	-3.124430	0.326583	-0.734762	-0.594532
-1.448805	-18.388393	-3.124318	-0.285363	-0.734762	-0.615380
1.448805	-18.388393	-3.124318	0.285363	-0.734762	-0.615380
-1.613739	-18.321428	-3.124278	-0.311293	-0.734762	-0.602679
1.613739	-18.321428	-3.124278	0.311293	-0.734762	-0.602679
-1.136533	-18.500000	-3.122599	-0.232001	-0.734762	-0.637417
1.136533	-18.500000	-3.122599	0.232001	-0.734762	-0.637417
-2.003284	-18.142857	-3.122482	-0.366289	-0.734762	-0.570927
2.003284	-18.142857	-3.122482	0.366289	-0.734762	-0.570927
-1.819875	-18.232143	-3.121355	-0.341660	-0.734762	-0.585998
1.819875	-18.232143	-3.121355	0.341660	-0.734762	-0.585998
-1.512336	-18.366072	-3.120955	-0.295800	-0.734762	-0.610432
1.512336	-18.366072	-3.120955	0.295800	-0.734762	-0.610432
-1.963745	-18.165178	-3.118963	-0.361415	-0.734762	-0.574025
1.963745	-18.165178	-3.118963	0.361415	-0.734762	-0.574025
-1.678162	-18.299107	-3.117639	-0.321510	-0.734762	-0.597291
1.678162	-18.299107	-3.117639	0.321510	-0.734762	-0.597291
-1.576169	-18.343750	-3.116328	-0.306151	-0.734762	-0.605307
1.576169	-18.343750	-3.116328	0.306151	-0.734762	-0.605307
-1.286847	-18.455357	-3.116099	-0.258917	-0.734762	-0.626967
1.286847	-18.455357	-3.116099	0.258917	-0.734762	-0.626967
-1.349326	-18.433035	-3.115924	-0.269554	-0.734762	-0.622467
1.349326	-18.433035	-3.115924	0.269554	-0.734762	-0.622467
-1.781235	-18.254465	-3.115745	-0.336659	-0.734762	-0.588885
1.781235	-18.254465	-3.115745	0.336659	-0.734762	-0.588885
-1.224756	-18.477678	-3.115057	-0.248204	-0.734762	-0.631284
1.224756	-18.477678	-3.115057	0.248204	-0.734762	-0.631284
-1.924412	-18.187500	-3.114999	-0.356514	-0.734762	-0.577081
1.924412	-18.187500	-3.114999	0.356514	-0.734762	-0.577081
-2.271177	-18.008928	-3.114840	-0.399643	-0.734762	-0.548097
2.271177	-18.008928	-3.114840	0.399643	-0.734762	-0.548097
-2.312025	-17.986607	-3.114806	-0.404295	-0.734762	-0.544675
2.312025	-17.986607	-3.114806	0.404295	-0.734762	-0.544675
-1.412169	-18.410715	-3.114518	-0.280114	-0.734762	-0.617787
1.412169	-18.410715	-3.114518	0.280114	-0.734762	-0.617787
-2.230498	-18.031250	-3.114406	-0.394963	-0.734762	-0.551479
2.230498	-18.031250	-3.114406	0.394963	-0.734762	-0.551479
-2.353035	-17.964285	-3.114300	-0.408918	-0.734762	-0.541213
2.353035	-17.964285	-3.114300	0.408918	-0.734762	-0.541213
-2.189991	-18.053572	-3.113507	-0.390253	-0.734762	-0.554822
2.189991	-18.053572	-3.113507	0.390253	-0.734762	-0.554822
-2.394203	-17.941965	-3.113321	-0.413511	-0.734762	-0.537712
2.394203	-17.941965	-3.113321	0.413511	-0.734762	-0.537712
-1.163077	-18.500000	-3.112809	-0.237419	-0.734762	-0.635419
1.163077	-18.500000	-3.112809	0.237419	-0.734762	-0.635419
-2.149663	-18.075893	-3.112144	-0.385515	-0.734762	-0.558124
2.149663	-18.075893	-3.112144	0.385515	-0.734762	-0.558124
-1.475352	-18.388393	-3.111870	-0.290592	-0.734762	-0.612928
1.475352	-18.388393	-3.111870	0.290592	-0.734762	-0.612928
-2.435524	-17.919643	-3.111865	-0.418074	-0.734762	-0.534172
2.435524	-17.919643	-3.111865	0.418074	-0.734762	-0.534172
-1.885290	-18.209822	-3.110593	-0.351588	-0.734762	-0.580095
1.885290	-18.209822	-3.110593	0.351588	-0.734762	-0.580095
-1.640280	-18.321428	-3.110426	-0.316413	-0.734762	-0.600007
1.640280	-18.321428	-3.110426	0.316413	-0.734762	-0.600007
-2.109518	-18.098215	-3.110323	-0.380750	-0.734762	-0.561386
2.109518	-18.098215	-3.110323	0.380750	-0.734762	-0.561386
-2.476993	-17.897322	-3.109929	-0.422606	-0.734762	-0.530593
2.476993	-17.897322	-3.109929	0.422606	-0.734762	-0.530593
-1.742823	-18.276785	-3.109705	-0.331633	-0.734762	-0.591730
1.742823	-18.276785	-3.109705	0.331633	-0.734762	-0.591730
-2.069560	-18.120535	-3.108045	-0.375956	-0.734762	-0.564608
2.069560	-18.120535	-3.108045	0.375956	-0.734762	-0.564608
-1.538852	-18.366072	-3.107966	-0.300986	-0.734762	-0.607892
1.538852	-18.366072	-3.107966	0.300986	-0.734762	-0.607892
-2.518605	-17.875000	-3.107512	-0.427108	-0.734762	-0.526976
2.518605	-17.875000	-3.107512	0.427108	-0.734762	-0.526976
-1.846383	-18.232143	-3.105748	-0.346637	-0.734762	-0.583068
1.846383	-18.232143	-3.105748	0.346637	-0.734762	-0.583068
-2.029795	-18.142857	-3.105313	-0.371136	-0.734762	-0.567788
2.029795	-18.142857	-3.105313	0.371136	-0.734762	-0.567788
-1.313330	-18.455357	-3.105030	-0.264245	-0.734762	-0.624740
1.313330	-18.455357	-3.105030	0.264245	-0.734762	-0.624740
-1.251233	-18.477678	-3.104516	-0.253570	-0.734762	-0.629148
1.251233	-18.477678	-3.104516	0.253570	-0.734762	-0.629148
-1.375805	-18.433035	-3.104323	-0.274844	-0.734762	-0.620150
1.375805	-18.433035	-3.104323	0.274844	-0.734762	-0.620150
-1.704644	-18.299107	-3.103238	-0.326583	-0.734762	-0.594532
1.704644	-18.299107	-3.103238	0.326583	-0.734762	-0.594532
-1.602644	-18.343750	-3.102796	-0.311293	-0.734762	-0.602679
1.602644	-18.343750	-3.102796	0.311293	-0.734762	-0.602679
-1.189536	-18.500000	-3.102794	-0.242820	-0.734762	-0.633375
1.189536	-18.500000	-3.102794	0.242820	-0.734762	-0.633375
-1.438634	-18.410715	-3.102383	-0.285363	-0.734762	-0.615380
1.438634	-18.410715	-3.102383	0.285363	-0.734762	-0.615380
-1.990228	-18.165178	-3.102131	-0.366289	-0.734762	-0.570927
1.990228	-18.165178	-3.102131	0.366289	-0.734762	-0.570927
-1.807697	-18.254465	-3.100467	-0.341660	-0.734762	-0.585998
1.807697	-18.254465	-3.100467	0.341660	-0.734762	-0.585998
-1.501792	-18.388393	-3.099196	-0.295800	-0.734762	-0.610432
1.501792	-18.388393	-3.099196	0.295800	-0.734762	-0.610432
-1.950863	-18.187500	-3.098502	-0.361415	-0.734762	-0.574025
1.950863	-18.187500	-3.098502	0.361415	-0.734762	-0.574025
-1.666702	-18.321428	-3.096349	-0.321510	-0.734762	-0.597291
1.666702	-18.321428	-3.096349	0.321510	-0.734762	-0.597291
-2.297614	-18.008928	-3.095391	-0.404295	-0.734762	-0.544675
2.297614	-18.008928	-3.095391	0.404295	-0.734762	-0.544675
-2.256932	-18.031250	-3.095303	-0.399643	-0.734762	-0.548097
2.256932	-18.031250	-3.095303	0.399643	-0.734762	-0.548097
-2.338459	-17.986607	-3.095009	-0.408918	-0.734762	-0.541213
2.338459	-17.986607	-3.095009	0.408918	-0.734762	-0.541213
-1.769235	-18.276785	-3.094754	-0.336659	-0.734762	-0.588885
1.769235	-18.276785	-3.094754	0.336659	-0.734762	-0.588885
-1.565257	-18.366072	-3.094752	-0.306151	-0.734762	-0.605307
1.565257	-18.366072	-3.094752	0.306151	-0.734762	-0.605307
-2.216420	-18.053572	-3.094749	-0.394963	-0.734762	-0.551479
2.216420	-18.053572	-3.094749	0.394963	-0.734762	-0.551479
-1.911705	-18.209822	-3.094429	-0.356514	-0.734762	-0.577081
1.911705	-18.209822	-3.094429	0.356514	-0.734762	-0.577081
-2.379464	-17.964285	-3.094154	-0.413511	-0.734762	-0.537712
2.379464	-17.964285	-3.094154	0.413511	-0.734762	-0.537712
-1.277618	-18.477678	-3.093751	-0.258917	-0.734762	-0.626967
1.277618	-18.477678	-3.093751	0.258917	-0.734762	-0.626967
-1.339718	-18.455357	-3.093737	-0.269554	-0.734762	-0.622467
1.339718	-18.455357	-3.093737	0.269554	-0.734762	-0.622467
-2.176081	-18.075893	-3.093730	-0.390253	-0.734762	-0.554822
2.176081	-18.075893	-3.093730	0.390253	-0.734762	-0.554822
-2.420623	-17.941965	-3.092824	-0.418074	-0.734762	-0.534172
2.420623	-17.941965	-3.092824	0.418074	-0.734762	-0.534172
-1.215909	-18.500000	-3.092555	-0.248204	-0.734762	-0.631284
1.215909	-18.500000	-3.092555	0.248204	-0.734762	-0.631284
-1.402184	-18.433035	-3.092498	-0.280114	-0.734762	-0.617787
1.402184	-18.433035	-3.092498	0.280114	-0.734762	-0.617787
-2.135922	-18.098215	-3.092251	-0.385515	-0.734762	-0.558124
2.135922	-18.098215	-3.092251	0.385515	-0.734762	-0.558124
-2.461930	-17.919643	-3.091017	-0.422606	-0.734762	-0.530593
2.461930	-17.919643	-3.091017	0.422606	-0.734762	-0.530593
-2.095946	-18.120535	-3.090313	-0.380750	-0.734762	-0.561386
2.095946	-18.120535	-3.090313	0.380750	-0.734762	-0.561386
-1.464994	-18.410715	-3.090022	-0.290592	-0.734762	-0.612928
1.464994	-18.410715	-3.090022	0.290592	-0.734762	-0.612928
-1.872758	-18.232143	-3.089916	-0.351588	-0.734762	-0.580095
1.872758	-18.232143	-3.089916	0.351588	-0.734762	-0.580095
-1.629002	-18.343750	-3.089039	-0.316413	-0.734762	-0.600007
1.629002	-18.343750	-3.089039	0.316413	-0.734762	-0.600007
-2.503381	-17.897322	-3.088728	-0.427108	-0.734762	-0.526976
2.503381	-17.897322	-3.088728	0.427108	-0.734762	-0.526976
-1.731002	-18.299107	-3.088613	-0.331633	-0.734762	-0.591730
1.731002	-18.299107	-3.088613	0.331633	-0.734762	-0.591730
-2.056159	-18.142857	-3.087920	-0.375956	-0.734762	-0.564608
2.056159	-18.142857	-3.087920	0.375956	-0.734762	-0.564608
-1.528124	-18.388393	-3.086298	-0.300986	-0.734762	-0.607892
1.528124	-18.388393	-3.086298	0.300986	-0.734762	-0.607892
-2.544970	-17.875000	-3.085957	-0.431579	-0.734762	-0.523321
2.544970	-17.875000	-3.085957	0.431579	-0.734762	-0.523321
-2.016566	-18.165178	-3.085075	-0.371136	-0.734762	-0.567788
2.016566	-18.165178	-3.085075	0.371136	-0.734762	-0.567788
-1.834028	-18.254465	-3.084965	-0.346637	-0.734762	-0.583068
1.834028	-18.254465	-3.084965	0.346637	-0.734762	-0.583068
-1.303911	-18.477678	-3.082762	-0.264245	-0.734762	-0.624740
1.303911	-18.477678	-3.082762	0.264245	-0.734762	-0.624740
-1.366008	-18.455357	-3.082218	-0.274844	-0.734762	-0.620150
1.366008	-18.455357	-3.082218	0.274844	-0.734762	-0.620150
-1.242194	-18.500000	-3.082091	-0.253570	-0.734762	-0.629148
1.242194	-18.500000	-3.082091	0.253570	-0.734762	-0.629148
-1.693003	-18.321428	-3.082047	-0.326583	-0.734762	-0.594532
1.693003	-18.321428	-3.082047	0.326583	-0.734762	-0.594532
-1.977172	-18.187500	-3.081781	-0.366289	-0.734762	-0.570927
1.977172	-18.187500	-3.081781	0.366289	-0.734762	-0.570927
-1.591548	-18.366072	-3.081314	-0.311293	-0.734762	-0.602679
1.591548	-18.366072	-3.081314	0.311293	-0.734762	-0.602679
-1.428462	-18.433035	-3.080448	-0.285363	-0.734762	-0.615380
1.428462	-18.433035	-3.080448	0.285363	-0.734762	-0.615380
-1.795519	-18.276785	-3.079580	-0.341660	-0.734762	-0.585998
1.795519	-18.276785	-3.079580	0.341660	-0.734762	-0.585998
-1.937980	-18.209822	-3.078042	-0.361415	-0.734762	-0.574025
1.937980	-18.209822	-3.078042	0.361415	-0.734762	-0.574025
-1.491249	-18.410715	-3.077438	-0.295800	-0.734762	-0.610432
1.491249	-18.410715	-3.077438	0.295800	-0.734762	-0.610432
-2.283203	-18.031250	-3.075976	-0.404295	-0.734762	-0.544675
2.283203	-18.031250	-3.075976	0.404295	-0.734762	-0.544675
-2.242687	-18.053572	-3.075767	-0.399643	-0.734762	-0.548097
2.242687	-18.053572	-3.075767	0.399643	-0.734762	-0.548097
-2.323884	-18.008928	-3.075718	-0.408918	-0.734762	-0.541213
2.323884	-18.008928	-3.075718	0.408918	-0.734762	-0.541213
-2.202341	-18.075893	-3.075092	-0.394963	-0.734762	-0.551479
2.202341	-18.075893	-3.075092	0.394963	-0.734762	-0.551479
-1.655242	-18.343750	-3.075058	-0.321510	-0.734762	-0.597291
1.655242	-18.343750	-3.075058	0.321510	-0.734762	-0.597291
-2.364725	-17.986607	-3.074988	-0.413511	-0.734762	-0.537712
2.364725	-17.986607	-3.074988	0.413511	-0.734762	-0.537712
-2.162171	-18.098215	-3.073954	-0.390253	-0.734762	-0.554822
2.162171	-18.098215	-3.073954	0.390253	-0.734762	-0.554822
-1.898997	-18.232143	-3.073860	-0.356514	-0.734762	-0.577081
1.898997	-18.232143	-3.073860	0.356514	-0.734762	-0.577081
-2.405720	-17.964285	-3.073784	-0.418074	-0.734762	-0.534172
2.405720	-17.964285	-3.073784	0.418074	-0.734762	-0.534172
-1.757235	-18.299107	-3.073764	-0.336659	-0.734762	-0.588885
1.757235	-18.299107	-3.073764	0.336659	-0.734762	-0.588885
-1.554344	-18.388393	-3.073176	-0.306151	-0.734762	-0.605307
1.554344	-18.388393	-3.073176	0.306151	-0.734762	-0.605307
-2.122180	-18.120535	-3.072356	-0.385515	-0.734762	-0.558124
2.122180	-18.120535	-3.072356	0.385515	-0.734762	-0.558124
-2.446866	-17.941965	-3.072104	-0.422606	-0.734762	-0.530593
2.446866	-17.941965	-3.072104	0.422606	-0.734762	-0.530593
-1.330109	-18.477678	-3.071549	-0.269554	-0.734762	-0.622467
1.330109	-18.477678	-3.071549	0.269554	-0.734762	-0.622467
-1.268389	-18.500000	-3.071403	-0.258917	-0.734762	-0.626967
1.268389	-18.500000	-3.071403	0.258917	-0.734762	-0.626967
-1.392200	-18.455357	-3.070477	-0.280114	-0.734762	-0.617787
1.392200	-18.455357	-3.070477	0.280114	-0.734762	-0.617787
-2.082375	-18.142857	-3.070302	-0.380750	-0.734762	-0.561386
2.082375	-18.142857	-3.070302	0.380750	-0.734762	-0.561386
-2.488157	-17.919643	-3.069944	-0.427108	-0.734762	-0.526976
2.488157	-17.919643	-3.069944	0.427108	-0.734762	-0.526976
-1.860226	-18.254465	-3.069238	-0.351588	-0.734762	-0.580095
1.860226	-18.254465	-3.069238	0.351588	-0.734762	-0.580095
-1.454636	-18.433035	-3.068175	-0.290592	-0.734762	-0.612928
1.454636	-18.433035	-3.068175	0.290592	-0.734762	-0.612928
-2.042759	-18.165178	-3.067795	-0.375956	-0.734762	-0.564608
2.042759	-18.165178	-3.067795	0.375956	-0.734762	-0.564608
-1.617723	-18.366072	-3.067652	-0.316413	-0.734762	-0.600007
1.617723	-18.366072	-3.067652	0.316413	-0.734762	-0.600007
-1.719181	-18.321428	-3.067521	-0.331633	-0.734762	-0.591730
1.719181	-18.321428	-3.067521	0.331633	-0.734762	-0.591730
-2.529586	-17.897322	-3.067303	-0.431579	-0.734762	-0.523321
2.529586	-17.897322	-3.067303	0.431579	-0.734762	-0.523321
-2.003337	-18.187500	-3.064836	-0.371136	-0.734762	-0.567788
2.003337	-18.187500	-3.064836	0.371136	-0.734762	-0.567788
-1.517395	-18.410715	-3.064630	-0.300986	-0.734762	-0.607892
1.517395	-18.410715	-3.064630	0.300986	-0.734762	-0.607892
-1.821672	-18.276785	-3.064182	-0.346637	-0.734762	-0.583068
1.821672	-18.276785	-3.064182	0.346637	-0.734762	-0.583068
-2.571151	-17.875000	-3.064178	-0.436019	-0.734762	-0.519627
2.571151	-17.875000	-3.064178	0.436019	-0.734762	-0.519627
-1.964116	-18.209822	-3.061431	-0.366289	-0.734762	-0.570927
1.964116	-18.209822	-3.061431	0.366289	-0.734762	-0.570927
-1.681362	-18.343750	-3.060855	-0.326583	-0.734762	-0.594532
1.681362	-18.343750	-3.060855	0.326583	-0.734762	-0.594532
-1.294492	-18.500000	-3.060493	-0.264245	-0.734762	-0.624740
1.294492	-18.500000	-3.060493	0.264245	-0.734762	-0.624740
-1.356212	-18.477678	-3.060113	-0.274844	-0.734762	-0.620150
1.356212	-18.477678	-3.060113	0.274844	-0.734762	-0.620150
-1.580452	-18.388393	-3.059832	-0.311293	-0.734762	-0.602679
1.580452	-18.388393	-3.059832	0.311293	-0.734762	-0.602679
-1.783340	-18.299107	-3.058692	-0.341660	-0.734762	-0.585998
1.783340	-18.299107	-3.058692	0.341660	-0.734762	-0.585998
-1.418290	-18.455357	-3.058513	-0.285363	-0.734762	-0.615380
1.418290	-18.455357	-3.058513	0.285363	-0.734762	-0.615380
-1.925098	-18.232143	-3.057581	-0.361415	-0.734762	-0.574025
1.925098	-18.232143	-3.057581	0.361415	-0.734762	-0.574025
-2.268792	-18.053572	-3.056562	-0.404295	-0.734762	-0.544675
2.268792	-18.053572	-3.056562	0.404295	-0.734762	-0.544675
-2.309308	-18.031250	-3.056426	-0.408918	-0.734762	-0.541213
2.309308	-18.031250	-3.056426	0.408918	-0.734762	-0.541213
-2.228442	-18.075893	-3.056230	-0.399643	-0.734762	-0.548097
2.228442	-18.075893	-3.056230	0.399643	-0.734762	-0.548097
-2.349985	-18.008928	-3.055821	-0.413511	-0.734762	-0.537712
2.349985	-18.008928	-3.055821	0.413511	-0.734762	-0.537712
-1.480705	-18.433035	-3.055679	-0.295800	-0.734762	-0.610432
1.480705	-18.433035	-3.055679	0.295800	-0.734762	-0.610432
-2.188263	-18.098215	-3.055434	-0.394963	-0.734762	-0.551479
2.188263	-18.098215	-3.055434	0.394963	-0.734762	-0.551479
-2.390818	-17.986607	-3.054744	-0.418074	-0.734762	-0.534172
2.390818	-17.986607	-3.054744	0.418074	-0.734762	-0.534172
-2.148260	-18.120535	-3.054178	-0.390253	-0.734762	-0.554822
2.148260	-18.120535	-3.054178	0.390253	-0.734762	-0.554822
-1.643782	-18.366072	-3.053768	-0.321510	-0.734762	-0.597291
1.643782	-18.366072	-3.053768	0.321510	-0.734762	-0.597291
-1.886289	-18.254465	-3.053290	-0.356514	-0.734762	-0.577081
1.886289	-18.254465	-3.053290	0.356514	-0.734762	-0.577081
-2.431803	-17.964285	-3.053191	-0.422606	-0.734762	-0.530593
2.431803	-17.964285	-3.053191	0.422606	-0.734762	-0.530593
-1.745235	-18.321428	-3.052773	-0.336659	-0.734762	-0.588885
1.745235	-18.321428	-3.052773	0.336659	-0.734762	-0.588885
-2.108439	-18.142857	-3.052462	-0.385515	-0.734762	-0.558124
2.108439	-18.142857	-3.052462	0.385515	-0.734762	-0.558124
-1.543431	-18.410715	-3.051600	-0.306151	-0.734762	-0.605307
1.543431	-18.410715	-3.051600	0.306151	-0.734762	-0.605307
-2.472932	-17.941965	-3.051161	-0.427108	-0.734762	-0.526976
2.472932	-17.941965	-3.051161	0.427108	-0.734762	-0.526976
-2.068803	-18.165178	-3.050292	-0.380750	-0.734762	-0.561386
2.068803	-18.165178	-3.050292	0.380750	-0.734762	-0.561386
-1.320501	-18.500000	-3.049361	-0.269554	-0.734762	-0.622467
1.320501	-18.500000	-3.049361	0.269554	-0.734762	-0.622467
-2.514203	-17.919643	-3.048650	-0.431579	-0.734762	-0.523321
2.514203	-17.919643	-3.048650	0.431579	-0.734762	-0.523321
-1.847694	-18.276785	-3.048561	-0.351588	-0.734762	-0.580095
1.847694	-18.276785	-3.048561	0.351588	-0.734762	-0.580095
-1.382215	-18.477678	-3.048456	-0.280114	-0.734762	-0.617787
1.382215	-18.477678	-3.048456	0.280114	-0.734762	-0.617787
-2.029358	-18.187500	-3.047669	-0.375956	-0.734762	-0.564608
2.029358	-18.187500	-3.047669	0.375956	-0.734762	-0.564608
-1.707360	-18.343750	-3.046429	-0.331633	-0.734762	-0.591730
1.707360	-18.343750	-3.046429	0.331633	-0.734762	-0.591730
-1.444278	-18.455357	-3.046327	-0.290592	-0.734762	-0.612928
1.444278	-18.455357	-3.046327	0.290592	-0.734762	-0.612928
-1.606445	-18.388393	-3.046265	-0.316413	-0.734762	-0.600007
1.606445	-18.388393	-3.046265	0.316413	-0.734762	-0.600007
-2.555609	-17.897322	-3.045656	-0.436019	-0.734762	-0.519627
2.555609	-17.897322	-3.045656	0.436019	-0.734762	-0.519627
-1.990108	-18.209822	-3.044598	-0.371136	-0.734762	-0.567788
1.990108	-18.209822	-3.044598	0.371136	-0.734762	-0.567788
-1.809316	-18.299107	-3.043398	-0.346637	-0.734762	-0.583068
1.809316	-18.299107	-3.043398	0.346637	-0.734762	-0.583068
-1.506667	-18.433035	-3.042962	-0.300986	-0.734762	-0.607892
1.506667	-18.433035	-3.042962	0.300986	-0.734762	-0.607892
-2.597145	-17.875000	-3.042177	-0.440427	-0.734762	-0.515896
2.597145	-17.875000	-3.042177	0.440427	-0.734762	-0.515896
-1.951059	-18.232143	-3.041080	-0.366289	-0.734762	-0.570927
1.951059	-18.232143	-3.041080	0.366289	-0.734762	-0.570927
-1.669721	-18.366072	-3.039663	-0.326583	-0.734762	-0.594532
1.669721	-18.366072	-3.039663	0.326583	-0.734762	-0.594532
-1.569356	-18.410715	-3.038350	-0.311293	-0.734762	-0.602679
1.569356	-18.410715	-3.038350	0.311293	-0.734762	-0.602679
-1.346415	-18.500000	-3.038009	-0.274844	-0.734762	-0.620150
1.346415	-18.500000	-3.038009	0.274844	-0.734762	-0.620150
-1.771162	-18.321428	-3.037804	-0.341660	-0.734762	-0.585998
1.771162	-18.321428	-3.037804	0.341660	-0.734762	-0.585998
-2.254381	-18.075893	-3.037147	-0.404295	-0.734762	-0.544675
2.254381	-18.075893	-3.037147	0.404295	-0.734762	-0.544675
-2.294732	-18.053572	-3.037135	-0.408918	-0.734762	-0.541213
2.294732	-18.053572	-3.037135	0.408918	-0.734762	-0.541213
-1.912215	-18.254465	-3.037120	-0.361415	-0.734762	-0.574025
1.912215	-18.254465	-3.037120	0.361415	-0.734762	-0.574025
-2.214197	-18.098215	-3.036693	-0.399643	-0.734762	-0.548097
2.214197	-18.098215	-3.036693	0.399643	-0.734762	-0.548097
-2.335246	-18.031250	-3.036655	-0.413511	-0.734762	-0.537712
2.335246	-18.031250	-3.036655	0.413511	-0.734762	-0.537712
-1.408119	-18.477678	-3.036578	-0.285363	-0.734762	-0.615380
1.408119	-18.477678	-3.036578	0.285363	-0.734762	-0.615380
-2.174185	-18.120535	-3.035777	-0.394963	-0.734762	-0.551479
2.174185	-18.120535	-3.035777	0.394963	-0.734762	-0.551479
-2.375916	-18.008928	-3.035703	-0.418074	-0.734762	-0.534172
2.375916	-18.008928	-3.035703	0.418074	-0.734762	-0.534172
-2.134350	-18.142857	-3.034401	-0.390253	-0.734762	-0.554822
2.134350	-18.142857	-3.034401	0.390253	-0.734762	-0.554822
-2.416739	-17.986607	-3.034278	-0.422606	-0.734762	-0.530593
2.416739	-17.986607	-3.034278	0.422606	-0.734762	-0.530593
-1.470161	-18.455357	-3.033921	-0.295800	-0.734762	-0.610432
1.470161	-18.455357	-3.033921	0.295800	-0.734762	-0.610432
-1.873581	-18.276785	-3.032720	-0.356514	-0.734762	-0.577081
1.873581	-18.276785	-3.032720	0.356514	-0.734762	-0.577081
-2.094697	-18.165178	-3.032568	-0.385515	-0.734762	-0.558124
2.094697	-18.165178	-3.032568	0.385515	-0.734762	-0.558124
-1.632322	-18.388393	-3.032478	-0.321510	-0.734762	-0.597291
1.632322	-18.388393	-3.032478	0.321510	-0.734762	-0.597291
-2.457708	-17.964285	-3.032377	-0.427108	-0.734762	-0.526976
2.457708	-17.964285	-3.032377	0.427108	-0.734762	-0.526976
-1.733235	-18.343750	-3.031783	-0.336659	-0.734762	-0.588885
1.733235	-18.343750	-3.031783	0.336659	-0.734762	-0.588885
-2.055231	-18.187500	-3.030282	-0.380750	-0.734762	-0.561386
2.055231	-18.187500	-3.030282	0.380750	-0.734762	-0.561386
-1.532519	-18.433035	-3.030025	-0.306151	-0.734762	-0.605307
1.532519	-18.433035	-3.030025	0.306151	-0.734762	-0.605307
-2.498819	-17.941965	-3.029996	-0.431579	-0.734762	-0.523321
2.498819	-17.941965	-3.029996	0.431579	-0.734762	-0.523321
-1.835161	-18.299107	-3.027884	-0.351588	-0.734762	-0.580095
1.835161	-18.299107	-3.027884	0.351588	-0.734762	-0.580095
-2.015957	-18.209822	-3.027544	-0.375956	-0.734762	-0.564608
2.015957	-18.209822	-3.027544	0.375956	-0.734762	-0.564608
-2.540067	-17.919643	-3.027134	-0.436019	-0.734762	-0.519627
2.540067	-17.919643	-3.027134	0.436019	-0.734762	-0.519627
-1.372231	-18.500000	-3.026436	-0.280114	-0.734762	-0.617787
1.372231	-18.500000	-3.026436	0.280114	-0.734762	-0.617787
-1.695539	-18.366072	-3.025337	-0.331633	-0.734762	-0.591730
1.695539	-18.366072	-3.025337	0.331633	-0.734762	-0.591730
-1.595167	-18.410715	-3.024879	-0.316413	-0.734762	-0.600007
1.595167	-18.410715	-3.024879	0.316413	-0.734762	-0.600007
-1.433920	-18.477678	-3.024480	-0.290592	-0.734762	-0.612928
1.433920	-18.477678	-3.024480	0.290592	-0.734762	-0.612928
-1.976879	-18.232143	-3.024359	-0.371136	-0.734762	-0.567788
1.976879	-18.232143	-3.024359	0.371136	-0.734762	-0.567788
-2.581446	-17.897322	-3.023788	-0.440427	-0.734762	-0.515896
2.581446	-17.897322	-3.023788	0.440427	-0.734762	-0.515896
-1.796961	-18.321428	-3.022615	-0.346637	-0.734762	-0.583068
1.796961	-18.321428	-3.022615	0.346637	-0.734762	-0.583068
-1.495938	-18.455357	-3.021294	-0.300986	-0.734762	-0.607892
1.495938	-18.455357	-3.021294	0.300986	-0.734762	-0.607892
-1.938003	-18.254465	-3.020730	-0.366289	-0.734762	-0.570927
1.938003	-18.254465	-3.020730	0.366289	-0.734762	-0.570927
-2.622951	-17.875000	-3.019955	-0.444803	-0.734762	-0.512128
2.622951	-17.875000	-3.019955	0.444803	-0.734762	-0.512128
-1.658080	-18.388393	-3.018471	-0.326583	-0.734762	-0.594532
1.658080	-18.388393	-3.018471	0.326583	-0.734762	-0.594532
-2.280157	-18.075893	-3.017844	-0.408918	-0.734762	-0.541213
2.280157	-18.075893	-3.017844	0.408918	-0.734762	-0.541213
-2.239970	-18.098215	-3.017732	-0.404295	-0.734762	-0.544675
2.239970	-18.098215	-3.017732	0.404295	-0.734762	-0.544675
-2.320507	-18.053572	-3.017488	-0.413511	-0.734762	-0.537712
2.320507	-18.053572	-3.017488	0.413511	-0.734762	-0.537712
-2.199952	-18.120535	-3.017157	-0.399643	-0.734762	-0.548097
2.199952	-18.120535	-3.017157	0.399643	-0.734762	-0.548097
-1.758984	-18.343750	-3.016917	-0.341660	-0.734762	-0.585998
1.758984	-18.343750	-3.016917	0.341660	-0.734762	-0.585998
-1.558260	-18.433035	-3.016867	-0.311293	-0.734762	-0.602679
1.558260	-18.433035	-3.016867	0.311293	-0.734762	-0.602679
-2.361014	-18.031250	-3.016663	-0.418074	-0.734762	-0.534172
2.361014	-18.031250	-3.016663	0.418074	-0.734762	-0.534172
-1.899333	-18.276785	-3.016659	-0.361415	-0.734762	-0.574025
1.899333	-18.276785	-3.016659	0.361415	-0.734762	-0.574025
-2.160107	-18.142857	-3.016120	-0.394963	-0.734762	-0.551479
2.160107	-18.142857	-3.016120	0.394963	-0.734762	-0.551479
-2.401675	-18.008928	-3.015366	-0.422606	-0.734762	-0.530593
2.401675	-18.008928	-3.015366	0.422606	-0.734762	-0.530593
-1.397947	-18.500000	-3.014643	-0.285363	-0.734762	-0.615380
1.397947	-18.500000	-3.014643	0.285363	-0.734762	-0.615380
-2.120440	-18.165178	-3.014625	-0.390253	-0.734762	-0.554822
2.120440	-18.165178	-3.014625	0.390253	-0.734762	-0.554822
-2.442484	-17.986607	-3.013593	-0.427108	-0.734762	-0.526976
2.442484	-17.986607	-3.013593	0.427108	-0.734762	-0.526976
-2.080956	-18.187500	-3.012674	-0.385515	-0.734762	-0.558124
2.080956	-18.187500	-3.012674	0.385515	-0.734762	-0.558124
-1.459618	-18.477678	-3.012162	-0.295800	-0.734762	-0.610432
1.459618	-18.477678	-3.012162	0.295800	-0.734762	-0.610432
-1.860873	-18.299107	-3.012150	-0.356514	-0.734762	-0.577081
1.860873	-18.299107	-3.012150	0.356514	-0.734762	-0.577081
-2.483436	-17.964285	-3.011343	-0.431579	-0.734762	-0.523321
2.483436	-17.964285	-3.011343	0.431579	-0.734762	-0.523321
-1.620862	-18.410715	-3.011188	-0.321510	-0.734762	-0.597291
1.620862	-18.410715	-3.011188	0.321510	-0.734762	-0.597291
-1.721235	-18.366072	-3.010792	-0.336659	-0.734762	-0.588885
1.721235	-18.366072	-3.010792	0.336659	-0.734762	-0.588885
-2.041660	-18.209822	-3.010271	-0.380750	-0.734762	-0.561386
2.041660	-18.209822	-3.010271	0.380750	-0.734762	-0.561386
-2.524525	-17.941965	-3.008612	-0.436019	-0.734762	-0.519627
2.524525	-17.941965	-3.008612	0.436019	-0.734762	-0.519627
-1.521606	-18.455357	-3.008449	-0.306151	-0.734762	-0.605307
1.521606	-18.455357	-3.008449	0.306151	-0.734762	-0.605307
-2.002556	-18.232143	-3.007419	-0.375956	-0.734762	-0.564608
2.002556	-18.232143	-3.007419	0.375956	-0.734762	-0.564608
-1.822629	-18.321428	-3.007207	-0.351588	-0.734762	-0.580095
1.822629	-18.321428	-3.007207	0.351588	-0.734762	-0.580095
-2.565747	-17.919643	-3.005399	-0.440427	-0.734762	-0.515896
2.565747	-17.919643	-3.005399	0.440427	-0.734762	-0.515896
-1.683718	-18.388393	-3.004245	-0.331633	-0.734762	-0.591730
1.683718	-18.388393	-3.004245	0.331633	-0.734762	-0.591730
-1.963650	-18.254465	-3.004121	-0.371136	-0.734762	-0.567788
1.963650	-18.254465	-3.004121	0.371136	-0.734762	-0.567788
-1.583888	-18.433035	-3.003491	-0.316413	-0.734762	-0.600007
1.583888	-18.433035	-3.003491	0.316413	-0.734762	-0.600007
-1.423562	-18.500000	-3.002632	-0.290592	-0.734762	-0.612928
1.423562	-18.500000	-3.002632	0.290592	-0.734762	-0.612928
-1.784605	-18.343750	-3.001832	-0.346637	-0.734762	-0.583068
1.784605	-18.343750	-3.001832	0.346637	-0.734762	-0.583068
-2.607096	-17.897322	-3.001701	-0.444803	-0.734762	-0.512128
2.607096	-17.897322	-3.001701	0.444803	-0.734762	-0.512128
-1.924947	-18.276785	-3.000379	-0.366289	-0.734762	-0.570927
1.924947	-18.276785	-3.000379	0.366289	-0.734762	-0.570927
-1.485210	-18.477678	-2.999626	-0.300986	-0.734762	-0.607892
1.485210	-18.477678	-2.999626	0.300986	-0.734762	-0.607892
-2.265581	-18.098215	-2.998553	-0.408918	-0.734762	-0.541213
2.265581	-18.098215	-2.998553	0.408918	-0.734762	-0.541213
-2.305767	-18.075893	-2.998322	-0.413511	-0.734762	-0.537712
2.305767	-18.075893	-2.998322	0.413511	-0.734762	-0.537712
-2.225559	-18.120535	-2.998318	-0.404295	-0.734762	-0.544675
2.225559	-18.120535	-2.998318	0.404295	-0.734762	-0.544675
-2.346112	-18.053572	-2.997623	-0.418074	-0.734762	-0.534172
2.346112	-18.053572	-2.997623	0.418074	-0.734762	-0.534172
-2.185707	-18.142857	-2.997620	-0.399643	-0.734762	-0.548097
2.185707	-18.142857	-2.997620	0.399643	-0.734762	-0.548097
-2.648567	-17.875000	-2.997515	-0.449147	-0.734762	-0.508322
2.648567	-17.875000	-2.997515	0.449147	-0.734762	-0.508322
-1.646439	-18.410715	-2.997279	-0.326583	-0.734762	-0.594532
1.646439	-18.410715	-2.997279	0.326583	-0.734762	-0.594532
-2.146029	-18.165178	-2.996463	-0.394963	-0.734762	-0.551479
2.146029	-18.165178	-2.996463	0.394963	-0.734762	-0.551479
-2.386612	-18.031250	-2.996453	-0.422606	-0.734762	-0.530593
2.386612	-18.031250	-2.996453	0.422606	-0.734762	-0.530593
-1.886450	-18.299107	-2.996198	-0.361415	-0.734762	-0.574025
1.886450	-18.299107	-2.996198	0.361415	-0.734762	-0.574025
-1.746805	-18.366072	-2.996029	-0.341660	-0.734762	-0.585998
1.746805	-18.366072	-2.996029	0.341660	-0.734762	-0.585998
-1.547164	-18.455357	-2.995385	-0.311293	-0.734762	-0.602679
1.547164	-18.455357	-2.995385	0.311293	-0.734762	-0.602679
-2.106529	-18.187500	-2.994848	-0.390253	-0.734762	-0.554822
2.106529	-18.187500	-2.994848	0.390253	-0.734762	-0.554822
-2.427260	-18.008928	-2.994809	-0.427108	-0.734762	-0.526976
2.427260	-18.008928	-2.994809	0.427108	-0.734762	-0.526976
-2.067214	-18.209822	-2.992780	-0.385515	-0.734762	-0.558124
2.067214	-18.209822	-2.992780	0.385515	-0.734762	-0.558124
-2.468053	-17.986607	-2.992689	-0.431579	-0.734762	-0.523321
2.468053	-17.986607	-2.992689	0.431579	-0.734762	-0.523321
-1.848166	-18.321428	-2.991580	-0.356514	-0.734762	-0.577081
1.848166	-18.321428	-2.991580	0.356514	-0.734762	-0.577081
-1.449074	-18.500000	-2.990403	-0.295800	-0.734762	-0.610432
1.449074	-18.500000	-2.990403	0.295800	-0.734762	-0.610432
-2.028088	-18.232143	-2.990261	-0.380750	-0.734762	-0.561386
2.028088	-18.232143	-2.990261	0.380750	-0.734762	-0.561386
-2.508984	-17.964285	-2.990090	-0.436019	-0.734762	-0.519627
2.508984	-17.964285	-2.990090	0.436019	-0.734762	-0.519627
-1.609402	-18.433035	-2.989898	-0.321510	-0.734762	-0.597291
1.609402	-18.433035	-2.989898	0.321510	-0.734762	-0.597291
-1.709235	-18.388393	-2.989802	-0.336659	-0.734762	-0.588885
1.709235	-18.388393	-2.989802	0.336659	-0.734762	-0.588885
-1.989156	-18.254465	-2.987294	-0.375956	-0.734762	-0.564608
1.989156	-18.254465	-2.987294	0.375956	-0.734762	-0.564608
-2.550048	-17.941965	-2.987010	-0.440427	-0.734762	-0.515896
2.550048	-17.941965	-2.987010	0.440427	-0.734762	-0.515896
-1.510694	-18.477678	-2.986873	-0.306151	-0.734762	-0.605307
1.510694	-18.477678	-2.986873	0.306151	-0.734762	-0.605307
-1.810097	-18.343750	-2.986530	-0.351588	-0.734762	-0.580095
1.810097	-18.343750	-2.986530	0.351588	-0.734762	-0.580095
-1.950422	-18.276785	-2.983882	-0.371136	-0.734762	-0.567788
1.950422	-18.276785	-2.983882	0.371136	-0.734762	-0.567788
-2.591241	-17.919643	-2.983446	-0.444803	-0.734762	-0.512128
2.591241	-17.919643	-2.983446	0.444803	-0.734762	-0.512128
-1.671898	-18.410715	-2.983153	-0.331633	-0.734762	-0.591730
1.671898	-18.410715	-2.983153	0.331633	-0.734762	-0.591730
-1.572610	-18.455357	-2.982105	-0.316413	-0.734762	-0.600007
1.572610	-18.455357	-2.982105	0.316413	-0.734762	-0.600007
-1.772249	-18.366072	-2.981049	-0.346637	-0.734762	-0.583068
1.772249	-18.366072	-2.981049	0.346637	-0.734762	-0.583068
-1.911891	-18.299107	-2.980029	-0.366289	-0.734762	-0.570927
1.911891	-18.299107	-2.980029	0.366289	-0.734762	-0.570927
-2.632557	-17.897322	-2.979396	-0.449147	-0.734762	-0.508322
2.632557	-17.897322	-2.979396	0.449147	-0.734762	-0.508322
-2.251005	-18.120535	-2.979261	-0.408918	-0.734762	-0.541213
2.251005	-18.120535	-2.979261	0.408918	-0.734762	-0.541213
-2.291028	-18.098215	-2.979155	-0.413511	-0.734762	-0.537712
2.291028	-18.098215	-2.979155	0.413511	-0.734762	-0.537712
-2.211148	-18.142857	-2.978903	-0.404295	-0.734762	-0.544675
2.211148	-18.142857	-2.978903	0.404295	-0.734762	-0.544675
-2.331210	-18.075893	-2.978583	-0.418074	-0.734762	-0.534172
2.331210	-18.075893	-2.978583	0.418074	-0.734762	-0.534172
-2.171462	-18.165178	-2.978083	-0.399643	-0.734762	-0.548097
2.171462	-18.165178	-2.978083	0.399643	-0.734762	-0.548097
-1.474481	-18.500000	-2.977958	-0.300986	-0.734762	-0.607892
1.474481	-18.500000	-2.977958	0.300986	-0.734762	-0.607892
-2.371548	-18.053572	-2.977540	-0.422606	-0.734762	-0.530593
2.371548	-18.053572	-2.977540	0.422606	-0.734762	-0.530593
-2.131950	-18.187500	-2.976805	-0.394963	-0.734762	-0.551479
2.131950	-18.187500	-2.976805	0.394963	-0.734762	-0.551479
-1.634798	-18.433035	-2.976088	-0.326583	-0.734762	-0.594532
1.634798	-18.433035	-2.976088	0.326583	-0.734762	-0.594532
-2.412036	-18.031250	-2.976025	-0.427108	-0.734762	-0.526976
2.412036	-18.031250	-2.976025	0.427108	-0.734762	-0.526976
-1.873568	-18.321428	-2.975737	-0.361415	-0.734762	-0.574025
1.873568	-18.321428	-2.975737	0.361415	-0.734762	-0.574025
-1.734627	-18.388393	-2.975142	-0.341660	-0.734762	-0.585998
1.734627	-18.388393	-2.975142	0.341660	-0.734762	-0.585998
-2.092619	-18.209822	-2.975072	-0.390253	-0.734762	-0.554822
2.092619	-18.209822	-2.975072	0.390253	-0.734762	-0.554822
-2.673991	-17.875000	-2.974857	-0.453459	-0.734762	-0.504480
2.673991	-17.875000	-2.974857	0.453459	-0.734762	-0.504480
-2.452669	-18.008928	-2.974036	-0.431579	-0.734762	-0.523321
2.452669	-18.008928	-2.974036	0.431579	-0.734762	-0.523321
-1.536068	-18.477678	-2.973903	-0.311293	-0.734762	-0.602679
1.536068	-18.477678	-2.973903	0.311293	-0.734762	-0.602679
-2.053473	-18.232143	-2.972886	-0.385515	-0.734762	-0.558124
2.053473	-18.232143	-2.972886	0.385515	-0.734762	-0.558124
-2.493442	-17.986607	-2.971569	-0.436019	-0.734762	-0.519627
2.493442	-17.986607	-2.971569	0.436019	-0.734762	-0.519627
-1.835458	-18.343750	-2.971011	-0.356514	-0.734762	-0.577081
1.835458	-18.343750	-2.971011	0.356514	-0.734762	-0.577081
-2.014516	-18.254465	-2.970251	-0.380750	-0.734762	-0.561386
2.014516	-18.254465	-2.970251	0.380750	-0.734762	-0.561386
-1.697235	-18.410715	-2.968811	-0.336659	-0.734762	-0.588885
1.697235	-18.410715	-2.968811	0.336659	-0.734762	-0.588885
-2.534349	-17.964285	-2.968621	-0.440427	-0.734762	-0.515896
2.534349	-17.964285	-2.968621	0.440427	-0.734762	-0.515896
-1.597942	-18.455357	-2.968608	-0.321510	-0.734762	-0.597291
1.597942	-18.455357	-2.968608	0.321510	-0.734762	-0.597291
-1.975755	-18.276785	-2.967169	-0.375956	-0.734762	-0.564608
1.975755	-18.276785	-2.967169	0.375956	-0.734762	-0.564608
-1.797565	-18.366072	-2.965852	-0.351588	-0.734762	-0.580095
1.797565	-18.366072	-2.965852	0.351588	-0.734762	-0.580095
-1.499781	-18.500000	-2.965297	-0.306151	-0.734762	-0.605307
1.499781	-18.500000	-2.965297	0.306151	-0.734762	-0.605307
-2.575386	-17.941965	-2.965192	-0.444803	-0.734762	-0.512128
2.575386	-17.941965	-2.965192	0.444803	-0.734762	-0.512128
-1.937193	-18.299107	-2.963644	-0.371136	-0.734762	-0.567788
1.937193	-18.299107	-2.963644	0.371136	-0.734762	-0.567788
-1.660077	-18.433035	-2.962061	-0.331633	-0.734762	-0.591730
1.660077	-18.433035	-2.962061	0.331633	-0.734762	-0.591730
-2.616547	-17.919643	-2.961277	-0.449147	-0.734762	-0.508322
2.616547	-17.919643	-2.961277	0.449147	-0.734762	-0.508322
-1.561331	-18.477678	-2.960718	-0.316413	-0.734762	-0.600007
1.561331	-18.477678	-2.960718	0.316413	-0.734762	-0.600007
-1.759894	-18.388393	-2.960266	-0.346637	-0.734762	-0.583068
1.759894	-18.388393	-2.960266	0.346637	-0.734762	-0.583068
-2.276288	-18.120535	-2.959989	-0.413511	-0.734762	-0.537712
2.276288	-18.120535	-2.959989	0.413511	-0.734762	-0.537712
-2.236430	-18.142857	-2.959970	-0.408918	-0.734762	-0.541213
2.236430	-18.142857	-2.959970	0.408918	-0.734762	-0.541213
-1.898835	-18.321428	-2.959678	-0.366289	-0.734762	-0.570927
1.898835	-18.321428	-2.959678	0.366289	-0.734762	-0.570927
-2.316308	-18.098215	-2.959542	-0.418074	-0.734762	-0.534172
2.316308	-18.098215	-2.959542	0.418074	-0.734762	-0.534172
-2.196738	-18.165178	-2.959488	-0.404295	-0.734762	-0.544675
2.196738	-18.165178	-2.959488	0.404295	-0.734762	-0.544675
-2.356485	-18.075893	-2.958627	-0.422606	-0.734762	-0.530593
2.356485	-18.075893	-2.958627	0.422606	-0.734762	-0.530593
-2.157217	-18.187500	-2.958547	-0.399643	-0.734762	-0.548097
2.157217	-18.187500	-2.958547	0.399643	-0.734762	-0.548097
-2.396812	-18.053572	-2.957242	-0.427108	-0.734762	-0.526976
2.396812	-18.053572	-2.957242	0.427108	-0.734762	-0.526976
-2.117872	-18.209822	-2.957148	-0.394963	-0.734762	-0.551479
2.117872	-18.209822	-2.957148	0.394963	-0.734762	-0.551479
-2.657827	-17.897322	-2.956875	-0.453459	-0.734762	-0.504480
2.657827	-17.897322	-2.956875	0.453459	-0.734762	-0.504480
-2.437286	-18.031250	-2.955382	-0.431579	-0.734762	-0.523321
2.437286	-18.031250	-2.955382	0.431579	-0.734762	-0.523321
-2.078708	-18.232143	-2.955296	-0.390253	-0.734762	-0.554822
2.078708	-18.232143	-2.955296	0.390253	-0.734762	-0.554822
-1.860686	-18.343750	-2.955276	-0.361415	-0.734762	-0.574025
1.860686	-18.343750	-2.955276	0.361415	-0.734762	-0.574025
-1.623158	-18.455357	-2.954896	-0.326583	-0.734762	-0.594532
1.623158	-18.455357	-2.954896	0.326583	-0.734762	-0.594532
-1.722449	-18.410715	-2.954254	-0.341660	-0.734762	-0.585998
1.722449	-18.410715	-2.954254	0.341660	-0.734762	-0.585998
-2.477900	-18.008928	-2.953047	-0.436019	-0.734762	-0.519627
2.477900	-18.008928	-2.953047	0.436019	-0.734762	-0.519627
-2.039731	-18.254465	-2.952992	-0.385515	-0.734762	-0.558124
2.039731	-18.254465	-2.952992	0.385515	-0.734762	-0.558124
-1.524972	-18.500000	-2.952421	-0.311293	-0.734762	-0.602679
1.524972	-18.500000	-2.952421	0.311293	-0.734762	-0.602679
-2.699221	-17.875000	-2.951984	-0.457737	-0.734762	-0.500601
2.699221	-17.875000	-2.951984	0.457737	-0.734762	-0.500601
-1.822750	-18.366072	-2.950441	-0.356514	-0.734762	-0.577081
1.822750	-18.366072	-2.950441	0.356514	-0.734762	-0.577081
-2.000945	-18.276785	-2.950240	-0.380750	-0.734762	-0.561386
2.000945	-18.276785	-2.950240	0.380750	-0.734762	-0.561386
-2.518651	-17.986607	-2.950232	-0.440427	-0.734762	-0.515896
2.518651	-17.986607	-2.950232	0.440427	-0.734762	-0.515896
-1.685235	-18.433035	-2.947821	-0.336659	-0.734762	-0.588885
1.685235	-18.433035	-2.947821	0.336659	-0.734762	-0.588885
-1.586482	-18.477678	-2.947318	-0.321510	-0.734762	-0.597291
1.586482	-18.477678	-2.947318	0.321510	-0.734762	-0.597291
-1.962354	-18.299107	-2.947044	-0.375956	-0.734762	-0.564608
1.962354	-18.299107	-2.947044	0.375956	-0.734762	-0.564608
-2.559532	-17.964285	-2.946937	-0.444803	-0.734762	-0.512128
2.559532	-17.964285	-2.946937	0.444803	-0.734762	-0.512128
-1.785033	-18.388393	-2.945175	-0.351588	-0.734762	-0.580095
1.785033	-18.388393	-2.945175	0.351588	-0.734762	-0.580095
-1.923964	-18.321428	-2.943405	-0.371136	-0.734762	-0.567788
1.923964	-18.321428	-2.943405	0.371136	-0.734762	-0.567788
-2.600538	-17.941965	-2.943158	-0.449147	-0.734762	-0.508322
2.600538	-17.941965	-2.943158	0.449147	-0.734762	-0.508322
-1.648256	-18.455357	-2.940969	-0.331633	-0.734762	-0.591730
1.648256	-18.455357	-2.940969	0.331633	-0.734762	-0.591730
-2.261549	-18.142857	-2.940822	-0.413511	-0.734762	-0.537712
2.261549	-18.142857	-2.940822	0.413511	-0.734762	-0.537712
-2.221854	-18.165178	-2.940679	-0.408918	-0.734762	-0.541213
2.221854	-18.165178	-2.940679	0.408918	-0.734762	-0.541213
-2.301406	-18.120535	-2.940502	-0.418074	-0.734762	-0.534172
2.301406	-18.120535	-2.940502	0.418074	-0.734762	-0.534172
-2.182327	-18.187500	-2.940074	-0.404295	-0.734762	-0.544675
2.182327	-18.187500	-2.940074	0.404295	-0.734762	-0.544675
-2.341421	-18.098215	-2.939715	-0.422606	-0.734762	-0.530593
2.341421	-18.098215	-2.939715	0.422606	-0.734762	-0.530593
-1.747538	-18.410715	-2.939482	-0.346637	-0.734762	-0.583068
1.747538	-18.410715	-2.939482	0.346637	-0.734762	-0.583068
-1.550053	-18.500000	-2.939331	-0.316413	-0.734762	-0.600007
1.550053	-18.500000	-2.939331	0.316413	-0.734762	-0.600007
-1.885778	-18.343750	-2.939328	-0.366289	-0.734762	-0.570927
1.885778	-18.343750	-2.939328	0.366289	-0.734762	-0.570927
-2.142972	-18.209822	-2.939010	-0.399643	-0.734762	-0.548097
