-0.616758	-23.366072	-3.412789	-0.120633	-0.734762	-0.667512
0.616758	-23.366072	-3.412789	0.120633	-0.734762	-0.667512
-1.111957	-23.254465	-3.412362	-0.210163	-0.734762	-0.644947
1.111957	-23.254465	-3.412362	0.210163	-0.734762	-0.644947
-0.467680	-23.388393	-3.411990	-0.092117	-0.734762	-0.672041
0.467680	-23.388393	-3.411990	0.092117	-0.734762	-0.672041
-0.232738	-23.410715	-3.411785	-0.046165	-0.734762	-0.676752
0.232738	-23.410715	-3.411785	0.046165	-0.734762	-0.676752
-1.689051	-23.053572	-3.411318	-0.300986	-0.734762	-0.607892
1.689051	-23.053572	-3.411318	0.300986	-0.734762	-0.607892
-0.952720	-23.299107	-3.410018	-0.182526	-0.734762	-0.653306
0.952720	-23.299107	-3.410018	0.182526	-0.734762	-0.653306
-1.798177	-23.008928	-3.409843	-0.316413	-0.734762	-0.600007
1.798177	-23.008928	-3.409843	0.316413	-0.734762	-0.600007
-0.859413	-23.321428	-3.409792	-0.165782	-0.734762	-0.657755
0.859413	-23.321428	-3.409792	0.165782	-0.734762	-0.657755
-0.261777	-23.410715	-3.409680	-0.051925	-0.734762	-0.676335
0.261777	-23.410715	-3.409680	0.051925	-0.734762	-0.676335
-1.949235	-22.941965	-3.409612	-0.336659	-0.734762	-0.588885
1.949235	-22.941965	-3.409612	0.336659	-0.734762	-0.588885
-1.581037	-23.098215	-3.409472	-0.285363	-0.734762	-0.615380
1.581037	-23.098215	-3.409472	0.285363	-0.734762	-0.615380
-0.496712	-23.388393	-3.407884	-0.097835	-0.734762	-0.671233
0.496712	-23.388393	-3.407884	0.097835	-0.734762	-0.671233
-1.046595	-23.276785	-3.407688	-0.199151	-0.734762	-0.648432
1.046595	-23.276785	-3.407688	0.199151	-0.734762	-0.648432
-1.339769	-23.187500	-3.407580	-0.248204	-0.734762	-0.631284
1.339769	-23.187500	-3.407580	0.248204	-0.734762	-0.631284
-0.645791	-23.366072	-3.407414	-0.126311	-0.734762	-0.666461
0.645791	-23.366072	-3.407414	0.126311	-0.734762	-0.666461
-0.290796	-23.410715	-3.407328	-0.057682	-0.734762	-0.675868
0.290796	-23.410715	-3.407328	0.057682	-0.734762	-0.675868
-1.273092	-23.209822	-3.407249	-0.237419	-0.734762	-0.635419
1.273092	-23.209822	-3.407249	0.237419	-0.734762	-0.635419
-0.766743	-23.343750	-3.407039	-0.148930	-0.734762	-0.661774
0.766743	-23.343750	-3.407039	0.148930	-0.734762	-0.661774
-1.406824	-23.165178	-3.406622	-0.258917	-0.734762	-0.626967
1.406824	-23.165178	-3.406622	0.258917	-0.734762	-0.626967
-1.206817	-23.232143	-3.405642	-0.226566	-0.734762	-0.639369
1.206817	-23.232143	-3.405642	0.226566	-0.734762	-0.639369
-1.908316	-22.964285	-3.404992	-0.331633	-0.734762	-0.591730
1.908316	-22.964285	-3.404992	0.331633	-0.734762	-0.591730
-0.319795	-23.410715	-3.404729	-0.063434	-0.734762	-0.675353
0.319795	-23.410715	-3.404729	0.063434	-0.734762	-0.675353
-1.474231	-23.142857	-3.404362	-0.269554	-0.734762	-0.622467
1.474231	-23.142857	-3.404362	0.269554	-0.734762	-0.622467
-1.649403	-23.075893	-3.403816	-0.295800	-0.734762	-0.610432
1.649403	-23.075893	-3.403816	0.295800	-0.734762	-0.610432
-1.757986	-23.031250	-3.403547	-0.311293	-0.734762	-0.602679
1.757986	-23.031250	-3.403547	0.311293	-0.734762	-0.602679
-0.525708	-23.388393	-3.403532	-0.103546	-0.734762	-0.670375
0.525708	-23.388393	-3.403532	0.103546	-0.734762	-0.670375
-2.102321	-22.875000	-3.402976	-0.356514	-0.734762	-0.577081
2.102321	-22.875000	-3.402976	0.356514	-0.734762	-0.577081
-1.140968	-23.254465	-3.402772	-0.215646	-0.734762	-0.643134
1.140968	-23.254465	-3.402772	0.215646	-0.734762	-0.643134
-0.888412	-23.321428	-3.402351	-0.171376	-0.734762	-0.656319
0.888412	-23.321428	-3.402351	0.171376	-0.734762	-0.656319
-0.348770	-23.410715	-3.401883	-0.069181	-0.734762	-0.674788
0.348770	-23.410715	-3.401883	0.069181	-0.734762	-0.674788
-0.674777	-23.366072	-3.401793	-0.131981	-0.734762	-0.665362
0.674777	-23.366072	-3.401793	0.131981	-0.734762	-0.665362
-0.981717	-23.299107	-3.401783	-0.188082	-0.734762	-0.651729
0.981717	-23.299107	-3.401783	0.188082	-0.734762	-0.651729
-1.541968	-23.120535	-3.400788	-0.280114	-0.734762	-0.617787
1.541968	-23.120535	-3.400788	0.280114	-0.734762	-0.617787
-0.795721	-23.343750	-3.400388	-0.154559	-0.734762	-0.660482
0.795721	-23.343750	-3.400388	0.154559	-0.734762	-0.660482
-2.060741	-22.897322	-3.400074	-0.351588	-0.734762	-0.580095
2.060741	-22.897322	-3.400074	0.351588	-0.734762	-0.580095
-1.867616	-22.986607	-3.399924	-0.326583	-0.734762	-0.594532
1.867616	-22.986607	-3.399924	0.326583	-0.734762	-0.594532
-0.554665	-23.388393	-3.398933	-0.109249	-0.734762	-0.669470
0.554665	-23.388393	-3.398933	0.109249	-0.734762	-0.669470
-0.377720	-23.410715	-3.398790	-0.074923	-0.734762	-0.674175
0.377720	-23.410715	-3.398790	0.074923	-0.734762	-0.674175
-1.075569	-23.276785	-3.398654	-0.204665	-0.734762	-0.646713
1.075569	-23.276785	-3.398654	0.204665	-0.734762	-0.646713
-1.718033	-23.053572	-3.396815	-0.306151	-0.734762	-0.605307
1.718033	-23.053572	-3.396815	0.306151	-0.734762	-0.605307
-2.019363	-22.919643	-3.396712	-0.346637	-0.734762	-0.583068
2.019363	-22.919643	-3.396712	0.346637	-0.734762	-0.583068
-1.302054	-23.209822	-3.396287	-0.242820	-0.734762	-0.633375
1.302054	-23.209822	-3.396287	0.242820	-0.734762	-0.633375
-1.368731	-23.187500	-3.396050	-0.253570	-0.734762	-0.629148
1.368731	-23.187500	-3.396050	0.253570	-0.734762	-0.629148
-0.703714	-23.366072	-3.395925	-0.137641	-0.734762	-0.664214
0.703714	-23.366072	-3.395925	0.137641	-0.734762	-0.664214
-1.610007	-23.098215	-3.395888	-0.290592	-0.734762	-0.612928
1.610007	-23.098215	-3.395888	0.290592	-0.734762	-0.612928
0.000000	-23.433035	-3.395536	0.000000	-0.734762	-0.678325
-0.406642	-23.410715	-3.395451	-0.080660	-0.734762	-0.673512
0.406642	-23.410715	-3.395451	0.080660	-0.734762	-0.673512
0.028909	-23.433035	-3.395413	0.005775	-0.734762	-0.678301
-0.028909	-23.433035	-3.395413	-0.005775	-0.734762	-0.678301
-1.235768	-23.232143	-3.395244	-0.232001	-0.734762	-0.637417
1.235768	-23.232143	-3.395244	0.232001	-0.734762	-0.637417
-0.057815	-23.433035	-3.395043	-0.011550	-0.734762	-0.678227
0.057815	-23.433035	-3.395043	0.011550	-0.734762	-0.678227
-0.917346	-23.321428	-3.394664	-0.176958	-0.734762	-0.654837
0.917346	-23.321428	-3.394664	0.176958	-0.734762	-0.654837
-1.435776	-23.165178	-3.394521	-0.264245	-0.734762	-0.624740
1.435776	-23.165178	-3.394521	0.264245	-0.734762	-0.624740
-0.086717	-23.433035	-3.394428	-0.017323	-0.734762	-0.678104
0.086717	-23.433035	-3.394428	0.017323	-0.734762	-0.678104
-1.827143	-23.008928	-3.394411	-0.321510	-0.734762	-0.597291
1.827143	-23.008928	-3.394411	0.321510	-0.734762	-0.597291
-0.583583	-23.388393	-3.394087	-0.114945	-0.734762	-0.668515
0.583583	-23.388393	-3.394087	0.114945	-0.734762	-0.668515
-0.115613	-23.433035	-3.393567	-0.023096	-0.734762	-0.677932
0.115613	-23.433035	-3.393567	0.023096	-0.734762	-0.677932
-0.824642	-23.343750	-3.393490	-0.160176	-0.734762	-0.659142
0.824642	-23.343750	-3.393490	0.160176	-0.734762	-0.659142
-1.010644	-23.299107	-3.393302	-0.193624	-0.734762	-0.650104
1.010644	-23.299107	-3.393302	0.193624	-0.734762	-0.650104
-1.169897	-23.254465	-3.392935	-0.221114	-0.734762	-0.641275
1.169897	-23.254465	-3.392935	0.221114	-0.734762	-0.641275
-1.978193	-22.941965	-3.392894	-0.341660	-0.734762	-0.585998
1.978193	-22.941965	-3.392894	0.341660	-0.734762	-0.585998
-0.144501	-23.433035	-3.392460	-0.028867	-0.734762	-0.677711
0.144501	-23.433035	-3.392460	0.028867	-0.734762	-0.677711
-0.435535	-23.410715	-3.391866	-0.086392	-0.734762	-0.672801
0.435535	-23.410715	-3.391866	0.086392	-0.734762	-0.672801
-1.503162	-23.142857	-3.391688	-0.274844	-0.734762	-0.620150
1.503162	-23.142857	-3.391688	0.274844	-0.734762	-0.620150
-0.173378	-23.433035	-3.391106	-0.034636	-0.734762	-0.677440
0.173378	-23.433035	-3.391106	0.034636	-0.734762	-0.677440
-0.732601	-23.366072	-3.389811	-0.143290	-0.734762	-0.663018
0.732601	-23.366072	-3.389811	0.143290	-0.734762	-0.663018
-1.678323	-23.075893	-3.389650	-0.300986	-0.734762	-0.607892
1.678323	-23.075893	-3.389650	0.300986	-0.734762	-0.607892
-0.202243	-23.433035	-3.389508	-0.040402	-0.734762	-0.677121
0.202243	-23.433035	-3.389508	0.040402	-0.734762	-0.677121
-1.104465	-23.276785	-3.389374	-0.210163	-0.734762	-0.644947
1.104465	-23.276785	-3.389374	0.210163	-0.734762	-0.644947
-0.612458	-23.388393	-3.388996	-0.120633	-0.734762	-0.667512
0.612458	-23.388393	-3.388996	0.120633	-0.734762	-0.667512
-1.937235	-22.964285	-3.388622	-0.336659	-0.734762	-0.588885
1.937235	-22.964285	-3.388622	0.336659	-0.734762	-0.588885
-1.786899	-23.031250	-3.388456	-0.316413	-0.734762	-0.600007
1.786899	-23.031250	-3.388456	0.316413	-0.734762	-0.600007
-0.464397	-23.410715	-3.388035	-0.092117	-0.734762	-0.672041
0.464397	-23.410715	-3.388035	0.092117	-0.734762	-0.672041
-0.231093	-23.433035	-3.387663	-0.046165	-0.734762	-0.676752
0.231093	-23.433035	-3.387663	0.046165	-0.734762	-0.676752
-1.570865	-23.120535	-3.387537	-0.285363	-0.734762	-0.615380
1.570865	-23.120535	-3.387537	0.285363	-0.734762	-0.615380
-0.946214	-23.321428	-3.386731	-0.182526	-0.734762	-0.653306
0.946214	-23.321428	-3.386731	0.182526	-0.734762	-0.653306
-0.853504	-23.343750	-3.386346	-0.165782	-0.734762	-0.657755
0.853504	-23.343750	-3.386346	0.165782	-0.734762	-0.657755
-0.259926	-23.433035	-3.385572	-0.051925	-0.734762	-0.676335
0.259926	-23.433035	-3.385572	0.051925	-0.734762	-0.676335
-1.330922	-23.209822	-3.385078	-0.248204	-0.734762	-0.631284
1.330922	-23.209822	-3.385078	0.248204	-0.734762	-0.631284
-2.131217	-22.875000	-3.384954	-0.361415	-0.734762	-0.574025
2.131217	-22.875000	-3.384954	0.361415	-0.734762	-0.574025
-1.264629	-23.232143	-3.384600	-0.237419	-0.734762	-0.635419
1.264629	-23.232143	-3.384600	0.237419	-0.734762	-0.635419
-1.039497	-23.299107	-3.384575	-0.199151	-0.734762	-0.648432
1.039497	-23.299107	-3.384575	0.199151	-0.734762	-0.648432
-1.397595	-23.187500	-3.384274	-0.258917	-0.734762	-0.626967
1.397595	-23.187500	-3.384274	0.258917	-0.734762	-0.626967
-0.493225	-23.410715	-3.383959	-0.097835	-0.734762	-0.671233
0.493225	-23.410715	-3.383959	0.097835	-0.734762	-0.671233
-1.896495	-22.986607	-3.383900	-0.331633	-0.734762	-0.591730
1.896495	-22.986607	-3.383900	0.331633	-0.734762	-0.591730
-0.641289	-23.388393	-3.383659	-0.126311	-0.734762	-0.666461
0.641289	-23.388393	-3.383659	0.126311	-0.734762	-0.666461
-0.761434	-23.366072	-3.383451	-0.148930	-0.734762	-0.661774
0.761434	-23.366072	-3.383451	0.148930	-0.734762	-0.661774
-0.288740	-23.433035	-3.383237	-0.057682	-0.734762	-0.675868
0.288740	-23.433035	-3.383237	0.057682	-0.734762	-0.675868
-1.198741	-23.254465	-3.382852	-0.226566	-0.734762	-0.639369
1.198741	-23.254465	-3.382852	0.226566	-0.734762	-0.639369
-2.089613	-22.897322	-3.382406	-0.356514	-0.734762	-0.577081
2.089613	-22.897322	-3.382406	0.356514	-0.734762	-0.577081
-1.464623	-23.165178	-3.382174	-0.269554	-0.734762	-0.622467
1.464623	-23.165178	-3.382174	0.269554	-0.734762	-0.622467
-1.746890	-23.053572	-3.382065	-0.311293	-0.734762	-0.602679
1.746890	-23.053572	-3.382065	0.311293	-0.734762	-0.602679
-1.638860	-23.098215	-3.382057	-0.295800	-0.734762	-0.610432
1.638860	-23.098215	-3.382057	0.295800	-0.734762	-0.610432
-0.317533	-23.433035	-3.380656	-0.063434	-0.734762	-0.675353
0.317533	-23.433035	-3.380656	0.063434	-0.734762	-0.675353
-1.133281	-23.276785	-3.379848	-0.215646	-0.734762	-0.643134
1.133281	-23.276785	-3.379848	0.215646	-0.734762	-0.643134
-0.522017	-23.410715	-3.379637	-0.103546	-0.734762	-0.670375
0.522017	-23.410715	-3.379637	0.103546	-0.734762	-0.670375
-2.048209	-22.919643	-3.379397	-0.351588	-0.734762	-0.580095
2.048209	-22.919643	-3.379397	0.351588	-0.734762	-0.580095
-0.882303	-23.343750	-3.378957	-0.171376	-0.734762	-0.656319
0.882303	-23.343750	-3.378957	0.171376	-0.734762	-0.656319
-1.531983	-23.142857	-3.378767	-0.280114	-0.734762	-0.617787
1.531983	-23.142857	-3.378767	0.280114	-0.734762	-0.617787
-1.855976	-23.008928	-3.378732	-0.326583	-0.734762	-0.594532
1.855976	-23.008928	-3.378732	0.326583	-0.734762	-0.594532
-0.975013	-23.321428	-3.378553	-0.188082	-0.734762	-0.651729
0.975013	-23.321428	-3.378553	0.188082	-0.734762	-0.651729
-0.670073	-23.388393	-3.378077	-0.131981	-0.734762	-0.665362
0.670073	-23.388393	-3.378077	0.131981	-0.734762	-0.665362
-0.346304	-23.433035	-3.377830	-0.069181	-0.734762	-0.674788
0.346304	-23.433035	-3.377830	0.069181	-0.734762	-0.674788
-0.790212	-23.366072	-3.376845	-0.154559	-0.734762	-0.660482
0.790212	-23.366072	-3.376845	0.154559	-0.734762	-0.660482
-2.007008	-22.941965	-3.375929	-0.346637	-0.734762	-0.583068
2.007008	-22.941965	-3.375929	0.346637	-0.734762	-0.583068
-1.068274	-23.299107	-3.375602	-0.204665	-0.734762	-0.646713
1.068274	-23.299107	-3.375602	0.204665	-0.734762	-0.646713
-1.707120	-23.075893	-3.375239	-0.306151	-0.734762	-0.605307
1.707120	-23.075893	-3.375239	0.306151	-0.734762	-0.605307
-0.550771	-23.410715	-3.375070	-0.109249	-0.734762	-0.669470
0.550771	-23.410715	-3.375070	0.109249	-0.734762	-0.669470
-0.375049	-23.433035	-3.374759	-0.074923	-0.734762	-0.674175
0.375049	-23.433035	-3.374759	0.074923	-0.734762	-0.674175
-1.599649	-23.120535	-3.374040	-0.290592	-0.734762	-0.612928
1.599649	-23.120535	-3.374040	0.290592	-0.734762	-0.612928
-1.293399	-23.232143	-3.373710	-0.242820	-0.734762	-0.633375
1.293399	-23.232143	-3.373710	0.242820	-0.734762	-0.633375
-1.359693	-23.209822	-3.373625	-0.253570	-0.734762	-0.629148
1.359693	-23.209822	-3.373625	0.253570	-0.734762	-0.629148
-1.815683	-23.031250	-3.373121	-0.321510	-0.734762	-0.597291
1.815683	-23.031250	-3.373121	0.321510	-0.734762	-0.597291
-1.227498	-23.254465	-3.372523	-0.232001	-0.734762	-0.637417
1.227498	-23.254465	-3.372523	0.232001	-0.734762	-0.637417
-1.426357	-23.187500	-3.372253	-0.264245	-0.734762	-0.624740
1.426357	-23.187500	-3.372253	0.264245	-0.734762	-0.624740
-0.698808	-23.388393	-3.372249	-0.137641	-0.734762	-0.664214
0.698808	-23.388393	-3.372249	0.137641	-0.734762	-0.664214
-1.966015	-22.964285	-3.372006	-0.341660	-0.734762	-0.585998
1.966015	-22.964285	-3.372006	0.341660	-0.734762	-0.585998
-0.403767	-23.433035	-3.371444	-0.080660	-0.734762	-0.673512
0.403767	-23.433035	-3.371444	0.080660	-0.734762	-0.673512
0.000000	-23.455357	-3.371357	0.000000	-0.734762	-0.678325
-0.911039	-23.343750	-3.371323	-0.176958	-0.734762	-0.654837
0.911039	-23.343750	-3.371323	0.176958	-0.734762	-0.654837
-0.028703	-23.455357	-3.371235	-0.005775	-0.734762	-0.678301
0.028703	-23.455357	-3.371235	0.005775	-0.734762	-0.678301
-0.057403	-23.455357	-3.370868	-0.011550	-0.734762	-0.678227
0.057403	-23.455357	-3.370868	0.011550	-0.734762	-0.678227
-0.579486	-23.410715	-3.370259	-0.114945	-0.734762	-0.668515
0.579486	-23.410715	-3.370259	0.114945	-0.734762	-0.668515
-0.086100	-23.455357	-3.370258	-0.017323	-0.734762	-0.678104
0.086100	-23.455357	-3.370258	0.017323	-0.734762	-0.678104
-1.003742	-23.321428	-3.370129	-0.193624	-0.734762	-0.650104
1.003742	-23.321428	-3.370129	0.193624	-0.734762	-0.650104
-1.162015	-23.276785	-3.370077	-0.221114	-0.734762	-0.641275
1.162015	-23.276785	-3.370077	0.221114	-0.734762	-0.641275
-0.818933	-23.366072	-3.369995	-0.160176	-0.734762	-0.659142
0.818933	-23.366072	-3.369995	0.160176	-0.734762	-0.659142
-1.493365	-23.165178	-3.369583	-0.274844	-0.734762	-0.620150
1.493365	-23.165178	-3.369583	0.274844	-0.734762	-0.620150
-0.114790	-23.455357	-3.369402	-0.023096	-0.734762	-0.677932
0.114790	-23.455357	-3.369402	0.023096	-0.734762	-0.677932
-0.143472	-23.455357	-3.368303	-0.028867	-0.734762	-0.677711
0.143472	-23.455357	-3.368303	0.028867	-0.734762	-0.677711
-1.667594	-23.098215	-3.367982	-0.300986	-0.734762	-0.607892
1.667594	-23.098215	-3.367982	0.300986	-0.734762	-0.607892
-0.432456	-23.433035	-3.367884	-0.086392	-0.734762	-0.672801
0.432456	-23.433035	-3.367884	0.086392	-0.734762	-0.672801
-1.925235	-22.986607	-3.367631	-0.336659	-0.734762	-0.588885
1.925235	-22.986607	-3.367631	0.336659	-0.734762	-0.588885
-1.775621	-23.053572	-3.367069	-0.316413	-0.734762	-0.600007
1.775621	-23.053572	-3.367069	0.316413	-0.734762	-0.600007
-0.172144	-23.455357	-3.366959	-0.034636	-0.734762	-0.677440
0.172144	-23.455357	-3.366959	0.034636	-0.734762	-0.677440
-2.159958	-22.875000	-3.366687	-0.366289	-0.734762	-0.570927
2.159958	-22.875000	-3.366687	0.366289	-0.734762	-0.570927
-1.096974	-23.299107	-3.366385	-0.210163	-0.734762	-0.644947
1.096974	-23.299107	-3.366385	0.210163	-0.734762	-0.644947
-0.727493	-23.388393	-3.366178	-0.143290	-0.734762	-0.663018
0.727493	-23.388393	-3.366178	0.143290	-0.734762	-0.663018
-1.560693	-23.142857	-3.365602	-0.285363	-0.734762	-0.615380
1.560693	-23.142857	-3.365602	0.285363	-0.734762	-0.615380
-0.200803	-23.455357	-3.365372	-0.040402	-0.734762	-0.677121
0.200803	-23.455357	-3.365372	0.040402	-0.734762	-0.677121
-0.608158	-23.410715	-3.365203	-0.120633	-0.734762	-0.667512
0.608158	-23.410715	-3.365203	0.120633	-0.734762	-0.667512
-2.118335	-22.897322	-3.364493	-0.361415	-0.734762	-0.574025
2.118335	-22.897322	-3.364493	0.361415	-0.734762	-0.574025
-0.461113	-23.433035	-3.364080	-0.092117	-0.734762	-0.672041
0.461113	-23.433035	-3.364080	0.092117	-0.734762	-0.672041
-0.229447	-23.455357	-3.363540	-0.046165	-0.734762	-0.676752
0.229447	-23.455357	-3.363540	0.046165	-0.734762	-0.676752
-0.939708	-23.343750	-3.363445	-0.182526	-0.734762	-0.653306
0.939708	-23.343750	-3.363445	0.182526	-0.734762	-0.653306
-0.847594	-23.366072	-3.362901	-0.165782	-0.734762	-0.657755
0.847594	-23.366072	-3.362901	0.165782	-0.734762	-0.657755
-1.884674	-23.008928	-3.362808	-0.331633	-0.734762	-0.591730
1.884674	-23.008928	-3.362808	0.331633	-0.734762	-0.591730
-1.322074	-23.232143	-3.362576	-0.248204	-0.734762	-0.631284
1.322074	-23.232143	-3.362576	0.248204	-0.734762	-0.631284
-1.256166	-23.254465	-3.361950	-0.237419	-0.734762	-0.635419
1.256166	-23.254465	-3.361950	0.237419	-0.734762	-0.635419
-1.388366	-23.209822	-3.361926	-0.258917	-0.734762	-0.626967
1.388366	-23.209822	-3.361926	0.258917	-0.734762	-0.626967
-2.076906	-22.919643	-3.361836	-0.356514	-0.734762	-0.577081
2.076906	-22.919643	-3.361836	0.356514	-0.734762	-0.577081
-0.258075	-23.455357	-3.361465	-0.051925	-0.734762	-0.676335
0.258075	-23.455357	-3.361465	0.051925	-0.734762	-0.676335
-1.032398	-23.321428	-3.361462	-0.199151	-0.734762	-0.648432
1.032398	-23.321428	-3.361462	0.199151	-0.734762	-0.648432
-1.735794	-23.075893	-3.360582	-0.311293	-0.734762	-0.602679
1.735794	-23.075893	-3.360582	0.311293	-0.734762	-0.602679
-1.628316	-23.120535	-3.360299	-0.295800	-0.734762	-0.610432
1.628316	-23.120535	-3.360299	0.295800	-0.734762	-0.610432
-1.190665	-23.276785	-3.360062	-0.226566	-0.734762	-0.639369
1.190665	-23.276785	-3.360062	0.226566	-0.734762	-0.639369
-0.489738	-23.433035	-3.360033	-0.097835	-0.734762	-0.671233
0.489738	-23.433035	-3.360033	0.097835	-0.734762	-0.671233
-1.455015	-23.187500	-3.359987	-0.269554	-0.734762	-0.622467
1.455015	-23.187500	-3.359987	0.269554	-0.734762	-0.622467
-0.636786	-23.410715	-3.359903	-0.126311	-0.734762	-0.666461
0.636786	-23.410715	-3.359903	0.126311	-0.734762	-0.666461
-0.756126	-23.388393	-3.359862	-0.148930	-0.734762	-0.661774
0.756126	-23.388393	-3.359862	0.148930	-0.734762	-0.661774
-0.286684	-23.455357	-3.359146	-0.057682	-0.734762	-0.675868
0.286684	-23.455357	-3.359146	0.057682	-0.734762	-0.675868
-2.035676	-22.941965	-3.358720	-0.351588	-0.734762	-0.580095
2.035676	-22.941965	-3.358720	0.351588	-0.734762	-0.580095
-1.844335	-23.031250	-3.357540	-0.326583	-0.734762	-0.594532
1.844335	-23.031250	-3.357540	0.326583	-0.734762	-0.594532
-1.125595	-23.299107	-3.356923	-0.215646	-0.734762	-0.643134
1.125595	-23.299107	-3.356923	0.215646	-0.734762	-0.643134
-1.521999	-23.165178	-3.356746	-0.280114	-0.734762	-0.617787
1.521999	-23.165178	-3.356746	0.280114	-0.734762	-0.617787
-0.315272	-23.455357	-3.356583	-0.063434	-0.734762	-0.675353
0.315272	-23.455357	-3.356583	0.063434	-0.734762	-0.675353
-0.518326	-23.433035	-3.355742	-0.103546	-0.734762	-0.670375
0.518326	-23.433035	-3.355742	0.103546	-0.734762	-0.670375
-0.876194	-23.366072	-3.355563	-0.171376	-0.734762	-0.656319
0.876194	-23.366072	-3.355563	0.171376	-0.734762	-0.656319
-0.968309	-23.343750	-3.355322	-0.188082	-0.734762	-0.651729
0.968309	-23.343750	-3.355322	0.188082	-0.734762	-0.651729
-1.994652	-22.964285	-3.355146	-0.346637	-0.734762	-0.583068
1.994652	-22.964285	-3.355146	0.346637	-0.734762	-0.583068
-0.665368	-23.410715	-3.354360	-0.131981	-0.734762	-0.665362
0.665368	-23.410715	-3.354360	0.131981	-0.734762	-0.665362
-0.343838	-23.455357	-3.353778	-0.069181	-0.734762	-0.674788
0.343838	-23.455357	-3.353778	0.069181	-0.734762	-0.674788
-1.696208	-23.098215	-3.353663	-0.306151	-0.734762	-0.605307
1.696208	-23.098215	-3.353663	0.306151	-0.734762	-0.605307
-0.784703	-23.388393	-3.353303	-0.154559	-0.734762	-0.660482
0.784703	-23.388393	-3.353303	0.154559	-0.734762	-0.660482
-1.060979	-23.321428	-3.352550	-0.204665	-0.734762	-0.646713
1.060979	-23.321428	-3.352550	0.204665	-0.734762	-0.646713
-1.589290	-23.142857	-3.352193	-0.290592	-0.734762	-0.612928
1.589290	-23.142857	-3.352193	0.290592	-0.734762	-0.612928
-1.804223	-23.053572	-3.351830	-0.321510	-0.734762	-0.597291
1.804223	-23.053572	-3.351830	0.321510	-0.734762	-0.597291
-0.546877	-23.433035	-3.351207	-0.109249	-0.734762	-0.669470
0.546877	-23.433035	-3.351207	0.109249	-0.734762	-0.669470
-1.350654	-23.232143	-3.351199	-0.253570	-0.734762	-0.629148
1.350654	-23.232143	-3.351199	0.253570	-0.734762	-0.629148
-1.284743	-23.254465	-3.351134	-0.242820	-0.734762	-0.633375
1.284743	-23.254465	-3.351134	0.242820	-0.734762	-0.633375
-1.953837	-22.986607	-3.351118	-0.341660	-0.734762	-0.585998
1.953837	-22.986607	-3.351118	0.341660	-0.734762	-0.585998
-0.372378	-23.455357	-3.350729	-0.074923	-0.734762	-0.674175
0.372378	-23.455357	-3.350729	0.074923	-0.734762	-0.674175
-1.416938	-23.209822	-3.349984	-0.264245	-0.734762	-0.624740
1.416938	-23.209822	-3.349984	0.264245	-0.734762	-0.624740
-1.219229	-23.276785	-3.349803	-0.232001	-0.734762	-0.637417
1.219229	-23.276785	-3.349803	0.232001	-0.734762	-0.637417
-0.693902	-23.410715	-3.348574	-0.137641	-0.734762	-0.664214
0.693902	-23.410715	-3.348574	0.137641	-0.734762	-0.664214
-2.188543	-22.875000	-3.348176	-0.371136	-0.734762	-0.567788
2.188543	-22.875000	-3.348176	0.371136	-0.734762	-0.567788
-0.904731	-23.366072	-3.347982	-0.176958	-0.734762	-0.654837
0.904731	-23.366072	-3.347982	0.176958	-0.734762	-0.654837
-1.483568	-23.187500	-3.347478	-0.274844	-0.734762	-0.620150
1.483568	-23.187500	-3.347478	0.274844	-0.734762	-0.620150
-0.400892	-23.455357	-3.347437	-0.080660	-0.734762	-0.673512
0.400892	-23.455357	-3.347437	0.080660	-0.734762	-0.673512
-1.154134	-23.299107	-3.347219	-0.221114	-0.734762	-0.641275
1.154134	-23.299107	-3.347219	0.221114	-0.734762	-0.641275
0.000000	-23.477678	-3.347178	0.000000	-0.734762	-0.678325
-0.028497	-23.477678	-3.347057	-0.005775	-0.734762	-0.678301
0.028497	-23.477678	-3.347057	0.005775	-0.734762	-0.678301
-0.996840	-23.343750	-3.346957	-0.193624	-0.734762	-0.650104
0.996840	-23.343750	-3.346957	0.193624	-0.734762	-0.650104
-0.056992	-23.477678	-3.346693	-0.011550	-0.734762	-0.678227
0.056992	-23.477678	-3.346693	0.011550	-0.734762	-0.678227
-1.913235	-23.008928	-3.346641	-0.336659	-0.734762	-0.588885
1.913235	-23.008928	-3.346641	0.336659	-0.734762	-0.588885
-0.813224	-23.388393	-3.346500	-0.160176	-0.734762	-0.659142
0.813224	-23.388393	-3.346500	0.160176	-0.734762	-0.659142
-0.575388	-23.433035	-3.346430	-0.114945	-0.734762	-0.668515
0.575388	-23.433035	-3.346430	0.114945	-0.734762	-0.668515
-2.146902	-22.897322	-3.346337	-0.366289	-0.734762	-0.570927
2.146902	-22.897322	-3.346337	0.366289	-0.734762	-0.570927
-1.656866	-23.120535	-3.346314	-0.300986	-0.734762	-0.607892
1.656866	-23.120535	-3.346314	0.300986	-0.734762	-0.607892
-0.085482	-23.477678	-3.346087	-0.017323	-0.734762	-0.678104
0.085482	-23.477678	-3.346087	0.017323	-0.734762	-0.678104
-1.764342	-23.075893	-3.345683	-0.316413	-0.734762	-0.600007
1.764342	-23.075893	-3.345683	0.316413	-0.734762	-0.600007
-0.113967	-23.477678	-3.345238	-0.023096	-0.734762	-0.677932
0.113967	-23.477678	-3.345238	0.023096	-0.734762	-0.677932
-0.142443	-23.477678	-3.344146	-0.028867	-0.734762	-0.677711
0.142443	-23.477678	-3.344146	0.028867	-0.734762	-0.677711
-2.105452	-22.919643	-3.344033	-0.361415	-0.734762	-0.574025
2.105452	-22.919643	-3.344033	0.361415	-0.734762	-0.574025
-0.429377	-23.455357	-3.343903	-0.086392	-0.734762	-0.672801
0.429377	-23.455357	-3.343903	0.086392	-0.734762	-0.672801
-1.550522	-23.165178	-3.343667	-0.285363	-0.734762	-0.615380
1.550522	-23.165178	-3.343667	0.285363	-0.734762	-0.615380
-1.089483	-23.321428	-3.343396	-0.210163	-0.734762	-0.644947
1.089483	-23.321428	-3.343396	0.210163	-0.734762	-0.644947
-0.170909	-23.477678	-3.342812	-0.034636	-0.734762	-0.677440
0.170909	-23.477678	-3.342812	0.034636	-0.734762	-0.677440
-0.722386	-23.410715	-3.342545	-0.143290	-0.734762	-0.663018
0.722386	-23.410715	-3.342545	0.143290	-0.734762	-0.663018
-1.872853	-23.031250	-3.341716	-0.331633	-0.734762	-0.591730
1.872853	-23.031250	-3.341716	0.331633	-0.734762	-0.591730
-0.603858	-23.433035	-3.341410	-0.120633	-0.734762	-0.667512
0.603858	-23.433035	-3.341410	0.120633	-0.734762	-0.667512
-2.064198	-22.941965	-3.341267	-0.356514	-0.734762	-0.577081
2.064198	-22.941965	-3.341267	0.356514	-0.734762	-0.577081
-0.199362	-23.477678	-3.341236	-0.040402	-0.734762	-0.677121
0.199362	-23.477678	-3.341236	0.040402	-0.734762	-0.677121
-0.933202	-23.366072	-3.340158	-0.182526	-0.734762	-0.653306
0.933202	-23.366072	-3.340158	0.182526	-0.734762	-0.653306
-0.457830	-23.455357	-3.340126	-0.092117	-0.734762	-0.672041
0.457830	-23.455357	-3.340126	0.092117	-0.734762	-0.672041
-1.313227	-23.254465	-3.340075	-0.248204	-0.734762	-0.631284
1.313227	-23.254465	-3.340075	0.248204	-0.734762	-0.631284
-1.379137	-23.232143	-3.339578	-0.258917	-0.734762	-0.626967
1.379137	-23.232143	-3.339578	0.258917	-0.734762	-0.626967
-0.841685	-23.388393	-3.339456	-0.165782	-0.734762	-0.657755
0.841685	-23.388393	-3.339456	0.165782	-0.734762	-0.657755
-0.227801	-23.477678	-3.339418	-0.046165	-0.734762	-0.676752
0.227801	-23.477678	-3.339418	0.046165	-0.734762	-0.676752
-1.247704	-23.276785	-3.339301	-0.237419	-0.734762	-0.635419
1.247704	-23.276785	-3.339301	0.237419	-0.734762	-0.635419
-1.724698	-23.098215	-3.339100	-0.311293	-0.734762	-0.602679
1.724698	-23.098215	-3.339100	0.311293	-0.734762	-0.602679
-1.617772	-23.142857	-3.338540	-0.295800	-0.734762	-0.610432
1.617772	-23.142857	-3.338540	0.295800	-0.734762	-0.610432
-1.025299	-23.343750	-3.338349	-0.199151	-0.734762	-0.648432
1.025299	-23.343750	-3.338349	0.199151	-0.734762	-0.648432
-2.023144	-22.964285	-3.338042	-0.351588	-0.734762	-0.580095
2.023144	-22.964285	-3.338042	0.351588	-0.734762	-0.580095
-1.445407	-23.209822	-3.337800	-0.269554	-0.734762	-0.622467
1.445407	-23.209822	-3.337800	0.269554	-0.734762	-0.622467
-0.256224	-23.477678	-3.337357	-0.051925	-0.734762	-0.676335
0.256224	-23.477678	-3.337357	0.051925	-0.734762	-0.676335
-1.182589	-23.299107	-3.337271	-0.226566	-0.734762	-0.639369
1.182589	-23.299107	-3.337271	0.226566	-0.734762	-0.639369
-1.832694	-23.053572	-3.336348	-0.326583	-0.734762	-0.594532
1.832694	-23.053572	-3.336348	0.326583	-0.734762	-0.594532
-0.750817	-23.410715	-3.336273	-0.148930	-0.734762	-0.661774
0.750817	-23.410715	-3.336273	0.148930	-0.734762	-0.661774
-0.632284	-23.433035	-3.336148	-0.126311	-0.734762	-0.666461
0.632284	-23.433035	-3.336148	0.126311	-0.734762	-0.666461
-0.486250	-23.455357	-3.336107	-0.097835	-0.734762	-0.671233
0.486250	-23.455357	-3.336107	0.097835	-0.734762	-0.671233
-0.284628	-23.477678	-3.335055	-0.057682	-0.734762	-0.675868
0.284628	-23.477678	-3.335055	0.057682	-0.734762	-0.675868
-1.512014	-23.187500	-3.334726	-0.280114	-0.734762	-0.617787
1.512014	-23.187500	-3.334726	0.280114	-0.734762	-0.617787
-1.982296	-22.986607	-3.334363	-0.346637	-0.734762	-0.583068
1.982296	-22.986607	-3.334363	0.346637	-0.734762	-0.583068
-1.117908	-23.321428	-3.333999	-0.215646	-0.734762	-0.643134
1.117908	-23.321428	-3.333999	0.215646	-0.734762	-0.643134
-0.313011	-23.477678	-3.332511	-0.063434	-0.734762	-0.675353
0.313011	-23.477678	-3.332511	0.063434	-0.734762	-0.675353
-0.870086	-23.388393	-3.332169	-0.171376	-0.734762	-0.656319
0.870086	-23.388393	-3.332169	0.171376	-0.734762	-0.656319
-0.961605	-23.366072	-3.332092	-0.188082	-0.734762	-0.651729
0.961605	-23.366072	-3.332092	0.188082	-0.734762	-0.651729
-1.685295	-23.120535	-3.332087	-0.306151	-0.734762	-0.605307
1.685295	-23.120535	-3.332087	0.306151	-0.734762	-0.605307
-0.514635	-23.455357	-3.331846	-0.103546	-0.734762	-0.670375
0.514635	-23.455357	-3.331846	0.103546	-0.734762	-0.670375
-0.660664	-23.433035	-3.330643	-0.131981	-0.734762	-0.665362
0.660664	-23.433035	-3.330643	0.131981	-0.734762	-0.665362
-1.792763	-23.075893	-3.330540	-0.321510	-0.734762	-0.597291
1.792763	-23.075893	-3.330540	0.321510	-0.734762	-0.597291
-1.578933	-23.165178	-3.330345	-0.290592	-0.734762	-0.612928
1.578933	-23.165178	-3.330345	0.290592	-0.734762	-0.612928
-1.941658	-23.008928	-3.330231	-0.341660	-0.734762	-0.585998
1.941658	-23.008928	-3.330231	0.341660	-0.734762	-0.585998
-0.779194	-23.410715	-3.329760	-0.154559	-0.734762	-0.660482
0.779194	-23.410715	-3.329760	0.154559	-0.734762	-0.660482
-0.341372	-23.477678	-3.329725	-0.069181	-0.734762	-0.674788
0.341372	-23.477678	-3.329725	0.069181	-0.734762	-0.674788
-1.053684	-23.343750	-3.329499	-0.204665	-0.734762	-0.646713
1.053684	-23.343750	-3.329499	0.204665	-0.734762	-0.646713
-2.216969	-22.875000	-3.329422	-0.375956	-0.734762	-0.564608
2.216969	-22.875000	-3.329422	0.375956	-0.734762	-0.564608
-1.341616	-23.254465	-3.328773	-0.253570	-0.734762	-0.629148
1.341616	-23.254465	-3.328773	0.253570	-0.734762	-0.629148
-1.276088	-23.276785	-3.328558	-0.242820	-0.734762	-0.633375
1.276088	-23.276785	-3.328558	0.242820	-0.734762	-0.633375
-2.175314	-22.897322	-3.327937	-0.371136	-0.734762	-0.567788
2.175314	-22.897322	-3.327937	0.371136	-0.734762	-0.567788
-1.407519	-23.232143	-3.327716	-0.264245	-0.734762	-0.624740
1.407519	-23.232143	-3.327716	0.264245	-0.734762	-0.624740
-0.542983	-23.455357	-3.327344	-0.109249	-0.734762	-0.669470
0.542983	-23.455357	-3.327344	0.109249	-0.734762	-0.669470
-1.210959	-23.299107	-3.327082	-0.232001	-0.734762	-0.637417
1.210959	-23.299107	-3.327082	0.232001	-0.734762	-0.637417
-0.369708	-23.477678	-3.326698	-0.074923	-0.734762	-0.674175
0.369708	-23.477678	-3.326698	0.074923	-0.734762	-0.674175
-2.133846	-22.919643	-3.325986	-0.366289	-0.734762	-0.570927
2.133846	-22.919643	-3.325986	0.366289	-0.734762	-0.570927
-1.901235	-23.031250	-3.325650	-0.336659	-0.734762	-0.588885
1.901235	-23.031250	-3.325650	0.336659	-0.734762	-0.588885
-1.473772	-23.209822	-3.325373	-0.274844	-0.734762	-0.620150
1.473772	-23.209822	-3.325373	0.274844	-0.734762	-0.620150
-0.688996	-23.433035	-3.324898	-0.137641	-0.734762	-0.664214
0.688996	-23.433035	-3.324898	0.137641	-0.734762	-0.664214
-1.646137	-23.142857	-3.324646	-0.300986	-0.734762	-0.607892
1.646137	-23.142857	-3.324646	0.300986	-0.734762	-0.607892
-0.898423	-23.388393	-3.324640	-0.176958	-0.734762	-0.654837
0.898423	-23.388393	-3.324640	0.176958	-0.734762	-0.654837
-1.146252	-23.321428	-3.324361	-0.221114	-0.734762	-0.641275
1.146252	-23.321428	-3.324361	0.221114	-0.734762	-0.641275
-1.753064	-23.098215	-3.324296	-0.316413	-0.734762	-0.600007
1.753064	-23.098215	-3.324296	0.316413	-0.734762	-0.600007
-0.989939	-23.366072	-3.323784	-0.193624	-0.734762	-0.650104
0.989939	-23.366072	-3.323784	0.193624	-0.734762	-0.650104
-2.092570	-22.941965	-3.323572	-0.361415	-0.734762	-0.574025
2.092570	-22.941965	-3.323572	0.361415	-0.734762	-0.574025
-0.398017	-23.477678	-3.323430	-0.080660	-0.734762	-0.673512
0.398017	-23.477678	-3.323430	0.080660	-0.734762	-0.673512
-0.807514	-23.410715	-3.323006	-0.160176	-0.734762	-0.659142
0.807514	-23.410715	-3.323006	0.160176	-0.734762	-0.659142
0.000000	-23.500000	-3.323000	0.000000	-0.734762	-0.678325
0.028291	-23.500000	-3.322880	0.005775	-0.734762	-0.678301
-0.028291	-23.500000	-3.322880	-0.005775	-0.734762	-0.678301
-0.571291	-23.455357	-3.322601	-0.114945	-0.734762	-0.668515
0.571291	-23.455357	-3.322601	0.114945	-0.734762	-0.668515
-0.056580	-23.500000	-3.322518	-0.011550	-0.734762	-0.678227
0.056580	-23.500000	-3.322518	0.011550	-0.734762	-0.678227
-0.084865	-23.500000	-3.321916	-0.017323	-0.734762	-0.678104
0.084865	-23.500000	-3.321916	0.017323	-0.734762	-0.678104
-1.540350	-23.187500	-3.321732	-0.285363	-0.734762	-0.615380
1.540350	-23.187500	-3.321732	0.285363	-0.734762	-0.615380
-0.113144	-23.500000	-3.321073	-0.023096	-0.734762	-0.677932
0.113144	-23.500000	-3.321073	0.023096	-0.734762	-0.677932
-2.051490	-22.964285	-3.320697	-0.356514	-0.734762	-0.577081
2.051490	-22.964285	-3.320697	0.356514	-0.734762	-0.577081
-1.861032	-23.053572	-3.320624	-0.331633	-0.734762	-0.591730
1.861032	-23.053572	-3.320624	0.331633	-0.734762	-0.591730
-1.081992	-23.343750	-3.320407	-0.210163	-0.734762	-0.644947
1.081992	-23.343750	-3.320407	0.210163	-0.734762	-0.644947
-0.141414	-23.500000	-3.319990	-0.028867	-0.734762	-0.677711
0.141414	-23.500000	-3.319990	0.028867	-0.734762	-0.677711
-0.426297	-23.477678	-3.319921	-0.086392	-0.734762	-0.672801
0.426297	-23.477678	-3.319921	0.086392	-0.734762	-0.672801
-0.717278	-23.433035	-3.318912	-0.143290	-0.734762	-0.663018
0.717278	-23.433035	-3.318912	0.143290	-0.734762	-0.663018
-0.169674	-23.500000	-3.318665	-0.034636	-0.734762	-0.677440
0.169674	-23.500000	-3.318665	0.034636	-0.734762	-0.677440
-1.713603	-23.120535	-3.317618	-0.311293	-0.734762	-0.602679
1.713603	-23.120535	-3.317618	0.311293	-0.734762	-0.602679
-0.599558	-23.455357	-3.317616	-0.120633	-0.734762	-0.667512
0.599558	-23.455357	-3.317616	0.120633	-0.734762	-0.667512
-1.304380	-23.276785	-3.317573	-0.248204	-0.734762	-0.631284
1.304380	-23.276785	-3.317573	0.248204	-0.734762	-0.631284
-2.010612	-22.986607	-3.317365	-0.351588	-0.734762	-0.580095
2.010612	-22.986607	-3.317365	0.351588	-0.734762	-0.580095
-1.369908	-23.254465	-3.317230	-0.258917	-0.734762	-0.626967
1.369908	-23.254465	-3.317230	0.258917	-0.734762	-0.626967
-0.197922	-23.500000	-3.317101	-0.040402	-0.734762	-0.677121
0.197922	-23.500000	-3.317101	0.040402	-0.734762	-0.677121
-0.926696	-23.388393	-3.316871	-0.182526	-0.734762	-0.653306
0.926696	-23.388393	-3.316871	0.182526	-0.734762	-0.653306
-1.607229	-23.165178	-3.316782	-0.295800	-0.734762	-0.610432
1.607229	-23.165178	-3.316782	0.295800	-0.734762	-0.610432
-1.239241	-23.299107	-3.316652	-0.237419	-0.734762	-0.635419
1.239241	-23.299107	-3.316652	0.237419	-0.734762	-0.635419
-0.454547	-23.477678	-3.316171	-0.092117	-0.734762	-0.672041
0.454547	-23.477678	-3.316171	0.092117	-0.734762	-0.672041
-0.835776	-23.410715	-3.316010	-0.165782	-0.734762	-0.657755
0.835776	-23.410715	-3.316010	0.165782	-0.734762	-0.657755
-1.435799	-23.232143	-3.315612	-0.269554	-0.734762	-0.622467
1.435799	-23.232143	-3.315612	0.269554	-0.734762	-0.622467
-0.226156	-23.500000	-3.315295	-0.046165	-0.734762	-0.676752
0.226156	-23.500000	-3.315295	0.046165	-0.734762	-0.676752
-1.018201	-23.366072	-3.315236	-0.199151	-0.734762	-0.648432
1.018201	-23.366072	-3.315236	0.199151	-0.734762	-0.648432
-1.821053	-23.075893	-3.315156	-0.326583	-0.734762	-0.594532
1.821053	-23.075893	-3.315156	0.326583	-0.734762	-0.594532
-1.174513	-23.321428	-3.314481	-0.226566	-0.734762	-0.639369
1.174513	-23.321428	-3.314481	0.226566	-0.734762	-0.639369
-1.969941	-23.008928	-3.313579	-0.346637	-0.734762	-0.583068
1.969941	-23.008928	-3.313579	0.346637	-0.734762	-0.583068
-0.254373	-23.500000	-3.313250	-0.051925	-0.734762	-0.676335
0.254373	-23.500000	-3.313250	0.051925	-0.734762	-0.676335
-1.502030	-23.209822	-3.312705	-0.280114	-0.734762	-0.617787
1.502030	-23.209822	-3.312705	0.280114	-0.734762	-0.617787
-0.745509	-23.433035	-3.312685	-0.148930	-0.734762	-0.661774
0.745509	-23.433035	-3.312685	0.148930	-0.734762	-0.661774
-0.627782	-23.455357	-3.312392	-0.126311	-0.734762	-0.666461
0.627782	-23.455357	-3.312392	0.126311	-0.734762	-0.666461
-0.482763	-23.477678	-3.312181	-0.097835	-0.734762	-0.671233
0.482763	-23.477678	-3.312181	0.097835	-0.734762	-0.671233
-1.110222	-23.343750	-3.311075	-0.215646	-0.734762	-0.643134
1.110222	-23.343750	-3.311075	0.215646	-0.734762	-0.643134
-0.282572	-23.500000	-3.310964	-0.057682	-0.734762	-0.675868
0.282572	-23.500000	-3.310964	0.057682	-0.734762	-0.675868
-1.674383	-23.142857	-3.310511	-0.306151	-0.734762	-0.605307
1.674383	-23.142857	-3.310511	0.306151	-0.734762	-0.605307
-2.245234	-22.875000	-3.310426	-0.380750	-0.734762	-0.561386
2.245234	-22.875000	-3.310426	0.380750	-0.734762	-0.561386
-1.929480	-23.031250	-3.309343	-0.341660	-0.734762	-0.585998
1.929480	-23.031250	-3.309343	0.341660	-0.734762	-0.585998
-2.203568	-22.897322	-3.309297	-0.375956	-0.734762	-0.564608
2.203568	-22.897322	-3.309297	0.375956	-0.734762	-0.564608
-1.781302	-23.098215	-3.309250	-0.321510	-0.734762	-0.597291
1.781302	-23.098215	-3.309250	0.321510	-0.734762	-0.597291
-0.954901	-23.388393	-3.308861	-0.188082	-0.734762	-0.651729
0.954901	-23.388393	-3.308861	0.188082	-0.734762	-0.651729
-0.863977	-23.410715	-3.308774	-0.171376	-0.734762	-0.656319
0.863977	-23.410715	-3.308774	0.171376	-0.734762	-0.656319
-1.568575	-23.187500	-3.308498	-0.290592	-0.734762	-0.612928
1.568575	-23.187500	-3.308498	0.290592	-0.734762	-0.612928
-0.310750	-23.500000	-3.308438	-0.063434	-0.734762	-0.675353
0.310750	-23.500000	-3.308438	0.063434	-0.734762	-0.675353
-0.510944	-23.477678	-3.307951	-0.103546	-0.734762	-0.670375
0.510944	-23.477678	-3.307951	0.103546	-0.734762	-0.670375
-2.162085	-22.919643	-3.307699	-0.371136	-0.734762	-0.567788
2.162085	-22.919643	-3.307699	0.371136	-0.734762	-0.567788
-0.655960	-23.455357	-3.306927	-0.131981	-0.734762	-0.665362
0.655960	-23.455357	-3.306927	0.131981	-0.734762	-0.665362
-1.046389	-23.366072	-3.306447	-0.204665	-0.734762	-0.646713
1.046389	-23.366072	-3.306447	0.204665	-0.734762	-0.646713
-1.332578	-23.276785	-3.306347	-0.253570	-0.734762	-0.629148
1.332578	-23.276785	-3.306347	0.253570	-0.734762	-0.629148
-0.773685	-23.433035	-3.306218	-0.154559	-0.734762	-0.660482
0.773685	-23.433035	-3.306218	0.154559	-0.734762	-0.660482
-1.267433	-23.299107	-3.305981	-0.242820	-0.734762	-0.633375
1.267433	-23.299107	-3.305981	0.242820	-0.734762	-0.633375
-0.338906	-23.500000	-3.305673	-0.069181	-0.734762	-0.674788
0.338906	-23.500000	-3.305673	0.069181	-0.734762	-0.674788
-2.120790	-22.941965	-3.305636	-0.366289	-0.734762	-0.570927
2.120790	-22.941965	-3.305636	0.366289	-0.734762	-0.570927
-1.398100	-23.254465	-3.305447	-0.264245	-0.734762	-0.624740
1.398100	-23.254465	-3.305447	0.264245	-0.734762	-0.624740
-1.889235	-23.053572	-3.304660	-0.336659	-0.734762	-0.588885
1.889235	-23.053572	-3.304660	0.336659	-0.734762	-0.588885
-1.202689	-23.321428	-3.304362	-0.232001	-0.734762	-0.637417
1.202689	-23.321428	-3.304362	0.232001	-0.734762	-0.637417
-0.539089	-23.477678	-3.303481	-0.109249	-0.734762	-0.669470
0.539089	-23.477678	-3.303481	0.109249	-0.734762	-0.669470
-1.463975	-23.232143	-3.303268	-0.274844	-0.734762	-0.620150
1.463975	-23.232143	-3.303268	0.274844	-0.734762	-0.620150
-2.079687	-22.964285	-3.303111	-0.361415	-0.734762	-0.574025
2.079687	-22.964285	-3.303111	0.361415	-0.734762	-0.574025
-1.635409	-23.165178	-3.302978	-0.300986	-0.734762	-0.607892
1.635409	-23.165178	-3.302978	0.300986	-0.734762	-0.607892
-1.741786	-23.120535	-3.302909	-0.316413	-0.734762	-0.600007
1.741786	-23.120535	-3.302909	0.316413	-0.734762	-0.600007
-0.367037	-23.500000	-3.302668	-0.074923	-0.734762	-0.674175
0.367037	-23.500000	-3.302668	0.074923	-0.734762	-0.674175
-1.138371	-23.343750	-3.301503	-0.221114	-0.734762	-0.641275
1.138371	-23.343750	-3.301503	0.221114	-0.734762	-0.641275
-0.892116	-23.410715	-3.301299	-0.176958	-0.734762	-0.654837
0.892116	-23.410715	-3.301299	0.176958	-0.734762	-0.654837
-0.684090	-23.455357	-3.301223	-0.137641	-0.734762	-0.664214
0.684090	-23.455357	-3.301223	0.137641	-0.734762	-0.664214
-0.983037	-23.388393	-3.300611	-0.193624	-0.734762	-0.650104
0.983037	-23.388393	-3.300611	0.193624	-0.734762	-0.650104
-2.038782	-22.986607	-3.300127	-0.356514	-0.734762	-0.577081
2.038782	-22.986607	-3.300127	0.356514	-0.734762	-0.577081
-1.530178	-23.209822	-3.299797	-0.285363	-0.734762	-0.615380
1.530178	-23.209822	-3.299797	0.285363	-0.734762	-0.615380
-1.849211	-23.075893	-3.299532	-0.331633	-0.734762	-0.591730
1.849211	-23.075893	-3.299532	0.331633	-0.734762	-0.591730
-0.801805	-23.433035	-3.299511	-0.160176	-0.734762	-0.659142
0.801805	-23.433035	-3.299511	0.160176	-0.734762	-0.659142
-0.395142	-23.500000	-3.299423	-0.080660	-0.734762	-0.673512
0.395142	-23.500000	-3.299423	0.080660	-0.734762	-0.673512
-0.567194	-23.477678	-3.298772	-0.114945	-0.734762	-0.668515
0.567194	-23.477678	-3.298772	0.114945	-0.734762	-0.668515
-1.074501	-23.366072	-3.297418	-0.210163	-0.734762	-0.644947
1.074501	-23.366072	-3.297418	0.210163	-0.734762	-0.644947
-1.998080	-23.008928	-3.296688	-0.351588	-0.734762	-0.580095
1.998080	-23.008928	-3.296688	0.351588	-0.734762	-0.580095
-1.702507	-23.142857	-3.296136	-0.311293	-0.734762	-0.602679
1.702507	-23.142857	-3.296136	0.311293	-0.734762	-0.602679
-0.423218	-23.500000	-3.295939	-0.086392	-0.734762	-0.672801
0.423218	-23.500000	-3.295939	0.086392	-0.734762	-0.672801
-0.712171	-23.455357	-3.295279	-0.143290	-0.734762	-0.663018
0.712171	-23.455357	-3.295279	0.143290	-0.734762	-0.663018
-1.295533	-23.299107	-3.295071	-0.248204	-0.734762	-0.631284
1.295533	-23.299107	-3.295071	0.248204	-0.734762	-0.631284
-1.596685	-23.187500	-3.295023	-0.295800	-0.734762	-0.610432
1.596685	-23.187500	-3.295023	0.295800	-0.734762	-0.610432
-1.360679	-23.276785	-3.294883	-0.258917	-0.734762	-0.626967
1.360679	-23.276785	-3.294883	0.258917	-0.734762	-0.626967
-1.230778	-23.321428	-3.294003	-0.237419	-0.734762	-0.635419
1.230778	-23.321428	-3.294003	0.237419	-0.734762	-0.635419
-1.809412	-23.098215	-3.293965	-0.326583	-0.734762	-0.594532
1.809412	-23.098215	-3.293965	0.326583	-0.734762	-0.594532
-0.595258	-23.477678	-3.293823	-0.120633	-0.734762	-0.667512
0.595258	-23.477678	-3.293823	0.120633	-0.734762	-0.667512
-0.920190	-23.410715	-3.293584	-0.182526	-0.734762	-0.653306
0.920190	-23.410715	-3.293584	0.182526	-0.734762	-0.653306
-1.426191	-23.254465	-3.293424	-0.269554	-0.734762	-0.622467
1.426191	-23.254465	-3.293424	0.269554	-0.734762	-0.622467
-1.957585	-23.031250	-3.292796	-0.346637	-0.734762	-0.583068
1.957585	-23.031250	-3.292796	0.346637	-0.734762	-0.583068
-0.829867	-23.433035	-3.292565	-0.165782	-0.734762	-0.657755
0.829867	-23.433035	-3.292565	0.165782	-0.734762	-0.657755
-0.451263	-23.500000	-3.292217	-0.092117	-0.734762	-0.672041
0.451263	-23.500000	-3.292217	0.092117	-0.734762	-0.672041
-1.011102	-23.388393	-3.292123	-0.199151	-0.734762	-0.648432
1.011102	-23.388393	-3.292123	0.199151	-0.734762	-0.648432
-1.166438	-23.343750	-3.291692	-0.226566	-0.734762	-0.639369
1.166438	-23.343750	-3.291692	0.226566	-0.734762	-0.639369
-2.273337	-22.875000	-3.291191	-0.385515	-0.734762	-0.558124
2.273337	-22.875000	-3.291191	0.385515	-0.734762	-0.558124
-1.492045	-23.232143	-3.290684	-0.280114	-0.734762	-0.617787
1.492045	-23.232143	-3.290684	0.280114	-0.734762	-0.617787
-2.231663	-22.897322	-3.290416	-0.380750	-0.734762	-0.561386
2.231663	-22.897322	-3.290416	0.380750	-0.734762	-0.561386
-2.190167	-22.919643	-3.289171	-0.375956	-0.734762	-0.564608
2.190167	-22.919643	-3.289171	0.375956	-0.734762	-0.564608
-0.740200	-23.455357	-3.289096	-0.148930	-0.734762	-0.661774
0.740200	-23.455357	-3.289096	0.148930	-0.734762	-0.661774
-1.663470	-23.165178	-3.288935	-0.306151	-0.734762	-0.605307
1.663470	-23.165178	-3.288935	0.306151	-0.734762	-0.605307
-0.623279	-23.477678	-3.288636	-0.126311	-0.734762	-0.666461
0.623279	-23.477678	-3.288636	0.126311	-0.734762	-0.666461
-1.917302	-23.053572	-3.288456	-0.341660	-0.734762	-0.585998
1.917302	-23.053572	-3.288456	0.341660	-0.734762	-0.585998
-0.479276	-23.500000	-3.288255	-0.097835	-0.734762	-0.671233
0.479276	-23.500000	-3.288255	0.097835	-0.734762	-0.671233
-1.102535	-23.366072	-3.288151	-0.215646	-0.734762	-0.643134
1.102535	-23.366072	-3.288151	0.215646	-0.734762	-0.643134
-1.769842	-23.120535	-3.287960	-0.321510	-0.734762	-0.597291
1.769842	-23.120535	-3.287960	0.321510	-0.734762	-0.597291
-2.148856	-22.941965	-3.287460	-0.371136	-0.734762	-0.567788
2.148856	-22.941965	-3.287460	0.371136	-0.734762	-0.567788
-1.558216	-23.209822	-3.286650	-0.290592	-0.734762	-0.612928
1.558216	-23.209822	-3.286650	0.290592	-0.734762	-0.612928
-0.948197	-23.410715	-3.285630	-0.188082	-0.734762	-0.651729
0.948197	-23.410715	-3.285630	0.188082	-0.734762	-0.651729
-0.857869	-23.433035	-3.285380	-0.171376	-0.734762	-0.656319
0.857869	-23.433035	-3.285380	0.171376	-0.734762	-0.656319
-2.107733	-22.964285	-3.285285	-0.366289	-0.734762	-0.570927
2.107733	-22.964285	-3.285285	0.366289	-0.734762	-0.570927
-0.507254	-23.500000	-3.284056	-0.103546	-0.734762	-0.670375
0.507254	-23.500000	-3.284056	0.103546	-0.734762	-0.670375
-1.323539	-23.299107	-3.283922	-0.253570	-0.734762	-0.629148
1.323539	-23.299107	-3.283922	0.253570	-0.734762	-0.629148
-1.877235	-23.075893	-3.283669	-0.336659	-0.734762	-0.588885
1.877235	-23.075893	-3.283669	0.336659	-0.734762	-0.588885
-1.258778	-23.321428	-3.283405	-0.242820	-0.734762	-0.633375
1.258778	-23.321428	-3.283405	0.242820	-0.734762	-0.633375
-1.039093	-23.388393	-3.283395	-0.204665	-0.734762	-0.646713
1.039093	-23.388393	-3.283395	0.204665	-0.734762	-0.646713
-0.651255	-23.477678	-3.283211	-0.131981	-0.734762	-0.665362
0.651255	-23.477678	-3.283211	0.131981	-0.734762	-0.665362
-1.388681	-23.276785	-3.283179	-0.264245	-0.734762	-0.624740
1.388681	-23.276785	-3.283179	0.264245	-0.734762	-0.624740
-0.768176	-23.455357	-3.282675	-0.154559	-0.734762	-0.660482
0.768176	-23.455357	-3.282675	0.154559	-0.734762	-0.660482
-2.066805	-22.986607	-3.282650	-0.361415	-0.734762	-0.574025
2.066805	-22.986607	-3.282650	0.361415	-0.734762	-0.574025
-1.194420	-23.343750	-3.281641	-0.232001	-0.734762	-0.637417
1.194420	-23.343750	-3.281641	0.232001	-0.734762	-0.637417
-1.730507	-23.142857	-3.281522	-0.316413	-0.734762	-0.600007
1.730507	-23.142857	-3.281522	0.316413	-0.734762	-0.600007
-1.624680	-23.187500	-3.281310	-0.300986	-0.734762	-0.607892
1.624680	-23.187500	-3.281310	0.300986	-0.734762	-0.607892
-1.454178	-23.254465	-3.281163	-0.274844	-0.734762	-0.620150
1.454178	-23.254465	-3.281163	0.274844	-0.734762	-0.620150
-0.535195	-23.500000	-3.279618	-0.109249	-0.734762	-0.669470
0.535195	-23.500000	-3.279618	0.109249	-0.734762	-0.669470
-2.026074	-23.008928	-3.279557	-0.356514	-0.734762	-0.577081
2.026074	-23.008928	-3.279557	0.356514	-0.734762	-0.577081
-1.130489	-23.366072	-3.278645	-0.221114	-0.734762	-0.641275
1.130489	-23.366072	-3.278645	0.221114	-0.734762	-0.641275
-1.837390	-23.098215	-3.278440	-0.331633	-0.734762	-0.591730
1.837390	-23.098215	-3.278440	0.331633	-0.734762	-0.591730
-0.885808	-23.433035	-3.277958	-0.176958	-0.734762	-0.654837
0.885808	-23.433035	-3.277958	0.176958	-0.734762	-0.654837
-1.520007	-23.232143	-3.277862	-0.285363	-0.734762	-0.615380
1.520007	-23.232143	-3.277862	0.285363	-0.734762	-0.615380
-0.679184	-23.477678	-3.277547	-0.137641	-0.734762	-0.664214
0.679184	-23.477678	-3.277547	0.137641	-0.734762	-0.664214
-0.976135	-23.410715	-3.277439	-0.193624	-0.734762	-0.650104
0.976135	-23.410715	-3.277439	0.193624	-0.734762	-0.650104
-0.796095	-23.455357	-3.276016	-0.160176	-0.734762	-0.659142
0.796095	-23.455357	-3.276016	0.160176	-0.734762	-0.659142
-1.985548	-23.031250	-3.276011	-0.351588	-0.734762	-0.580095
1.985548	-23.031250	-3.276011	0.351588	-0.734762	-0.580095
-0.563097	-23.500000	-3.274943	-0.114945	-0.734762	-0.668515
0.563097	-23.500000	-3.274943	0.114945	-0.734762	-0.668515
-1.691411	-23.165178	-3.274654	-0.311293	-0.734762	-0.602679
1.691411	-23.165178	-3.274654	0.311293	-0.734762	-0.602679
-1.067010	-23.388393	-3.274430	-0.210163	-0.734762	-0.644947
1.067010	-23.388393	-3.274430	0.210163	-0.734762	-0.644947
-1.586142	-23.209822	-3.273265	-0.295800	-0.734762	-0.610432
1.586142	-23.209822	-3.273265	0.295800	-0.734762	-0.610432
