-0.921381	-17.250000	3.192708	-0.188082	0.734762	0.651729
1.414992	-17.406250	3.192743	0.274844	0.734762	0.620150
-1.414992	-17.406250	3.192743	-0.274844	0.734762	0.620150
2.328158	-17.830357	3.192986	0.399643	0.734762	0.548097
-2.328158	-17.830357	3.192986	-0.399643	0.734762	0.548097
2.286811	-17.808035	3.193035	0.394963	0.734762	0.551479
-2.286811	-17.808035	3.193035	-0.394963	0.734762	0.551479
1.224157	-17.339285	3.193100	0.242820	0.734762	0.633375
-1.224157	-17.339285	3.193100	-0.242820	0.734762	0.633375
1.935419	-17.629465	3.193302	0.351588	0.734762	0.580095
-1.935419	-17.629465	3.193302	-0.351588	0.734762	0.580095
1.790107	-17.562500	3.194073	0.331633	0.734762	0.591730
-1.790107	-17.562500	3.194073	-0.331633	0.734762	0.591730
1.351005	-17.383928	3.194104	0.264245	0.734762	0.624740
-1.351005	-17.383928	3.194104	-0.264245	0.734762	0.624740
1.287386	-17.361607	3.194219	0.253570	0.734762	0.629148
-1.287386	-17.361607	3.194219	-0.253570	0.734762	0.629148
1.581766	-17.473215	3.194638	0.300986	0.734762	0.607892
-1.581766	-17.473215	3.194638	-0.300986	0.734762	0.607892
1.685394	-17.517857	3.195974	0.316413	0.734762	0.600007
-1.685394	-17.517857	3.195974	-0.316413	0.734762	0.600007
1.071789	-17.294643	3.196454	0.215646	0.734762	0.643134
-1.071789	-17.294643	3.196454	-0.215646	0.734762	0.643134
1.975243	-17.651785	3.197278	0.356514	0.734762	0.577081
-1.975243	-17.651785	3.197278	-0.356514	0.734762	0.577081
1.516784	-17.450893	3.199260	0.290592	0.734762	0.612928
-1.516784	-17.450893	3.199260	-0.290592	0.734762	0.612928
0.982707	-17.272322	3.199670	0.199151	0.734762	0.648432
-0.982707	-17.272322	3.199670	-0.199151	0.734762	0.648432
1.829235	-17.584822	3.199707	0.336659	0.734762	0.588885
-1.829235	-17.584822	3.199707	-0.336659	0.734762	0.588885
0.894166	-17.250000	3.200437	0.182526	0.734762	0.653306
-0.894166	-17.250000	3.200437	-0.182526	0.734762	0.653306
1.134134	-17.316965	3.200531	0.226566	0.734762	0.639369
-1.134134	-17.316965	3.200531	-0.226566	0.734762	0.639369
2.015275	-17.674107	3.200807	0.361415	0.734762	0.574025
-2.015275	-17.674107	3.200807	-0.361415	0.734762	0.574025
1.452107	-17.428572	3.202601	0.280114	0.734762	0.617787
-1.452107	-17.428572	3.202601	-0.280114	0.734762	0.617787
1.619820	-17.495535	3.202632	0.306151	0.734762	0.605307
-1.619820	-17.495535	3.202632	-0.306151	0.734762	0.605307
1.724002	-17.540178	3.202799	0.321510	0.734762	0.597291
-1.724002	-17.540178	3.202799	-0.321510	0.734762	0.597291
1.196927	-17.339285	3.203406	0.237419	0.734762	0.635419
-1.196927	-17.339285	3.203406	-0.237419	0.734762	0.635419
2.055509	-17.696428	3.203884	0.366289	0.734762	0.570927
-2.055509	-17.696428	3.203884	-0.366289	0.734762	0.570927
1.387758	-17.406250	3.204674	0.269554	0.734762	0.622467
-1.387758	-17.406250	3.204674	-0.269554	0.734762	0.622467
1.868588	-17.607143	3.204905	0.341660	0.734762	0.585998
-1.868588	-17.607143	3.204905	-0.341660	0.734762	0.585998
1.260145	-17.361607	3.205064	0.248204	0.734762	0.631284
-1.260145	-17.361607	3.205064	-0.248204	0.734762	0.631284
1.044536	-17.294643	3.205463	0.210163	0.734762	0.644947
-1.044536	-17.294643	3.205463	-0.210163	0.734762	0.644947
1.323763	-17.383928	3.205491	0.258917	0.734762	0.626967
-1.323763	-17.383928	3.205491	-0.258917	0.734762	0.626967
2.095940	-17.718750	3.206506	0.371136	0.734762	0.567788
-2.095940	-17.718750	3.206506	-0.371136	0.734762	0.567788
0.955431	-17.272322	3.207921	0.193624	0.734762	0.650104
-0.955431	-17.272322	3.207921	-0.193624	0.734762	0.650104
0.866886	-17.250000	3.207934	0.176958	0.734762	0.654837
-0.866886	-17.250000	3.207934	-0.176958	0.734762	0.654837
1.554511	-17.473215	3.207989	0.295800	0.734762	0.610432
-1.554511	-17.473215	3.207989	-0.295800	0.734762	0.610432
2.136564	-17.741072	3.208671	0.375956	0.734762	0.564608
-2.136564	-17.741072	3.208671	-0.375956	0.734762	0.564608
1.762848	-17.562500	3.209198	0.326583	0.734762	0.594532
-1.762848	-17.562500	3.209198	-0.326583	0.734762	0.594532
1.908162	-17.629465	3.209664	0.346637	0.734762	0.583068
-1.908162	-17.629465	3.209664	-0.346637	0.734762	0.583068
1.106845	-17.316965	3.210071	0.221114	0.734762	0.641275
-1.106845	-17.316965	3.210071	-0.221114	0.734762	0.641275
1.658123	-17.517857	3.210207	0.311293	0.734762	0.602679
-1.658123	-17.517857	3.210207	-0.311293	0.734762	0.602679
2.177376	-17.763393	3.210375	0.380750	0.734762	0.561386
-2.177376	-17.763393	3.210375	-0.380750	0.734762	0.561386
2.218371	-17.785715	3.211615	0.385515	0.734762	0.558124
-2.218371	-17.785715	3.211615	-0.385515	0.734762	0.558124
2.384079	-17.875000	3.211879	0.404295	0.734762	0.544675
-2.384079	-17.875000	3.211879	-0.404295	0.734762	0.544675
1.489492	-17.450893	3.212057	0.285363	0.734762	0.615380
-1.489492	-17.450893	3.212057	-0.285363	0.734762	0.615380
2.259543	-17.808035	3.212388	0.390253	0.734762	0.554822
-2.259543	-17.808035	3.212388	-0.390253	0.734762	0.554822
2.342403	-17.852678	3.212523	0.399643	0.734762	0.548097
-2.342403	-17.852678	3.212523	-0.399643	0.734762	0.548097
2.300889	-17.830357	3.212692	0.394963	0.734762	0.551479
-2.300889	-17.830357	3.212692	-0.394963	0.734762	0.551479
1.169611	-17.339285	3.213480	0.232001	0.734762	0.637417
-1.169611	-17.339285	3.213480	-0.232001	0.734762	0.637417
1.947951	-17.651785	3.213979	0.351588	0.734762	0.580095
-1.947951	-17.651785	3.213979	-0.351588	0.734762	0.580095
1.017208	-17.294643	3.214240	0.204665	0.734762	0.646713
-1.017208	-17.294643	3.214240	-0.204665	0.734762	0.646713
1.424788	-17.428572	3.214848	0.274844	0.734762	0.620150
-1.424788	-17.428572	3.214848	-0.274844	0.734762	0.620150
1.801927	-17.584822	3.215165	0.331633	0.734762	0.591730
-1.801927	-17.584822	3.215165	-0.331633	0.734762	0.591730
0.839543	-17.250000	3.215198	0.171376	0.734762	0.656319
-0.839543	-17.250000	3.215198	-0.171376	0.734762	0.656319
1.232812	-17.361607	3.215676	0.242820	0.734762	0.633375
-1.232812	-17.361607	3.215676	-0.242820	0.734762	0.633375
0.928085	-17.272322	3.215939	0.188082	0.734762	0.651729
-0.928085	-17.272322	3.215939	-0.188082	0.734762	0.651729
1.592495	-17.495535	3.216306	0.300986	0.734762	0.607892
-1.592495	-17.495535	3.216306	-0.300986	0.734762	0.607892
1.360424	-17.406250	3.216373	0.264245	0.734762	0.624740
-1.360424	-17.406250	3.216373	-0.264245	0.734762	0.624740
1.296424	-17.383928	3.216645	0.253570	0.734762	0.629148
-1.296424	-17.383928	3.216645	-0.253570	0.734762	0.629148
1.696672	-17.540178	3.217361	0.316413	0.734762	0.600007
-1.696672	-17.540178	3.217361	-0.316413	0.734762	0.600007
1.987951	-17.674107	3.217848	0.356514	0.734762	0.577081
-1.987951	-17.674107	3.217848	-0.356514	0.734762	0.577081
1.079475	-17.316965	3.219378	0.215646	0.734762	0.643134
-1.079475	-17.316965	3.219378	-0.215646	0.734762	0.643134
1.841235	-17.607143	3.220698	0.336659	0.734762	0.588885
-1.841235	-17.607143	3.220698	-0.336659	0.734762	0.588885
1.527142	-17.473215	3.221107	0.290592	0.734762	0.612928
-1.527142	-17.473215	3.221107	-0.290592	0.734762	0.612928
2.028157	-17.696428	3.221267	0.361415	0.734762	0.574025
-2.028157	-17.696428	3.221267	-0.361415	0.734762	0.574025
0.812139	-17.250000	3.222229	0.165782	0.734762	0.657755
-0.812139	-17.250000	3.222229	-0.165782	0.734762	0.657755
0.989806	-17.294643	3.222784	0.199151	0.734762	0.648432
-0.989806	-17.294643	3.222784	-0.199151	0.734762	0.648432
1.142210	-17.339285	3.223321	0.226566	0.734762	0.639369
-1.142210	-17.339285	3.223321	-0.226566	0.734762	0.639369
0.900672	-17.272322	3.223724	0.182526	0.734762	0.653306
-0.900672	-17.272322	3.223724	-0.182526	0.734762	0.653306
1.735462	-17.562500	3.224089	0.321510	0.734762	0.597291
-1.735462	-17.562500	3.224089	-0.321510	0.734762	0.597291
1.630732	-17.517857	3.224207	0.306151	0.734762	0.605307
-1.630732	-17.517857	3.224207	-0.306151	0.734762	0.605307
2.068565	-17.718750	3.224234	0.366289	0.734762	0.570927
-2.068565	-17.718750	3.224234	-0.366289	0.734762	0.570927
1.462091	-17.450893	3.224622	0.280114	0.734762	0.617787
-1.462091	-17.450893	3.224622	-0.280114	0.734762	0.617787
1.880767	-17.629465	3.225793	0.341660	0.734762	0.585998
-1.880767	-17.629465	3.225793	-0.341660	0.734762	0.585998
1.205390	-17.361607	3.226055	0.237419	0.734762	0.635419
-1.205390	-17.361607	3.226055	-0.237419	0.734762	0.635419
2.109169	-17.741072	3.226744	0.371136	0.734762	0.567788
-2.109169	-17.741072	3.226744	-0.371136	0.734762	0.567788
1.397366	-17.428572	3.226862	0.269554	0.734762	0.622467
-1.397366	-17.428572	3.226862	-0.269554	0.734762	0.622467
1.268992	-17.383928	3.227566	0.248204	0.734762	0.631284
-1.268992	-17.383928	3.227566	-0.248204	0.734762	0.631284
1.332992	-17.406250	3.227839	0.258917	0.734762	0.626967
-1.332992	-17.406250	3.227839	-0.258917	0.734762	0.626967
1.052027	-17.316965	3.228452	0.210163	0.734762	0.644947
-1.052027	-17.316965	3.228452	-0.210163	0.734762	0.644947
2.149965	-17.763393	3.228796	0.375956	0.734762	0.564608
-2.149965	-17.763393	3.228796	-0.375956	0.734762	0.564608
0.784677	-17.250000	3.229026	0.160176	0.734762	0.659142
-0.784677	-17.250000	3.229026	-0.160176	0.734762	0.659142
1.565054	-17.495535	3.229748	0.295800	0.734762	0.610432
-1.565054	-17.495535	3.229748	-0.295800	0.734762	0.610432
2.190948	-17.785715	3.230385	0.380750	0.734762	0.561386
-2.190948	-17.785715	3.230385	-0.380750	0.734762	0.561386
1.774489	-17.584822	3.230389	0.326583	0.734762	0.594532
-1.774489	-17.584822	3.230389	-0.326583	0.734762	0.594532
1.920518	-17.651785	3.230447	0.346637	0.734762	0.583068
-1.920518	-17.651785	3.230447	-0.346637	0.734762	0.583068
0.962332	-17.294643	3.231094	0.193624	0.734762	0.650104
-0.962332	-17.294643	3.231094	-0.193624	0.734762	0.650104
0.873193	-17.272322	3.231275	0.176958	0.734762	0.654837
-0.873193	-17.272322	3.231275	-0.176958	0.734762	0.654837
2.232112	-17.808035	3.231509	0.385515	0.734762	0.558124
-2.232112	-17.808035	3.231509	-0.385515	0.734762	0.558124
1.669219	-17.540178	3.231689	0.311293	0.734762	0.602679
-1.669219	-17.540178	3.231689	-0.311293	0.734762	0.602679
2.356648	-17.875000	3.232060	0.399643	0.734762	0.548097
-2.356648	-17.875000	3.232060	-0.399643	0.734762	0.548097
2.273454	-17.830357	3.232165	0.390253	0.734762	0.554822
-2.273454	-17.830357	3.232165	-0.390253	0.734762	0.554822
2.314967	-17.852678	3.232349	0.394963	0.734762	0.551479
-2.314967	-17.852678	3.232349	-0.394963	0.734762	0.551479
1.114726	-17.339285	3.232929	0.221114	0.734762	0.641275
-1.114726	-17.339285	3.232929	-0.221114	0.734762	0.641275
1.499664	-17.473215	3.233992	0.285363	0.734762	0.615380
-1.499664	-17.473215	3.233992	-0.285363	0.734762	0.615380
1.960483	-17.674107	3.234656	0.351588	0.734762	0.580095
-1.960483	-17.674107	3.234656	-0.351588	0.734762	0.580095
0.757157	-17.250000	3.235590	0.154559	0.734762	0.660482
-0.757157	-17.250000	3.235590	-0.154559	0.734762	0.660482
1.177881	-17.361607	3.236201	0.232001	0.734762	0.637417
-1.177881	-17.361607	3.236201	-0.232001	0.734762	0.637417
1.813748	-17.607143	3.236257	0.331633	0.734762	0.591730
-1.813748	-17.607143	3.236257	-0.331633	0.734762	0.591730
1.434585	-17.450893	3.236953	0.274844	0.734762	0.620150
-1.434585	-17.450893	3.236953	-0.274844	0.734762	0.620150
1.024503	-17.316965	3.237292	0.204665	0.734762	0.646713
-1.024503	-17.316965	3.237292	-0.204665	0.734762	0.646713
1.603223	-17.517857	3.237974	0.300986	0.734762	0.607892
-1.603223	-17.517857	3.237974	-0.300986	0.734762	0.607892
1.241467	-17.383928	3.238252	0.242820	0.734762	0.633375
-1.241467	-17.383928	3.238252	-0.242820	0.734762	0.633375
2.000659	-17.696428	3.238418	0.356514	0.734762	0.577081
-2.000659	-17.696428	3.238418	-0.356514	0.734762	0.577081
0.845651	-17.272322	3.238592	0.171376	0.734762	0.656319
-0.845651	-17.272322	3.238592	-0.171376	0.734762	0.656319
1.369843	-17.428572	3.238642	0.264245	0.734762	0.624740
-1.369843	-17.428572	3.238642	-0.264245	0.734762	0.624740
1.707950	-17.562500	3.238748	0.316413	0.734762	0.600007
-1.707950	-17.562500	3.238748	-0.316413	0.734762	0.600007
1.305463	-17.406250	3.239070	0.253570	0.734762	0.629148
-1.305463	-17.406250	3.239070	-0.253570	0.734762	0.629148
0.934789	-17.294643	3.239169	0.188082	0.734762	0.651729
-0.934789	-17.294643	3.239169	-0.188082	0.734762	0.651729
1.853235	-17.629465	3.241688	0.336659	0.734762	0.588885
-1.853235	-17.629465	3.241688	-0.336659	0.734762	0.588885
2.041040	-17.718750	3.241728	0.361415	0.734762	0.574025
-2.041040	-17.718750	3.241728	-0.361415	0.734762	0.574025
0.729583	-17.250000	3.241919	0.148930	0.734762	0.661774
-0.729583	-17.250000	3.241919	-0.148930	0.734762	0.661774
1.087162	-17.339285	3.242302	0.215646	0.734762	0.643134
-1.087162	-17.339285	3.242302	-0.215646	0.734762	0.643134
1.537501	-17.495535	3.242955	0.290592	0.734762	0.612928
-1.537501	-17.495535	3.242955	-0.290592	0.734762	0.612928
2.081621	-17.741072	3.244584	0.366289	0.734762	0.570927
-2.081621	-17.741072	3.244584	-0.366289	0.734762	0.570927
1.746922	-17.584822	3.245380	0.321510	0.734762	0.597291
-1.746922	-17.584822	3.245380	-0.321510	0.734762	0.597291
0.818048	-17.272322	3.245674	0.165782	0.734762	0.657755
-0.818048	-17.272322	3.245674	-0.165782	0.734762	0.657755
1.641645	-17.540178	3.245783	0.306151	0.734762	0.605307
-1.641645	-17.540178	3.245783	-0.306151	0.734762	0.605307
0.996905	-17.316965	3.245897	0.199151	0.734762	0.648432
-0.996905	-17.316965	3.245897	-0.199151	0.734762	0.648432
1.150286	-17.361607	3.246112	0.226566	0.734762	0.639369
-1.150286	-17.361607	3.246112	-0.226566	0.734762	0.639369
1.472076	-17.473215	3.246643	0.280114	0.734762	0.617787
-1.472076	-17.473215	3.246643	-0.280114	0.734762	0.617787
1.892945	-17.651785	3.246680	0.341660	0.734762	0.585998
-1.892945	-17.651785	3.246680	-0.341660	0.734762	0.585998
2.122398	-17.763393	3.246983	0.371136	0.734762	0.567788
-2.122398	-17.763393	3.246983	-0.371136	0.734762	0.567788
0.907178	-17.294643	3.247010	0.182526	0.734762	0.653306
-0.907178	-17.294643	3.247010	-0.182526	0.734762	0.653306
0.701956	-17.250000	3.248013	0.143290	0.734762	0.663018
-0.701956	-17.250000	3.248013	-0.143290	0.734762	0.663018
1.213853	-17.383928	3.248704	0.237419	0.734762	0.635419
-1.213853	-17.383928	3.248704	-0.237419	0.734762	0.635419
2.163366	-17.785715	3.248921	0.375956	0.734762	0.564608
-2.163366	-17.785715	3.248921	-0.375956	0.734762	0.564608
1.406975	-17.450893	3.249049	0.269554	0.734762	0.622467
-1.406975	-17.450893	3.249049	-0.269554	0.734762	0.622467
1.277839	-17.406250	3.250067	0.248204	0.734762	0.631284
-1.277839	-17.406250	3.250067	-0.248204	0.734762	0.631284
1.342221	-17.428572	3.250187	0.258917	0.734762	0.626967
-1.342221	-17.428572	3.250187	-0.258917	0.734762	0.626967
2.204519	-17.808035	3.250395	0.380750	0.734762	0.561386
-2.204519	-17.808035	3.250395	-0.380750	0.734762	0.561386
1.932873	-17.674107	3.251230	0.346637	0.734762	0.583068
-1.932873	-17.674107	3.251230	-0.346637	0.734762	0.583068
2.245854	-17.830357	3.251403	0.385515	0.734762	0.558124
-2.245854	-17.830357	3.251403	-0.385515	0.734762	0.558124
1.059518	-17.339285	3.251441	0.210163	0.734762	0.644947
-1.059518	-17.339285	3.251441	-0.210163	0.734762	0.644947
1.575598	-17.517857	3.251506	0.295800	0.734762	0.610432
-1.575598	-17.517857	3.251506	-0.295800	0.734762	0.610432
1.786130	-17.607143	3.251581	0.326583	0.734762	0.594532
-1.786130	-17.607143	3.251581	-0.326583	0.734762	0.594532
2.287364	-17.852678	3.251941	0.390253	0.734762	0.554822
-2.287364	-17.852678	3.251941	-0.390253	0.734762	0.554822
2.329046	-17.875000	3.252007	0.394963	0.734762	0.551479
-2.329046	-17.875000	3.252007	-0.394963	0.734762	0.551479
0.790386	-17.272322	3.252521	0.160176	0.734762	0.659142
-0.790386	-17.272322	3.252521	-0.160176	0.734762	0.659142
1.680315	-17.562500	3.253171	0.311293	0.734762	0.602679
-1.680315	-17.562500	3.253171	-0.311293	0.734762	0.602679
0.674278	-17.250000	3.253871	0.137641	0.734762	0.664214
-0.674278	-17.250000	3.253871	-0.137641	0.734762	0.664214
0.969234	-17.316965	3.254266	0.193624	0.734762	0.650104
-0.969234	-17.316965	3.254266	-0.193624	0.734762	0.650104
0.879501	-17.294643	3.254616	0.176958	0.734762	0.654837
-0.879501	-17.294643	3.254616	-0.176958	0.734762	0.654837
1.973016	-17.696428	3.255333	0.351588	0.734762	0.580095
-1.973016	-17.696428	3.255333	-0.351588	0.734762	0.580095
1.122608	-17.361607	3.255787	0.221114	0.734762	0.641275
-1.122608	-17.361607	3.255787	-0.221114	0.734762	0.641275
1.509835	-17.495535	3.255927	0.285363	0.734762	0.615380
-1.509835	-17.495535	3.255927	-0.285363	0.734762	0.615380
1.825569	-17.629465	3.257349	0.331633	0.734762	0.591730
-1.825569	-17.629465	3.257349	-0.331633	0.734762	0.591730
1.186150	-17.383928	3.258921	0.232001	0.734762	0.637417
-1.186150	-17.383928	3.258921	-0.232001	0.734762	0.637417
2.013367	-17.718750	3.258988	0.356514	0.734762	0.577081
-2.013367	-17.718750	3.258988	-0.356514	0.734762	0.577081
1.444382	-17.473215	3.259058	0.274844	0.734762	0.620150
-1.444382	-17.473215	3.259058	-0.274844	0.734762	0.620150
0.762666	-17.272322	3.259132	0.154559	0.734762	0.660482
-0.762666	-17.272322	3.259132	-0.154559	0.734762	0.660482
0.646551	-17.250000	3.259494	0.131981	0.734762	0.665362
-0.646551	-17.250000	3.259494	-0.131981	0.734762	0.665362
1.613952	-17.540178	3.259642	0.300986	0.734762	0.607892
-1.613952	-17.540178	3.259642	-0.300986	0.734762	0.607892
1.719229	-17.584822	3.260135	0.316413	0.734762	0.600007
-1.719229	-17.584822	3.260135	-0.316413	0.734762	0.600007
1.031798	-17.339285	3.260343	0.204665	0.734762	0.646713
-1.031798	-17.339285	3.260343	-0.204665	0.734762	0.646713
1.250122	-17.406250	3.260829	0.242820	0.734762	0.633375
-1.250122	-17.406250	3.260829	-0.242820	0.734762	0.633375
1.379262	-17.450893	3.260910	0.264245	0.734762	0.624740
-1.379262	-17.450893	3.260910	-0.264245	0.734762	0.624740
1.314501	-17.428572	3.261496	0.253570	0.734762	0.629148
-1.314501	-17.428572	3.261496	-0.253570	0.734762	0.629148
0.851760	-17.294643	3.261986	0.171376	0.734762	0.656319
-0.851760	-17.294643	3.261986	-0.171376	0.734762	0.656319
2.053922	-17.741072	3.262189	0.361415	0.734762	0.574025
-2.053922	-17.741072	3.262189	-0.361415	0.734762	0.574025
0.941493	-17.316965	3.262400	0.188082	0.734762	0.651729
-0.941493	-17.316965	3.262400	-0.188082	0.734762	0.651729
1.865235	-17.651785	3.262679	0.336659	0.734762	0.588885
-1.865235	-17.651785	3.262679	-0.336659	0.734762	0.588885
1.547858	-17.517857	3.264802	0.290592	0.734762	0.612928
-1.547858	-17.517857	3.264802	-0.290592	0.734762	0.612928
0.618777	-17.250000	3.264880	0.126311	0.734762	0.666461
-0.618777	-17.250000	3.264880	-0.126311	0.734762	0.666461
2.094677	-17.763393	3.264935	0.366289	0.734762	0.570927
-2.094677	-17.763393	3.264935	-0.366289	0.734762	0.570927
1.094848	-17.361607	3.265227	0.215646	0.734762	0.643134
-1.094848	-17.361607	3.265227	-0.215646	0.734762	0.643134
0.734891	-17.272322	3.265507	0.148930	0.734762	0.661774
-0.734891	-17.272322	3.265507	-0.148930	0.734762	0.661774
1.758382	-17.607143	3.266670	0.321510	0.734762	0.597291
-1.758382	-17.607143	3.266670	-0.321510	0.734762	0.597291
2.135627	-17.785715	3.267221	0.371136	0.734762	0.567788
-2.135627	-17.785715	3.267221	-0.371136	0.734762	0.567788
1.652557	-17.562500	3.267359	0.306151	0.734762	0.605307
-1.652557	-17.562500	3.267359	-0.306151	0.734762	0.605307
1.905123	-17.674107	3.267568	0.341660	0.734762	0.585998
-1.905123	-17.674107	3.267568	-0.341660	0.734762	0.585998
1.482060	-17.495535	3.268664	0.280114	0.734762	0.617787
-1.482060	-17.495535	3.268664	-0.280114	0.734762	0.617787
1.158362	-17.383928	3.268902	0.226566	0.734762	0.639369
-1.158362	-17.383928	3.268902	-0.226566	0.734762	0.639369
1.004003	-17.339285	3.269010	0.199151	0.734762	0.648432
-1.004003	-17.339285	3.269010	-0.199151	0.734762	0.648432
2.176767	-17.808035	3.269046	0.375956	0.734762	0.564608
-2.176767	-17.808035	3.269046	-0.375956	0.734762	0.564608
0.823958	-17.294643	3.269120	0.165782	0.734762	0.657755
-0.823958	-17.294643	3.269120	-0.165782	0.734762	0.657755
0.590958	-17.250000	3.270030	0.120633	0.734762	0.667512
-0.590958	-17.250000	3.270030	-0.120633	0.734762	0.667512
0.913684	-17.316965	3.270297	0.182526	0.734762	0.653306
-0.913684	-17.316965	3.270297	-0.182526	0.734762	0.653306
2.218091	-17.830357	3.270406	0.380750	0.734762	0.561386
-2.218091	-17.830357	3.270406	-0.380750	0.734762	0.561386
1.416583	-17.473215	3.271237	0.269554	0.734762	0.622467
-1.416583	-17.473215	3.271237	-0.269554	0.734762	0.622467
2.259595	-17.852678	3.271297	0.385515	0.734762	0.558124
-2.259595	-17.852678	3.271297	-0.385515	0.734762	0.558124
1.222315	-17.406250	3.271354	0.237419	0.734762	0.635419
-1.222315	-17.406250	3.271354	-0.237419	0.734762	0.635419
0.707063	-17.272322	3.271646	0.143290	0.734762	0.663018
-0.707063	-17.272322	3.271646	-0.143290	0.734762	0.663018
2.301275	-17.875000	3.271718	0.390253	0.734762	0.554822
-2.301275	-17.875000	3.271718	-0.390253	0.734762	0.554822
1.945229	-17.696428	3.272013	0.346637	0.734762	0.583068
-1.945229	-17.696428	3.272013	-0.346637	0.734762	0.583068
1.351450	-17.450893	3.272535	0.258917	0.734762	0.626967
-1.351450	-17.450893	3.272535	-0.258917	0.734762	0.626967
1.286686	-17.428572	3.272569	0.248204	0.734762	0.631284
-1.286686	-17.428572	3.272569	-0.248204	0.734762	0.631284
1.797771	-17.629465	3.272773	0.326583	0.734762	0.594532
-1.797771	-17.629465	3.272773	-0.326583	0.734762	0.594532
1.586142	-17.540178	3.273265	0.295800	0.734762	0.610432
-1.586142	-17.540178	3.273265	-0.295800	0.734762	0.610432
1.067010	-17.361607	3.274430	0.210163	0.734762	0.644947
-1.067010	-17.361607	3.274430	-0.210163	0.734762	0.644947
1.691411	-17.584822	3.274654	0.311293	0.734762	0.602679
-1.691411	-17.584822	3.274654	-0.311293	0.734762	0.602679
0.563097	-17.250000	3.274943	0.114945	0.734762	0.668515
-0.563097	-17.250000	3.274943	-0.114945	0.734762	0.668515
1.985548	-17.718750	3.276011	0.351588	0.734762	0.580095
-1.985548	-17.718750	3.276011	-0.351588	0.734762	0.580095
0.796095	-17.294643	3.276016	0.160176	0.734762	0.659142
-0.796095	-17.294643	3.276016	-0.160176	0.734762	0.659142
0.976135	-17.339285	3.277439	0.193624	0.734762	0.650104
-0.976135	-17.339285	3.277439	-0.193624	0.734762	0.650104
0.679184	-17.272322	3.277547	0.137641	0.734762	0.664214
-0.679184	-17.272322	3.277547	-0.137641	0.734762	0.664214
1.520007	-17.517857	3.277862	0.285363	0.734762	0.615380
-1.520007	-17.517857	3.277862	-0.285363	0.734762	0.615380
0.885808	-17.316965	3.277958	0.176958	0.734762	0.654837
-0.885808	-17.316965	3.277958	-0.176958	0.734762	0.654837
1.837390	-17.651785	3.278440	0.331633	0.734762	0.591730
-1.837390	-17.651785	3.278440	-0.331633	0.734762	0.591730
1.130489	-17.383928	3.278645	0.221114	0.734762	0.641275
-1.130489	-17.383928	3.278645	-0.221114	0.734762	0.641275
2.026074	-17.741072	3.279557	0.356514	0.734762	0.577081
-2.026074	-17.741072	3.279557	-0.356514	0.734762	0.577081
0.535195	-17.250000	3.279618	0.109249	0.734762	0.669470
-0.535195	-17.250000	3.279618	-0.109249	0.734762	0.669470
1.454178	-17.495535	3.281163	0.274844	0.734762	0.620150
-1.454178	-17.495535	3.281163	-0.274844	0.734762	0.620150
1.624680	-17.562500	3.281310	0.300986	0.734762	0.607892
-1.624680	-17.562500	3.281310	-0.300986	0.734762	0.607892
1.730507	-17.607143	3.281522	0.316413	0.734762	0.600007
-1.730507	-17.607143	3.281522	-0.316413	0.734762	0.600007
1.194420	-17.406250	3.281641	0.232001	0.734762	0.637417
-1.194420	-17.406250	3.281641	-0.232001	0.734762	0.637417
2.066805	-17.763393	3.282650	0.361415	0.734762	0.574025
-2.066805	-17.763393	3.282650	-0.361415	0.734762	0.574025
0.768176	-17.294643	3.282675	0.154559	0.734762	0.660482
-0.768176	-17.294643	3.282675	-0.154559	0.734762	0.660482
1.388681	-17.473215	3.283179	0.264245	0.734762	0.624740
-1.388681	-17.473215	3.283179	-0.264245	0.734762	0.624740
0.651255	-17.272322	3.283211	0.131981	0.734762	0.665362
-0.651255	-17.272322	3.283211	-0.131981	0.734762	0.665362
1.039093	-17.361607	3.283395	0.204665	0.734762	0.646713
-1.039093	-17.361607	3.283395	-0.204665	0.734762	0.646713
1.258778	-17.428572	3.283405	0.242820	0.734762	0.633375
-1.258778	-17.428572	3.283405	-0.242820	0.734762	0.633375
1.877235	-17.674107	3.283669	0.336659	0.734762	0.588885
-1.877235	-17.674107	3.283669	-0.336659	0.734762	0.588885
1.323539	-17.450893	3.283922	0.253570	0.734762	0.629148
-1.323539	-17.450893	3.283922	-0.253570	0.734762	0.629148
0.507254	-17.250000	3.284056	0.103546	0.734762	0.670375
-0.507254	-17.250000	3.284056	-0.103546	0.734762	0.670375
2.107733	-17.785715	3.285285	0.366289	0.734762	0.570927
-2.107733	-17.785715	3.285285	-0.366289	0.734762	0.570927
0.857869	-17.316965	3.285380	0.171376	0.734762	0.656319
-0.857869	-17.316965	3.285380	-0.171376	0.734762	0.656319
0.948197	-17.339285	3.285630	0.188082	0.734762	0.651729
-0.948197	-17.339285	3.285630	-0.188082	0.734762	0.651729
1.558216	-17.540178	3.286650	0.290592	0.734762	0.612928
-1.558216	-17.540178	3.286650	-0.290592	0.734762	0.612928
2.148856	-17.808035	3.287460	0.371136	0.734762	0.567788
-2.148856	-17.808035	3.287460	-0.371136	0.734762	0.567788
1.769842	-17.629465	3.287960	0.321510	0.734762	0.597291
-1.769842	-17.629465	3.287960	-0.321510	0.734762	0.597291
1.102535	-17.383928	3.288151	0.215646	0.734762	0.643134
-1.102535	-17.383928	3.288151	-0.215646	0.734762	0.643134
0.479276	-17.250000	3.288255	0.097835	0.734762	0.671233
-0.479276	-17.250000	3.288255	-0.097835	0.734762	0.671233
1.917302	-17.696428	3.288456	0.341660	0.734762	0.585998
-1.917302	-17.696428	3.288456	-0.341660	0.734762	0.585998
0.623279	-17.272322	3.288636	0.126311	0.734762	0.666461
-0.623279	-17.272322	3.288636	-0.126311	0.734762	0.666461
1.663470	-17.584822	3.288935	0.306151	0.734762	0.605307
-1.663470	-17.584822	3.288935	-0.306151	0.734762	0.605307
0.740200	-17.294643	3.289096	0.148930	0.734762	0.661774
-0.740200	-17.294643	3.289096	-0.148930	0.734762	0.661774
2.190167	-17.830357	3.289171	0.375956	0.734762	0.564608
-2.190167	-17.830357	3.289171	-0.375956	0.734762	0.564608
2.231663	-17.852678	3.290416	0.380750	0.734762	0.561386
-2.231663	-17.852678	3.290416	-0.380750	0.734762	0.561386
1.492045	-17.517857	3.290684	0.280114	0.734762	0.617787
-1.492045	-17.517857	3.290684	-0.280114	0.734762	0.617787
2.273337	-17.875000	3.291191	0.385515	0.734762	0.558124
-2.273337	-17.875000	3.291191	-0.385515	0.734762	0.558124
1.166438	-17.406250	3.291692	0.226566	0.734762	0.639369
-1.166438	-17.406250	3.291692	-0.226566	0.734762	0.639369
1.011102	-17.361607	3.292123	0.199151	0.734762	0.648432
-1.011102	-17.361607	3.292123	-0.199151	0.734762	0.648432
0.451263	-17.250000	3.292217	0.092117	0.734762	0.672041
-0.451263	-17.250000	3.292217	-0.092117	0.734762	0.672041
0.829867	-17.316965	3.292565	0.165782	0.734762	0.657755
-0.829867	-17.316965	3.292565	-0.165782	0.734762	0.657755
1.957585	-17.718750	3.292796	0.346637	0.734762	0.583068
-1.957585	-17.718750	3.292796	-0.346637	0.734762	0.583068
1.426191	-17.495535	3.293424	0.269554	0.734762	0.622467
-1.426191	-17.495535	3.293424	-0.269554	0.734762	0.622467
0.920190	-17.339285	3.293584	0.182526	0.734762	0.653306
-0.920190	-17.339285	3.293584	-0.182526	0.734762	0.653306
0.595258	-17.272322	3.293823	0.120633	0.734762	0.667512
-0.595258	-17.272322	3.293823	-0.120633	0.734762	0.667512
1.809412	-17.651785	3.293965	0.326583	0.734762	0.594532
-1.809412	-17.651785	3.293965	-0.326583	0.734762	0.594532
1.230778	-17.428572	3.294003	0.237419	0.734762	0.635419
-1.230778	-17.428572	3.294003	-0.237419	0.734762	0.635419
1.360679	-17.473215	3.294883	0.258917	0.734762	0.626967
-1.360679	-17.473215	3.294883	-0.258917	0.734762	0.626967
1.596685	-17.562500	3.295023	0.295800	0.734762	0.610432
-1.596685	-17.562500	3.295023	-0.295800	0.734762	0.610432
1.295533	-17.450893	3.295071	0.248204	0.734762	0.631284
-1.295533	-17.450893	3.295071	-0.248204	0.734762	0.631284
0.712171	-17.294643	3.295279	0.143290	0.734762	0.663018
-0.712171	-17.294643	3.295279	-0.143290	0.734762	0.663018
0.423218	-17.250000	3.295939	0.086392	0.734762	0.672801
-0.423218	-17.250000	3.295939	-0.086392	0.734762	0.672801
1.702507	-17.607143	3.296136	0.311293	0.734762	0.602679
-1.702507	-17.607143	3.296136	-0.311293	0.734762	0.602679
1.998080	-17.741072	3.296688	0.351588	0.734762	0.580095
-1.998080	-17.741072	3.296688	-0.351588	0.734762	0.580095
1.074501	-17.383928	3.297418	0.210163	0.734762	0.644947
-1.074501	-17.383928	3.297418	-0.210163	0.734762	0.644947
0.567194	-17.272322	3.298772	0.114945	0.734762	0.668515
-0.567194	-17.272322	3.298772	-0.114945	0.734762	0.668515
0.395142	-17.250000	3.299423	0.080660	0.734762	0.673512
-0.395142	-17.250000	3.299423	-0.080660	0.734762	0.673512
0.801805	-17.316965	3.299511	0.160176	0.734762	0.659142
-0.801805	-17.316965	3.299511	-0.160176	0.734762	0.659142
1.849211	-17.674107	3.299532	0.331633	0.734762	0.591730
-1.849211	-17.674107	3.299532	-0.331633	0.734762	0.591730
1.530178	-17.540178	3.299797	0.285363	0.734762	0.615380
-1.530178	-17.540178	3.299797	-0.285363	0.734762	0.615380
2.038782	-17.763393	3.300127	0.356514	0.734762	0.577081
-2.038782	-17.763393	3.300127	-0.356514	0.734762	0.577081
0.983037	-17.361607	3.300611	0.193624	0.734762	0.650104
-0.983037	-17.361607	3.300611	-0.193624	0.734762	0.650104
0.684090	-17.294643	3.301223	0.137641	0.734762	0.664214
-0.684090	-17.294643	3.301223	-0.137641	0.734762	0.664214
0.892116	-17.339285	3.301299	0.176958	0.734762	0.654837
-0.892116	-17.339285	3.301299	-0.176958	0.734762	0.654837
1.138371	-17.406250	3.301503	0.221114	0.734762	0.641275
-1.138371	-17.406250	3.301503	-0.221114	0.734762	0.641275
0.367037	-17.250000	3.302668	0.074923	0.734762	0.674175
-0.367037	-17.250000	3.302668	-0.074923	0.734762	0.674175
1.741786	-17.629465	3.302909	0.316413	0.734762	0.600007
-1.741786	-17.629465	3.302909	-0.316413	0.734762	0.600007
1.635409	-17.584822	3.302978	0.300986	0.734762	0.607892
-1.635409	-17.584822	3.302978	-0.300986	0.734762	0.607892
2.079687	-17.785715	3.303111	0.361415	0.734762	0.574025
-2.079687	-17.785715	3.303111	-0.361415	0.734762	0.574025
1.463975	-17.517857	3.303268	0.274844	0.734762	0.620150
-1.463975	-17.517857	3.303268	-0.274844	0.734762	0.620150
0.539089	-17.272322	3.303481	0.109249	0.734762	0.669470
-0.539089	-17.272322	3.303481	-0.109249	0.734762	0.669470
1.202689	-17.428572	3.304362	0.232001	0.734762	0.637417
-1.202689	-17.428572	3.304362	-0.232001	0.734762	0.637417
1.889235	-17.696428	3.304660	0.336659	0.734762	0.588885
-1.889235	-17.696428	3.304660	-0.336659	0.734762	0.588885
1.398100	-17.495535	3.305447	0.264245	0.734762	0.624740
-1.398100	-17.495535	3.305447	-0.264245	0.734762	0.624740
2.120790	-17.808035	3.305636	0.366289	0.734762	0.570927
-2.120790	-17.808035	3.305636	-0.366289	0.734762	0.570927
0.338906	-17.250000	3.305673	0.069181	0.734762	0.674788
-0.338906	-17.250000	3.305673	-0.069181	0.734762	0.674788
1.267433	-17.450893	3.305981	0.242820	0.734762	0.633375
-1.267433	-17.450893	3.305981	-0.242820	0.734762	0.633375
0.773685	-17.316965	3.306218	0.154559	0.734762	0.660482
-0.773685	-17.316965	3.306218	-0.154559	0.734762	0.660482
1.332578	-17.473215	3.306347	0.253570	0.734762	0.629148
-1.332578	-17.473215	3.306347	-0.253570	0.734762	0.629148
1.046389	-17.383928	3.306447	0.204665	0.734762	0.646713
-1.046389	-17.383928	3.306447	-0.204665	0.734762	0.646713
0.655960	-17.294643	3.306927	0.131981	0.734762	0.665362
-0.655960	-17.294643	3.306927	-0.131981	0.734762	0.665362
2.162085	-17.830357	3.307699	0.371136	0.734762	0.567788
-2.162085	-17.830357	3.307699	-0.371136	0.734762	0.567788
0.510944	-17.272322	3.307951	0.103546	0.734762	0.670375
-0.510944	-17.272322	3.307951	-0.103546	0.734762	0.670375
0.310750	-17.250000	3.308438	0.063434	0.734762	0.675353
-0.310750	-17.250000	3.308438	-0.063434	0.734762	0.675353
1.568575	-17.562500	3.308498	0.290592	0.734762	0.612928
-1.568575	-17.562500	3.308498	-0.290592	0.734762	0.612928
0.863977	-17.339285	3.308774	0.171376	0.734762	0.656319
-0.863977	-17.339285	3.308774	-0.171376	0.734762	0.656319
0.954901	-17.361607	3.308861	0.188082	0.734762	0.651729
-0.954901	-17.361607	3.308861	-0.188082	0.734762	0.651729
1.781302	-17.651785	3.309250	0.321510	0.734762	0.597291
-1.781302	-17.651785	3.309250	-0.321510	0.734762	0.597291
2.203568	-17.852678	3.309297	0.375956	0.734762	0.564608
-2.203568	-17.852678	3.309297	-0.375956	0.734762	0.564608
1.929480	-17.718750	3.309343	0.341660	0.734762	0.585998
-1.929480	-17.718750	3.309343	-0.341660	0.734762	0.585998
2.245234	-17.875000	3.310426	0.380750	0.734762	0.561386
-2.245234	-17.875000	3.310426	-0.380750	0.734762	0.561386
1.674383	-17.607143	3.310511	0.306151	0.734762	0.605307
-1.674383	-17.607143	3.310511	-0.306151	0.734762	0.605307
0.282572	-17.250000	3.310964	0.057682	0.734762	0.675868
-0.282572	-17.250000	3.310964	-0.057682	0.734762	0.675868
1.110222	-17.406250	3.311075	0.215646	0.734762	0.643134
-1.110222	-17.406250	3.311075	-0.215646	0.734762	0.643134
0.482763	-17.272322	3.312181	0.097835	0.734762	0.671233
-0.482763	-17.272322	3.312181	-0.097835	0.734762	0.671233
0.627782	-17.294643	3.312392	0.126311	0.734762	0.666461
-0.627782	-17.294643	3.312392	-0.126311	0.734762	0.666461
0.745509	-17.316965	3.312685	0.148930	0.734762	0.661774
-0.745509	-17.316965	3.312685	-0.148930	0.734762	0.661774
1.502030	-17.540178	3.312705	0.280114	0.734762	0.617787
-1.502030	-17.540178	3.312705	-0.280114	0.734762	0.617787
0.254373	-17.250000	3.313250	0.051925	0.734762	0.676335
-0.254373	-17.250000	3.313250	-0.051925	0.734762	0.676335
1.969941	-17.741072	3.313579	0.346637	0.734762	0.583068
-1.969941	-17.741072	3.313579	-0.346637	0.734762	0.583068
1.174513	-17.428572	3.314481	0.226566	0.734762	0.639369
-1.174513	-17.428572	3.314481	-0.226566	0.734762	0.639369
1.821053	-17.674107	3.315156	0.326583	0.734762	0.594532
-1.821053	-17.674107	3.315156	-0.326583	0.734762	0.594532
1.018201	-17.383928	3.315236	0.199151	0.734762	0.648432
-1.018201	-17.383928	3.315236	-0.199151	0.734762	0.648432
0.226156	-17.250000	3.315295	0.046165	0.734762	0.676752
-0.226156	-17.250000	3.315295	-0.046165	0.734762	0.676752
1.435799	-17.517857	3.315612	0.269554	0.734762	0.622467
-1.435799	-17.517857	3.315612	-0.269554	0.734762	0.622467
0.835776	-17.339285	3.316010	0.165782	0.734762	0.657755
-0.835776	-17.339285	3.316010	-0.165782	0.734762	0.657755
0.454547	-17.272322	3.316171	0.092117	0.734762	0.672041
-0.454547	-17.272322	3.316171	-0.092117	0.734762	0.672041
1.239241	-17.450893	3.316652	0.237419	0.734762	0.635419
-1.239241	-17.450893	3.316652	-0.237419	0.734762	0.635419
1.607229	-17.584822	3.316782	0.295800	0.734762	0.610432
-1.607229	-17.584822	3.316782	-0.295800	0.734762	0.610432
0.926696	-17.361607	3.316871	0.182526	0.734762	0.653306
-0.926696	-17.361607	3.316871	-0.182526	0.734762	0.653306
0.197922	-17.250000	3.317101	0.040402	0.734762	0.677121
-0.197922	-17.250000	3.317101	-0.040402	0.734762	0.677121
1.369908	-17.495535	3.317230	0.258917	0.734762	0.626967
-1.369908	-17.495535	3.317230	-0.258917	0.734762	0.626967
2.010612	-17.763393	3.317365	0.351588	0.734762	0.580095
-2.010612	-17.763393	3.317365	-0.351588	0.734762	0.580095
1.304380	-17.473215	3.317573	0.248204	0.734762	0.631284
-1.304380	-17.473215	3.317573	-0.248204	0.734762	0.631284
0.599558	-17.294643	3.317616	0.120633	0.734762	0.667512
-0.599558	-17.294643	3.317616	-0.120633	0.734762	0.667512
1.713603	-17.629465	3.317618	0.311293	0.734762	0.602679
-1.713603	-17.629465	3.317618	-0.311293	0.734762	0.602679
0.169674	-17.250000	3.318665	0.034636	0.734762	0.677440
-0.169674	-17.250000	3.318665	-0.034636	0.734762	0.677440
0.717278	-17.316965	3.318912	0.143290	0.734762	0.663018
-0.717278	-17.316965	3.318912	-0.143290	0.734762	0.663018
0.426297	-17.272322	3.319921	0.086392	0.734762	0.672801
-0.426297	-17.272322	3.319921	-0.086392	0.734762	0.672801
0.141414	-17.250000	3.319990	0.028867	0.734762	0.677711
-0.141414	-17.250000	3.319990	-0.028867	0.734762	0.677711
1.081992	-17.406250	3.320407	0.210163	0.734762	0.644947
-1.081992	-17.406250	3.320407	-0.210163	0.734762	0.644947
1.861032	-17.696428	3.320624	0.331633	0.734762	0.591730
-1.861032	-17.696428	3.320624	-0.331633	0.734762	0.591730
2.051490	-17.785715	3.320697	0.356514	0.734762	0.577081
-2.051490	-17.785715	3.320697	-0.356514	0.734762	0.577081
0.113144	-17.250000	3.321073	0.023096	0.734762	0.677932
-0.113144	-17.250000	3.321073	-0.023096	0.734762	0.677932
1.540350	-17.562500	3.321732	0.285363	0.734762	0.615380
-1.540350	-17.562500	3.321732	-0.285363	0.734762	0.615380
0.084865	-17.250000	3.321916	0.017323	0.734762	0.678104
-0.084865	-17.250000	3.321916	-0.017323	0.734762	0.678104
0.056580	-17.250000	3.322518	0.011550	0.734762	0.678227
-0.056580	-17.250000	3.322518	-0.011550	0.734762	0.678227
0.571291	-17.294643	3.322601	0.114945	0.734762	0.668515
-0.571291	-17.294643	3.322601	-0.114945	0.734762	0.668515
0.028291	-17.250000	3.322880	0.005775	0.734762	0.678301
-0.028291	-17.250000	3.322880	-0.005775	0.734762	0.678301
0.000000	-17.250000	3.323000	0.000000	0.734762	0.678325
0.807514	-17.339285	3.323006	0.160176	0.734762	0.659142
-0.807514	-17.339285	3.323006	-0.160176	0.734762	0.659142
0.398017	-17.272322	3.323430	0.080660	0.734762	0.673512
-0.398017	-17.272322	3.323430	-0.080660	0.734762	0.673512
2.092570	-17.808035	3.323572	0.361415	0.734762	0.574025
-2.092570	-17.808035	3.323572	-0.361415	0.734762	0.574025
0.989939	-17.383928	3.323784	0.193624	0.734762	0.650104
-0.989939	-17.383928	3.323784	-0.193624	0.734762	0.650104
1.753064	-17.651785	3.324296	0.316413	0.734762	0.600007
-1.753064	-17.651785	3.324296	-0.316413	0.734762	0.600007
1.146252	-17.428572	3.324361	0.221114	0.734762	0.641275
-1.146252	-17.428572	3.324361	-0.221114	0.734762	0.641275
0.898423	-17.361607	3.324640	0.176958	0.734762	0.654837
-0.898423	-17.361607	3.324640	-0.176958	0.734762	0.654837
1.646137	-17.607143	3.324646	0.300986	0.734762	0.607892
-1.646137	-17.607143	3.324646	-0.300986	0.734762	0.607892
0.688996	-17.316965	3.324898	0.137641	0.734762	0.664214
-0.688996	-17.316965	3.324898	-0.137641	0.734762	0.664214
1.473772	-17.540178	3.325373	0.274844	0.734762	0.620150
-1.473772	-17.540178	3.325373	-0.274844	0.734762	0.620150
1.901235	-17.718750	3.325650	0.336659	0.734762	0.588885
-1.901235	-17.718750	3.325650	-0.336659	0.734762	0.588885
2.133846	-17.830357	3.325986	0.366289	0.734762	0.570927
-2.133846	-17.830357	3.325986	-0.366289	0.734762	0.570927
0.369708	-17.272322	3.326698	0.074923	0.734762	0.674175
-0.369708	-17.272322	3.326698	-0.074923	0.734762	0.674175
1.210959	-17.450893	3.327082	0.232001	0.734762	0.637417
-1.210959	-17.450893	3.327082	-0.232001	0.734762	0.637417
0.542983	-17.294643	3.327344	0.109249	0.734762	0.669470
-0.542983	-17.294643	3.327344	-0.109249	0.734762	0.669470
1.407519	-17.517857	3.327716	0.264245	0.734762	0.624740
-1.407519	-17.517857	3.327716	-0.264245	0.734762	0.624740
2.175314	-17.852678	3.327937	0.371136	0.734762	0.567788
-2.175314	-17.852678	3.327937	-0.371136	0.734762	0.567788
1.276088	-17.473215	3.328558	0.242820	0.734762	0.633375
-1.276088	-17.473215	3.328558	-0.242820	0.734762	0.633375
1.341616	-17.495535	3.328773	0.253570	0.734762	0.629148
-1.341616	-17.495535	3.328773	-0.253570	0.734762	0.629148
2.216969	-17.875000	3.329422	0.375956	0.734762	0.564608
-2.216969	-17.875000	3.329422	-0.375956	0.734762	0.564608
1.053684	-17.406250	3.329499	0.204665	0.734762	0.646713
-1.053684	-17.406250	3.329499	-0.204665	0.734762	0.646713
0.341372	-17.272322	3.329725	0.069181	0.734762	0.674788
-0.341372	-17.272322	3.329725	-0.069181	0.734762	0.674788
0.779194	-17.339285	3.329760	0.154559	0.734762	0.660482
-0.779194	-17.339285	3.329760	-0.154559	0.734762	0.660482
1.941658	-17.741072	3.330231	0.341660	0.734762	0.585998
-1.941658	-17.741072	3.330231	-0.341660	0.734762	0.585998
1.578933	-17.584822	3.330345	0.290592	0.734762	0.612928
-1.578933	-17.584822	3.330345	-0.290592	0.734762	0.612928
1.792763	-17.674107	3.330540	0.321510	0.734762	0.597291
-1.792763	-17.674107	3.330540	-0.321510	0.734762	0.597291
0.660664	-17.316965	3.330643	0.131981	0.734762	0.665362
-0.660664	-17.316965	3.330643	-0.131981	0.734762	0.665362
0.514635	-17.294643	3.331846	0.103546	0.734762	0.670375
-0.514635	-17.294643	3.331846	-0.103546	0.734762	0.670375
1.685295	-17.629465	3.332087	0.306151	0.734762	0.605307
-1.685295	-17.629465	3.332087	-0.306151	0.734762	0.605307
0.961605	-17.383928	3.332092	0.188082	0.734762	0.651729
-0.961605	-17.383928	3.332092	-0.188082	0.734762	0.651729
0.870086	-17.361607	3.332169	0.171376	0.734762	0.656319
-0.870086	-17.361607	3.332169	-0.171376	0.734762	0.656319
0.313011	-17.272322	3.332511	0.063434	0.734762	0.675353
-0.313011	-17.272322	3.332511	-0.063434	0.734762	0.675353
1.117908	-17.428572	3.333999	0.215646	0.734762	0.643134
-1.117908	-17.428572	3.333999	-0.215646	0.734762	0.643134
1.982296	-17.763393	3.334363	0.346637	0.734762	0.583068
-1.982296	-17.763393	3.334363	-0.346637	0.734762	0.583068
1.512014	-17.562500	3.334726	0.280114	0.734762	0.617787
-1.512014	-17.562500	3.334726	-0.280114	0.734762	0.617787
0.284628	-17.272322	3.335055	0.057682	0.734762	0.675868
-0.284628	-17.272322	3.335055	-0.057682	0.734762	0.675868
0.486250	-17.294643	3.336107	0.097835	0.734762	0.671233
-0.486250	-17.294643	3.336107	-0.097835	0.734762	0.671233
0.632284	-17.316965	3.336148	0.126311	0.734762	0.666461
-0.632284	-17.316965	3.336148	-0.126311	0.734762	0.666461
0.750817	-17.339285	3.336273	0.148930	0.734762	0.661774
-0.750817	-17.339285	3.336273	-0.148930	0.734762	0.661774
1.832694	-17.696428	3.336348	0.326583	0.734762	0.594532
-1.832694	-17.696428	3.336348	-0.326583	0.734762	0.594532
1.182589	-17.450893	3.337271	0.226566	0.734762	0.639369
-1.182589	-17.450893	3.337271	-0.226566	0.734762	0.639369
0.256224	-17.272322	3.337357	0.051925	0.734762	0.676335
-0.256224	-17.272322	3.337357	-0.051925	0.734762	0.676335
1.445407	-17.540178	3.337800	0.269554	0.734762	0.622467
-1.445407	-17.540178	3.337800	-0.269554	0.734762	0.622467
2.023144	-17.785715	3.338042	0.351588	0.734762	0.580095
-2.023144	-17.785715	3.338042	-0.351588	0.734762	0.580095
1.025299	-17.406250	3.338349	0.199151	0.734762	0.648432
-1.025299	-17.406250	3.338349	-0.199151	0.734762	0.648432
1.617772	-17.607143	3.338540	0.295800	0.734762	0.610432
-1.617772	-17.607143	3.338540	-0.295800	0.734762	0.610432
1.724698	-17.651785	3.339100	0.311293	0.734762	0.602679
-1.724698	-17.651785	3.339100	-0.311293	0.734762	0.602679
1.247704	-17.473215	3.339301	0.237419	0.734762	0.635419
-1.247704	-17.473215	3.339301	-0.237419	0.734762	0.635419
0.227801	-17.272322	3.339418	0.046165	0.734762	0.676752
-0.227801	-17.272322	3.339418	-0.046165	0.734762	0.676752
0.841685	-17.361607	3.339456	0.165782	0.734762	0.657755
-0.841685	-17.361607	3.339456	-0.165782	0.734762	0.657755
1.379137	-17.517857	3.339578	0.258917	0.734762	0.626967
-1.379137	-17.517857	3.339578	-0.258917	0.734762	0.626967
1.313227	-17.495535	3.340075	0.248204	0.734762	0.631284
-1.313227	-17.495535	3.340075	-0.248204	0.734762	0.631284
0.457830	-17.294643	3.340126	0.092117	0.734762	0.672041
-0.457830	-17.294643	3.340126	-0.092117	0.734762	0.672041
0.933202	-17.383928	3.340158	0.182526	0.734762	0.653306
-0.933202	-17.383928	3.340158	-0.182526	0.734762	0.653306
0.199362	-17.272322	3.341236	0.040402	0.734762	0.677121
-0.199362	-17.272322	3.341236	-0.040402	0.734762	0.677121
2.064198	-17.808035	3.341267	0.356514	0.734762	0.577081
-2.064198	-17.808035	3.341267	-0.356514	0.734762	0.577081
0.603858	-17.316965	3.341410	0.120633	0.734762	0.667512
-0.603858	-17.316965	3.341410	-0.120633	0.734762	0.667512
1.872853	-17.718750	3.341716	0.331633	0.734762	0.591730
-1.872853	-17.718750	3.341716	-0.331633	0.734762	0.591730
0.722386	-17.339285	3.342545	0.143290	0.734762	0.663018
-0.722386	-17.339285	3.342545	-0.143290	0.734762	0.663018
0.170909	-17.272322	3.342812	0.034636	0.734762	0.677440
-0.170909	-17.272322	3.342812	-0.034636	0.734762	0.677440
1.089483	-17.428572	3.343396	0.210163	0.734762	0.644947
-1.089483	-17.428572	3.343396	-0.210163	0.734762	0.644947
1.550522	-17.584822	3.343667	0.285363	0.734762	0.615380
-1.550522	-17.584822	3.343667	-0.285363	0.734762	0.615380
0.429377	-17.294643	3.343903	0.086392	0.734762	0.672801
-0.429377	-17.294643	3.343903	-0.086392	0.734762	0.672801
2.105452	-17.830357	3.344033	0.361415	0.734762	0.574025
-2.105452	-17.830357	3.344033	-0.361415	0.734762	0.574025
0.142443	-17.272322	3.344146	0.028867	0.734762	0.677711
-0.142443	-17.272322	3.344146	-0.028867	0.734762	0.677711
0.113967	-17.272322	3.345238	0.023096	0.734762	0.677932
-0.113967	-17.272322	3.345238	-0.023096	0.734762	0.677932
1.764342	-17.674107	3.345683	0.316413	0.734762	0.600007
-1.764342	-17.674107	3.345683	-0.316413	0.734762	0.600007
0.085482	-17.272322	3.346087	0.017323	0.734762	0.678104
-0.085482	-17.272322	3.346087	-0.017323	0.734762	0.678104
1.656866	-17.629465	3.346314	0.300986	0.734762	0.607892
-1.656866	-17.629465	3.346314	-0.300986	0.734762	0.607892
2.146902	-17.852678	3.346337	0.366289	0.734762	0.570927
-2.146902	-17.852678	3.346337	-0.366289	0.734762	0.570927
0.575388	-17.316965	3.346430	0.114945	0.734762	0.668515
-0.575388	-17.316965	3.346430	-0.114945	0.734762	0.668515
0.813224	-17.361607	3.346500	0.160176	0.734762	0.659142
-0.813224	-17.361607	3.346500	-0.160176	0.734762	0.659142
1.913235	-17.741072	3.346641	0.336659	0.734762	0.588885
-1.913235	-17.741072	3.346641	-0.336659	0.734762	0.588885
0.056992	-17.272322	3.346693	0.011550	0.734762	0.678227
-0.056992	-17.272322	3.346693	-0.011550	0.734762	0.678227
0.996840	-17.406250	3.346957	0.193624	0.734762	0.650104
-0.996840	-17.406250	3.346957	-0.193624	0.734762	0.650104
-0.028497	-17.272322	3.347057	-0.005775	0.734762	0.678301
0.028497	-17.272322	3.347057	0.005775	0.734762	0.678301
0.000000	-17.272322	3.347178	0.000000	0.734762	0.678325
1.154134	-17.450893	3.347219	0.221114	0.734762	0.641275
-1.154134	-17.450893	3.347219	-0.221114	0.734762	0.641275
0.400892	-17.294643	3.347437	0.080660	0.734762	0.673512
-0.400892	-17.294643	3.347437	-0.080660	0.734762	0.673512
1.483568	-17.562500	3.347478	0.274844	0.734762	0.620150
-1.483568	-17.562500	3.347478	-0.274844	0.734762	0.620150
0.904731	-17.383928	3.347982	0.176958	0.734762	0.654837
-0.904731	-17.383928	3.347982	-0.176958	0.734762	0.654837
2.188543	-17.875000	3.348176	0.371136	0.734762	0.567788
-2.188543	-17.875000	3.348176	-0.371136	0.734762	0.567788
0.693902	-17.339285	3.348574	0.137641	0.734762	0.664214
-0.693902	-17.339285	3.348574	-0.137641	0.734762	0.664214
1.219229	-17.473215	3.349803	0.232001	0.734762	0.637417
-1.219229	-17.473215	3.349803	-0.232001	0.734762	0.637417
1.416938	-17.540178	3.349984	0.264245	0.734762	0.624740
-1.416938	-17.540178	3.349984	-0.264245	0.734762	0.624740
0.372378	-17.294643	3.350729	0.074923	0.734762	0.674175
-0.372378	-17.294643	3.350729	-0.074923	0.734762	0.674175
1.953837	-17.763393	3.351118	0.341660	0.734762	0.585998
-1.953837	-17.763393	3.351118	-0.341660	0.734762	0.585998
1.284743	-17.495535	3.351134	0.242820	0.734762	0.633375
-1.284743	-17.495535	3.351134	-0.242820	0.734762	0.633375
1.350654	-17.517857	3.351199	0.253570	0.734762	0.629148
-1.350654	-17.517857	3.351199	-0.253570	0.734762	0.629148
0.546877	-17.316965	3.351207	0.109249	0.734762	0.669470
-0.546877	-17.316965	3.351207	-0.109249	0.734762	0.669470
1.804223	-17.696428	3.351830	0.321510	0.734762	0.597291
-1.804223	-17.696428	3.351830	-0.321510	0.734762	0.597291
1.589290	-17.607143	3.352193	0.290592	0.734762	0.612928
-1.589290	-17.607143	3.352193	-0.290592	0.734762	0.612928
1.060979	-17.428572	3.352550	0.204665	0.734762	0.646713
-1.060979	-17.428572	3.352550	-0.204665	0.734762	0.646713
0.784703	-17.361607	3.353303	0.154559	0.734762	0.660482
-0.784703	-17.361607	3.353303	-0.154559	0.734762	0.660482
1.696208	-17.651785	3.353663	0.306151	0.734762	0.605307
-1.696208	-17.651785	3.353663	-0.306151	0.734762	0.605307
0.343838	-17.294643	3.353778	0.069181	0.734762	0.674788
-0.343838	-17.294643	3.353778	-0.069181	0.734762	0.674788
0.665368	-17.339285	3.354360	0.131981	0.734762	0.665362
-0.665368	-17.339285	3.354360	-0.131981	0.734762	0.665362
1.994652	-17.785715	3.355146	0.346637	0.734762	0.583068
-1.994652	-17.785715	3.355146	-0.346637	0.734762	0.583068
0.968309	-17.406250	3.355322	0.188082	0.734762	0.651729
-0.968309	-17.406250	3.355322	-0.188082	0.734762	0.651729
0.876194	-17.383928	3.355563	0.171376	0.734762	0.656319
-0.876194	-17.383928	3.355563	-0.171376	0.734762	0.656319
0.518326	-17.316965	3.355742	0.103546	0.734762	0.670375
-0.518326	-17.316965	3.355742	-0.103546	0.734762	0.670375
0.315272	-17.294643	3.356583	0.063434	0.734762	0.675353
