0.646857	-13.790178	3.579341	0.120633	0.734762	0.667512
-0.646857	-13.790178	3.579341	-0.120633	0.734762	0.667512
0.490665	-13.767858	3.579672	0.092117	0.734762	0.672041
-0.490665	-13.767858	3.579672	-0.092117	0.734762	0.672041
0.244257	-13.745536	3.580643	0.046165	0.734762	0.676752
-0.244257	-13.745536	3.580643	-0.046165	0.734762	0.676752
0.967807	-13.857142	3.581395	0.176958	0.734762	0.654837
-0.967807	-13.857142	3.581395	-0.176958	0.734762	0.654837
0.870318	-13.834822	3.581449	0.160176	0.734762	0.659142
-0.870318	-13.834822	3.581449	-0.160176	0.734762	0.659142
1.551097	-14.035714	3.581862	0.269554	0.734762	0.622467
-1.551097	-14.035714	3.581862	-0.269554	0.734762	0.622467
0.213764	-13.745536	3.582593	0.040402	0.734762	0.677121
-0.213764	-13.745536	3.582593	-0.040402	0.734762	0.677121
1.133931	-13.901786	3.583068	0.204665	0.734762	0.646713
-1.133931	-13.901786	3.583068	-0.204665	0.734762	0.646713
0.460170	-13.767858	3.583719	0.086392	0.734762	0.672801
-0.460170	-13.767858	3.583719	-0.086392	0.734762	0.672801
0.183255	-13.745536	3.584283	0.034636	0.734762	0.677440
-0.183255	-13.745536	3.584283	-0.034636	0.734762	0.677440
1.774879	-14.125000	3.584662	0.300986	0.734762	0.607892
-1.774879	-14.125000	3.584662	-0.300986	0.734762	0.607892
0.616360	-13.790178	3.584719	0.114945	0.734762	0.668515
-0.616360	-13.790178	3.584719	-0.114945	0.734762	0.668515
1.662410	-14.080358	3.584951	0.285363	0.734762	0.615380
-1.662410	-14.080358	3.584951	-0.285363	0.734762	0.615380
0.742964	-13.812500	3.585330	0.137641	0.734762	0.664214
-0.742964	-13.812500	3.585330	-0.137641	0.734762	0.664214
1.480655	-14.013392	3.585406	0.258917	0.734762	0.626967
-1.480655	-14.013392	3.585406	-0.258917	0.734762	0.626967
0.152733	-13.745536	3.585713	0.028867	0.734762	0.677711
-0.152733	-13.745536	3.585713	-0.028867	0.734762	0.677711
1.202461	-13.924108	3.586165	0.215646	0.734762	0.643134
-1.202461	-13.924108	3.586165	-0.215646	0.734762	0.643134
0.122199	-13.745536	3.586883	0.023096	0.734762	0.677932
-0.122199	-13.745536	3.586883	-0.023096	0.734762	0.677932
0.429643	-13.767858	3.587507	0.080660	0.734762	0.673512
-0.429643	-13.767858	3.587507	-0.080660	0.734762	0.673512
1.410546	-13.991072	3.587595	0.248204	0.734762	0.631284
-1.410546	-13.991072	3.587595	-0.248204	0.734762	0.631284
1.035350	-13.879464	3.587628	0.188082	0.734762	0.651729
-1.035350	-13.879464	3.587628	-0.188082	0.734762	0.651729
0.091657	-13.745536	3.587794	0.017323	0.734762	0.678104
-0.091657	-13.745536	3.587794	-0.017323	0.734762	0.678104
1.271423	-13.946428	3.587962	0.226566	0.734762	0.639369
-1.271423	-13.946428	3.587962	-0.226566	0.734762	0.639369
1.340793	-13.968750	3.588443	0.237419	0.734762	0.635419
-1.340793	-13.968750	3.588443	-0.237419	0.734762	0.635419
0.061109	-13.745536	3.588444	0.011550	0.734762	0.678227
-0.061109	-13.745536	3.588444	-0.011550	0.734762	0.678227
0.839795	-13.834822	3.588728	0.154559	0.734762	0.660482
-0.839795	-13.834822	3.588728	-0.154559	0.734762	0.660482
-0.030555	-13.745536	3.588834	-0.005775	0.734762	0.678301
0.030555	-13.745536	3.588834	0.005775	0.734762	0.678301
0.000000	-13.745536	3.588964	0.000000	0.734762	0.678325
0.937281	-13.857142	3.589505	0.171376	0.734762	0.656319
-0.937281	-13.857142	3.589505	-0.171376	0.734762	0.656319
0.585819	-13.790178	3.589836	0.109249	0.734762	0.669470
-0.585819	-13.790178	3.589836	-0.109249	0.734762	0.669470
1.591332	-14.058036	3.590632	0.274844	0.734762	0.620150
-1.591332	-14.058036	3.590632	-0.274844	0.734762	0.620150
0.399085	-13.767858	3.591035	0.074923	0.734762	0.674175
-0.399085	-13.767858	3.591035	-0.074923	0.734762	0.674175
0.712412	-13.812500	3.591525	0.131981	0.734762	0.665362
-0.712412	-13.812500	3.591525	-0.131981	0.734762	0.665362
1.703229	-14.102678	3.592515	0.290592	0.734762	0.612928
-1.703229	-14.102678	3.592515	-0.290592	0.734762	0.612928
1.103384	-13.901786	3.592592	0.199151	0.734762	0.648432
-1.103384	-13.901786	3.592592	-0.199151	0.734762	0.648432
0.368497	-13.767858	3.594303	0.069181	0.734762	0.674788
-0.368497	-13.767858	3.594303	-0.069181	0.734762	0.674788
0.555234	-13.790178	3.594694	0.103546	0.734762	0.670375
-0.555234	-13.790178	3.594694	-0.103546	0.734762	0.670375
1.520545	-14.035714	3.594938	0.264245	0.734762	0.624740
-1.520545	-14.035714	3.594938	-0.264245	0.734762	0.624740
0.809211	-13.834822	3.595748	0.148930	0.734762	0.661774
-0.809211	-13.834822	3.595748	-0.148930	0.734762	0.661774
1.171886	-13.924108	3.596273	0.210163	0.734762	0.644947
-1.171886	-13.924108	3.596273	-0.210163	0.734762	0.644947
1.004769	-13.879464	3.596312	0.182526	0.734762	0.653306
-1.004769	-13.879464	3.596312	-0.182526	0.734762	0.653306
0.337883	-13.767858	3.597310	0.063434	0.734762	0.675353
-0.337883	-13.767858	3.597310	-0.063434	0.734762	0.675353
0.906687	-13.857142	3.597354	0.165782	0.734762	0.657755
-0.906687	-13.857142	3.597354	-0.165782	0.734762	0.657755
0.681809	-13.812500	3.597460	0.126311	0.734762	0.666461
-0.681809	-13.812500	3.597460	-0.126311	0.734762	0.666461
1.450076	-14.013392	3.597881	0.253570	0.734762	0.629148
-1.450076	-14.013392	3.597881	-0.253570	0.734762	0.629148
1.240830	-13.946428	3.598656	0.221114	0.734762	0.641275
-1.240830	-13.946428	3.598656	-0.221114	0.734762	0.641275
1.631828	-14.080358	3.598974	0.280114	0.734762	0.617787
-1.631828	-14.080358	3.598974	-0.280114	0.734762	0.617787
0.524610	-13.790178	3.599290	0.097835	0.734762	0.671233
-0.524610	-13.790178	3.599290	-0.097835	0.734762	0.671233
1.379951	-13.991072	3.599474	0.242820	0.734762	0.633375
-1.379951	-13.991072	3.599474	-0.242820	0.734762	0.633375
1.744296	-14.125000	3.599643	0.295800	0.734762	0.610432
-1.744296	-14.125000	3.599643	-0.295800	0.734762	0.610432
1.310194	-13.968750	3.599727	0.232001	0.734762	0.637417
-1.310194	-13.968750	3.599727	-0.232001	0.734762	0.637417
0.307244	-13.767858	3.600056	0.057682	0.734762	0.675868
-0.307244	-13.767858	3.600056	-0.057682	0.734762	0.675868
1.072758	-13.901786	3.601856	0.193624	0.734762	0.650104
-1.072758	-13.901786	3.601856	-0.193624	0.734762	0.650104
0.778569	-13.834822	3.602507	0.143290	0.734762	0.663018
-0.778569	-13.834822	3.602507	-0.143290	0.734762	0.663018
0.276583	-13.767858	3.602541	0.051925	0.734762	0.676335
-0.276583	-13.767858	3.602541	-0.051925	0.734762	0.676335
0.651157	-13.812500	3.603134	0.120633	0.734762	0.667512
-0.651157	-13.812500	3.603134	-0.120633	0.734762	0.667512
0.493948	-13.790178	3.603626	0.092117	0.734762	0.672041
-0.493948	-13.790178	3.603626	-0.092117	0.734762	0.672041
1.560705	-14.058036	3.604050	0.269554	0.734762	0.622467
-1.560705	-14.058036	3.604050	-0.269554	0.734762	0.622467
0.974114	-13.879464	3.604736	0.176958	0.734762	0.654837
-0.974114	-13.879464	3.604736	-0.176958	0.734762	0.654837
0.245902	-13.767858	3.604765	0.046165	0.734762	0.676752
-0.245902	-13.767858	3.604765	-0.046165	0.734762	0.676752
0.876027	-13.857142	3.604943	0.160176	0.734762	0.659142
-0.876027	-13.857142	3.604943	-0.160176	0.734762	0.659142
1.141226	-13.924108	3.606120	0.204665	0.734762	0.646713
-1.141226	-13.924108	3.606120	-0.204665	0.734762	0.646713
0.215204	-13.767858	3.606728	0.040402	0.734762	0.677121
-0.215204	-13.767858	3.606728	-0.040402	0.734762	0.677121
1.672581	-14.102678	3.606886	0.285363	0.734762	0.615380
-1.672581	-14.102678	3.606886	-0.285363	0.734762	0.615380
0.463250	-13.790178	3.607701	0.086392	0.734762	0.672801
-0.463250	-13.790178	3.607701	-0.086392	0.734762	0.672801
1.489884	-14.035714	3.607753	0.258917	0.734762	0.626967
-1.489884	-14.035714	3.607753	-0.258917	0.734762	0.626967
0.184489	-13.767858	3.608430	0.034636	0.734762	0.677440
-0.184489	-13.767858	3.608430	-0.034636	0.734762	0.677440
0.620457	-13.812500	3.608547	0.114945	0.734762	0.668515
-0.620457	-13.812500	3.608547	-0.114945	0.734762	0.668515
0.747870	-13.834822	3.609005	0.137641	0.734762	0.664214
-0.747870	-13.834822	3.609005	-0.137641	0.734762	0.664214
1.210148	-13.946428	3.609090	0.215646	0.734762	0.643134
-1.210148	-13.946428	3.609090	-0.215646	0.734762	0.643134
0.153761	-13.767858	3.609870	0.028867	0.734762	0.677711
-0.153761	-13.767858	3.609870	-0.028867	0.734762	0.677711
1.419393	-14.013392	3.610096	0.248204	0.734762	0.631284
-1.419393	-14.013392	3.610096	-0.248204	0.734762	0.631284
1.279499	-13.968750	3.610752	0.226566	0.734762	0.639369
-1.279499	-13.968750	3.610752	-0.226566	0.734762	0.639369
1.042054	-13.901786	3.610858	0.188082	0.734762	0.651729
-1.042054	-13.901786	3.610858	-0.188082	0.734762	0.651729
0.123023	-13.767858	3.611048	0.023096	0.734762	0.677932
-0.123023	-13.767858	3.611048	-0.023096	0.734762	0.677932
1.349256	-13.991072	3.611092	0.237419	0.734762	0.635419
-1.349256	-13.991072	3.611092	-0.237419	0.734762	0.635419
0.432518	-13.790178	3.611514	0.080660	0.734762	0.673512
-0.432518	-13.790178	3.611514	-0.080660	0.734762	0.673512
0.092275	-13.767858	3.611964	0.017323	0.734762	0.678104
-0.092275	-13.767858	3.611964	-0.017323	0.734762	0.678104
0.845304	-13.857142	3.612271	0.154559	0.734762	0.660482
-0.845304	-13.857142	3.612271	-0.154559	0.734762	0.660482
0.061520	-13.767858	3.612619	0.011550	0.734762	0.678227
-0.061520	-13.767858	3.612619	-0.011550	0.734762	0.678227
1.601129	-14.080358	3.612737	0.274844	0.734762	0.620150
-1.601129	-14.080358	3.612737	-0.274844	0.734762	0.620150
0.943389	-13.879464	3.612899	0.171376	0.734762	0.656319
-0.943389	-13.879464	3.612899	-0.171376	0.734762	0.656319
0.030761	-13.767858	3.613012	0.005775	0.734762	0.678301
-0.030761	-13.767858	3.613012	-0.005775	0.734762	0.678301
0.000000	-13.767858	3.613143	0.000000	0.734762	0.678325
0.589713	-13.812500	3.613699	0.109249	0.734762	0.669470
-0.589713	-13.812500	3.613699	-0.109249	0.734762	0.669470
1.713587	-14.125000	3.614363	0.290592	0.734762	0.612928
-1.713587	-14.125000	3.614363	-0.290592	0.734762	0.612928
0.401755	-13.790178	3.615066	0.074923	0.734762	0.674175
-0.401755	-13.790178	3.615066	-0.074923	0.734762	0.674175
0.717117	-13.834822	3.615241	0.131981	0.734762	0.665362
-0.717117	-13.834822	3.615241	-0.131981	0.734762	0.665362
1.110483	-13.924108	3.615705	0.199151	0.734762	0.648432
-1.110483	-13.924108	3.615705	-0.199151	0.734762	0.648432
1.529964	-14.058036	3.617207	0.264245	0.734762	0.624740
-1.529964	-14.058036	3.617207	-0.264245	0.734762	0.624740
0.370963	-13.790178	3.618355	0.069181	0.734762	0.674788
-0.370963	-13.790178	3.618355	-0.069181	0.734762	0.674788
0.558925	-13.812500	3.618589	0.103546	0.734762	0.670375
-0.558925	-13.812500	3.618589	-0.103546	0.734762	0.670375
1.179377	-13.946428	3.619262	0.210163	0.734762	0.644947
-1.179377	-13.946428	3.619262	-0.210163	0.734762	0.644947
0.814520	-13.857142	3.619337	0.148930	0.734762	0.661774
-0.814520	-13.857142	3.619337	-0.148930	0.734762	0.661774
1.011275	-13.901786	3.619599	0.182526	0.734762	0.653306
-1.011275	-13.901786	3.619599	-0.182526	0.734762	0.653306
1.459115	-14.035714	3.620307	0.253570	0.734762	0.629148
-1.459115	-14.035714	3.620307	-0.253570	0.734762	0.629148
0.912596	-13.879464	3.620800	0.165782	0.734762	0.657755
-0.912596	-13.879464	3.620800	-0.165782	0.734762	0.657755
1.641813	-14.102678	3.620995	0.280114	0.734762	0.617787
-1.641813	-14.102678	3.620995	-0.280114	0.734762	0.617787
0.686312	-13.834822	3.621216	0.126311	0.734762	0.666461
-0.686312	-13.834822	3.621216	-0.126311	0.734762	0.666461
0.340144	-13.790178	3.621382	0.063434	0.734762	0.675353
-0.340144	-13.790178	3.621382	-0.063434	0.734762	0.675353
1.248712	-13.968750	3.621514	0.221114	0.734762	0.641275
-1.248712	-13.968750	3.621514	-0.221114	0.734762	0.641275
1.388606	-14.013392	3.622050	0.242820	0.734762	0.633375
-1.388606	-14.013392	3.622050	-0.242820	0.734762	0.633375
1.318463	-13.991072	3.622448	0.232001	0.734762	0.637417
-1.318463	-13.991072	3.622448	-0.232001	0.734762	0.637417
0.528098	-13.812500	3.623216	0.097835	0.734762	0.671233
-0.528098	-13.812500	3.623216	-0.097835	0.734762	0.671233
0.309300	-13.790178	3.624147	0.057682	0.734762	0.675868
-0.309300	-13.790178	3.624147	-0.057682	0.734762	0.675868
1.079660	-13.924108	3.625028	0.193624	0.734762	0.650104
-1.079660	-13.924108	3.625028	-0.193624	0.734762	0.650104
0.783676	-13.857142	3.626140	0.143290	0.734762	0.663018
-0.783676	-13.857142	3.626140	-0.143290	0.734762	0.663018
1.570313	-14.080358	3.626238	0.269554	0.734762	0.622467
-1.570313	-14.080358	3.626238	-0.269554	0.734762	0.622467
0.278434	-13.790178	3.626649	0.051925	0.734762	0.676335
-0.278434	-13.790178	3.626649	-0.051925	0.734762	0.676335
0.655457	-13.834822	3.626927	0.120633	0.734762	0.667512
-0.655457	-13.834822	3.626927	-0.120633	0.734762	0.667512
0.497231	-13.812500	3.627581	0.092117	0.734762	0.672041
-0.497231	-13.812500	3.627581	-0.092117	0.734762	0.672041
0.980422	-13.901786	3.628078	0.176958	0.734762	0.654837
-0.980422	-13.901786	3.628078	-0.176958	0.734762	0.654837
0.881737	-13.879464	3.628438	0.160176	0.734762	0.659142
-0.881737	-13.879464	3.628438	-0.160176	0.734762	0.659142
1.682753	-14.125000	3.628821	0.285363	0.734762	0.615380
-1.682753	-14.125000	3.628821	-0.285363	0.734762	0.615380
0.247548	-13.790178	3.628888	0.046165	0.734762	0.676752
-0.247548	-13.790178	3.628888	-0.046165	0.734762	0.676752
1.148521	-13.946428	3.629171	0.204665	0.734762	0.646713
-1.148521	-13.946428	3.629171	-0.204665	0.734762	0.646713
1.499113	-14.058036	3.630101	0.258917	0.734762	0.626967
-1.499113	-14.058036	3.630101	-0.258917	0.734762	0.626967
0.216644	-13.790178	3.630864	0.040402	0.734762	0.677121
-0.216644	-13.790178	3.630864	-0.040402	0.734762	0.677121
0.466329	-13.812500	3.631683	0.086392	0.734762	0.672801
-0.466329	-13.812500	3.631683	-0.086392	0.734762	0.672801
1.217834	-13.968750	3.632014	0.215646	0.734762	0.643134
-1.217834	-13.968750	3.632014	-0.215646	0.734762	0.643134
0.624554	-13.834822	3.632376	0.114945	0.734762	0.668515
-0.624554	-13.834822	3.632376	-0.114945	0.734762	0.668515
0.185724	-13.790178	3.632577	0.034636	0.734762	0.677440
-0.185724	-13.790178	3.632577	-0.034636	0.734762	0.677440
1.428240	-14.035714	3.632598	0.248204	0.734762	0.631284
-1.428240	-14.035714	3.632598	-0.248204	0.734762	0.631284
0.752776	-13.857142	3.632681	0.137641	0.734762	0.664214
-0.752776	-13.857142	3.632681	-0.137641	0.734762	0.664214
1.287575	-13.991072	3.633542	0.226566	0.734762	0.639369
-1.287575	-13.991072	3.633542	-0.226566	0.734762	0.639369
1.357719	-14.013392	3.633741	0.237419	0.734762	0.635419
-1.357719	-14.013392	3.633741	-0.237419	0.734762	0.635419
0.154790	-13.790178	3.634026	0.028867	0.734762	0.677711
-0.154790	-13.790178	3.634026	-0.028867	0.734762	0.677711
1.048758	-13.924108	3.634089	0.188082	0.734762	0.651729
-1.048758	-13.924108	3.634089	-0.188082	0.734762	0.651729
1.610925	-14.102678	3.634842	0.274844	0.734762	0.620150
-1.610925	-14.102678	3.634842	-0.274844	0.734762	0.620150
0.123846	-13.790178	3.635212	0.023096	0.734762	0.677932
-0.123846	-13.790178	3.635212	-0.023096	0.734762	0.677932
0.435393	-13.812500	3.635521	0.080660	0.734762	0.673512
-0.435393	-13.812500	3.635521	-0.080660	0.734762	0.673512
0.850813	-13.879464	3.635813	0.154559	0.734762	0.660482
-0.850813	-13.879464	3.635813	-0.154559	0.734762	0.660482
0.092892	-13.790178	3.636135	0.017323	0.734762	0.678104
-0.092892	-13.790178	3.636135	-0.017323	0.734762	0.678104
0.949498	-13.901786	3.636293	0.171376	0.734762	0.656319
-0.949498	-13.901786	3.636293	-0.171376	0.734762	0.656319
0.061932	-13.790178	3.636794	0.011550	0.734762	0.678227
-0.061932	-13.790178	3.636794	-0.011550	0.734762	0.678227
0.030967	-13.790178	3.637190	0.005775	0.734762	0.678301
-0.030967	-13.790178	3.637190	-0.005775	0.734762	0.678301
0.000000	-13.790178	3.637321	0.000000	0.734762	0.678325
0.593607	-13.834822	3.637562	0.109249	0.734762	0.669470
-0.593607	-13.834822	3.637562	-0.109249	0.734762	0.669470
1.117582	-13.946428	3.638818	0.199151	0.734762	0.648432
-1.117582	-13.946428	3.638818	-0.199151	0.734762	0.648432
0.721821	-13.857142	3.638958	0.131981	0.734762	0.665362
-0.721821	-13.857142	3.638958	-0.131981	0.734762	0.665362
0.404426	-13.812500	3.639096	0.074923	0.734762	0.674175
-0.404426	-13.812500	3.639096	-0.074923	0.734762	0.674175
1.539383	-14.080358	3.639475	0.264245	0.734762	0.624740
-1.539383	-14.080358	3.639475	-0.264245	0.734762	0.624740
1.186868	-13.968750	3.642251	0.210163	0.734762	0.644947
-1.186868	-13.968750	3.642251	-0.210163	0.734762	0.644947
0.373429	-13.812500	3.642408	0.069181	0.734762	0.674788
-0.373429	-13.812500	3.642408	-0.069181	0.734762	0.674788
0.562616	-13.834822	3.642484	0.103546	0.734762	0.670375
-0.562616	-13.834822	3.642484	-0.103546	0.734762	0.670375
1.468153	-14.058036	3.642733	0.253570	0.734762	0.629148
-1.468153	-14.058036	3.642733	-0.253570	0.734762	0.629148
1.017781	-13.924108	3.642886	0.182526	0.734762	0.653306
-1.017781	-13.924108	3.642886	-0.182526	0.734762	0.653306
0.819828	-13.879464	3.642925	0.148930	0.734762	0.661774
-0.819828	-13.879464	3.642925	-0.148930	0.734762	0.661774
1.651797	-14.125000	3.643016	0.280114	0.734762	0.617787
-1.651797	-14.125000	3.643016	-0.280114	0.734762	0.617787
0.918505	-13.901786	3.644245	0.165782	0.734762	0.657755
-0.918505	-13.901786	3.644245	-0.165782	0.734762	0.657755
1.256593	-13.991072	3.644372	0.221114	0.734762	0.641275
-1.256593	-13.991072	3.644372	-0.221114	0.734762	0.641275
1.397261	-14.035714	3.644626	0.242820	0.734762	0.633375
-1.397261	-14.035714	3.644626	-0.242820	0.734762	0.633375
0.690814	-13.857142	3.644971	0.126311	0.734762	0.666461
-0.690814	-13.857142	3.644971	-0.126311	0.734762	0.666461
1.326733	-14.013392	3.645168	0.232001	0.734762	0.637417
-1.326733	-14.013392	3.645168	-0.232001	0.734762	0.637417
0.342405	-13.812500	3.645455	0.063434	0.734762	0.675353
-0.342405	-13.812500	3.645455	-0.063434	0.734762	0.675353
0.531585	-13.834822	3.647142	0.097835	0.734762	0.671233
-0.531585	-13.834822	3.647142	-0.097835	0.734762	0.671233
1.086561	-13.946428	3.648201	0.193624	0.734762	0.650104
-1.086561	-13.946428	3.648201	-0.193624	0.734762	0.650104
0.311356	-13.812500	3.648238	0.057682	0.734762	0.675868
-0.311356	-13.812500	3.648238	-0.057682	0.734762	0.675868
1.579921	-14.102678	3.648425	0.269554	0.734762	0.622467
-1.579921	-14.102678	3.648425	-0.269554	0.734762	0.622467
0.788784	-13.879464	3.649773	0.143290	0.734762	0.663018
-0.788784	-13.879464	3.649773	-0.143290	0.734762	0.663018
0.659757	-13.857142	3.650721	0.120633	0.734762	0.667512
-0.659757	-13.857142	3.650721	-0.120633	0.734762	0.667512
0.280285	-13.812500	3.650756	0.051925	0.734762	0.676335
-0.280285	-13.812500	3.650756	-0.051925	0.734762	0.676335
0.986729	-13.924108	3.651419	0.176958	0.734762	0.654837
-0.986729	-13.924108	3.651419	-0.176958	0.734762	0.654837
0.500515	-13.834822	3.651536	0.092117	0.734762	0.672041
-0.500515	-13.834822	3.651536	-0.092117	0.734762	0.672041
0.887446	-13.901786	3.651933	0.160176	0.734762	0.659142
-0.887446	-13.901786	3.651933	-0.160176	0.734762	0.659142
1.155816	-13.968750	3.652223	0.204665	0.734762	0.646713
-1.155816	-13.968750	3.652223	-0.204665	0.734762	0.646713
1.508342	-14.080358	3.652449	0.258917	0.734762	0.626967
-1.508342	-14.080358	3.652449	-0.258917	0.734762	0.626967
0.249193	-13.812500	3.653010	0.046165	0.734762	0.676752
-0.249193	-13.812500	3.653010	-0.046165	0.734762	0.676752
1.225521	-13.991072	3.654938	0.215646	0.734762	0.643134
-1.225521	-13.991072	3.654938	-0.215646	0.734762	0.643134
0.218084	-13.812500	3.654999	0.040402	0.734762	0.677121
-0.218084	-13.812500	3.654999	-0.040402	0.734762	0.677121
1.437087	-14.058036	3.655100	0.248204	0.734762	0.631284
-1.437087	-14.058036	3.655100	-0.248204	0.734762	0.631284
0.469409	-13.834822	3.655664	0.086392	0.734762	0.672801
-0.469409	-13.834822	3.655664	-0.086392	0.734762	0.672801
0.628652	-13.857142	3.656205	0.114945	0.734762	0.668515
-0.628652	-13.857142	3.656205	-0.114945	0.734762	0.668515
1.295651	-14.013392	3.656332	0.226566	0.734762	0.639369
-1.295651	-14.013392	3.656332	-0.226566	0.734762	0.639369
0.757682	-13.879464	3.656356	0.137641	0.734762	0.664214
-0.757682	-13.879464	3.656356	-0.137641	0.734762	0.664214
1.366181	-14.035714	3.656390	0.237419	0.734762	0.635419
-1.366181	-14.035714	3.656390	-0.237419	0.734762	0.635419
0.186958	-13.812500	3.656724	0.034636	0.734762	0.677440
-0.186958	-13.812500	3.656724	-0.034636	0.734762	0.677440
1.620722	-14.125000	3.656947	0.274844	0.734762	0.620150
-1.620722	-14.125000	3.656947	-0.274844	0.734762	0.620150
1.055462	-13.946428	3.657319	0.188082	0.734762	0.651729
-1.055462	-13.946428	3.657319	-0.188082	0.734762	0.651729
0.155819	-13.812500	3.658183	0.028867	0.734762	0.677711
-0.155819	-13.812500	3.658183	-0.028867	0.734762	0.677711
0.856322	-13.901786	3.659356	0.154559	0.734762	0.660482
-0.856322	-13.901786	3.659356	-0.154559	0.734762	0.660482
0.124669	-13.812500	3.659377	0.023096	0.734762	0.677932
-0.124669	-13.812500	3.659377	-0.023096	0.734762	0.677932
0.438268	-13.834822	3.659528	0.080660	0.734762	0.673512
-0.438268	-13.834822	3.659528	-0.080660	0.734762	0.673512
0.955607	-13.924108	3.659687	0.171376	0.734762	0.656319
-0.955607	-13.924108	3.659687	-0.171376	0.734762	0.656319
0.093510	-13.812500	3.660306	0.017323	0.734762	0.678104
-0.093510	-13.812500	3.660306	-0.017323	0.734762	0.678104
0.062344	-13.812500	3.660969	0.011550	0.734762	0.678227
-0.062344	-13.812500	3.660969	-0.011550	0.734762	0.678227
-0.031173	-13.812500	3.661367	-0.005775	0.734762	0.678301
0.031173	-13.812500	3.661367	0.005775	0.734762	0.678301
0.597501	-13.857142	3.661425	0.109249	0.734762	0.669470
-0.597501	-13.857142	3.661425	-0.109249	0.734762	0.669470
0.000000	-13.812500	3.661500	0.000000	0.734762	0.678325
1.548802	-14.102678	3.661744	0.264245	0.734762	0.624740
-1.548802	-14.102678	3.661744	-0.264245	0.734762	0.624740
1.124680	-13.968750	3.661931	0.199151	0.734762	0.648432
-1.124680	-13.968750	3.661931	-0.199151	0.734762	0.648432
0.726525	-13.879464	3.662674	0.131981	0.734762	0.665362
-0.726525	-13.879464	3.662674	-0.131981	0.734762	0.665362
0.407096	-13.834822	3.663127	0.074923	0.734762	0.674175
-0.407096	-13.834822	3.663127	-0.074923	0.734762	0.674175
1.477192	-14.080358	3.665159	0.253570	0.734762	0.629148
-1.477192	-14.080358	3.665159	-0.253570	0.734762	0.629148
1.194359	-13.991072	3.665239	0.210163	0.734762	0.644947
-1.194359	-13.991072	3.665239	-0.210163	0.734762	0.644947
1.024287	-13.946428	3.666173	0.182526	0.734762	0.653306
-1.024287	-13.946428	3.666173	-0.182526	0.734762	0.653306
0.566307	-13.857142	3.666379	0.103546	0.734762	0.670375
-0.566307	-13.857142	3.666379	-0.103546	0.734762	0.670375
0.375895	-13.834822	3.666460	0.069181	0.734762	0.674788
-0.375895	-13.834822	3.666460	-0.069181	0.734762	0.674788
0.825137	-13.901786	3.666514	0.148930	0.734762	0.661774
-0.825137	-13.901786	3.666514	-0.148930	0.734762	0.661774
1.405916	-14.058036	3.667203	0.242820	0.734762	0.633375
-1.405916	-14.058036	3.667203	-0.242820	0.734762	0.633375
1.264475	-14.013392	3.667230	0.221114	0.734762	0.641275
-1.264475	-14.013392	3.667230	-0.221114	0.734762	0.641275
0.924414	-13.924108	3.667691	0.165782	0.734762	0.657755
-0.924414	-13.924108	3.667691	-0.165782	0.734762	0.657755
1.335002	-14.035714	3.667889	0.232001	0.734762	0.637417
-1.335002	-14.035714	3.667889	-0.232001	0.734762	0.637417
0.695316	-13.879464	3.668727	0.126311	0.734762	0.666461
-0.695316	-13.879464	3.668727	-0.126311	0.734762	0.666461
0.344666	-13.834822	3.669528	0.063434	0.734762	0.675353
-0.344666	-13.834822	3.669528	-0.063434	0.734762	0.675353
1.589529	-14.125000	3.670613	0.269554	0.734762	0.622467
-1.589529	-14.125000	3.670613	-0.269554	0.734762	0.622467
0.535072	-13.857142	3.671068	0.097835	0.734762	0.671233
-0.535072	-13.857142	3.671068	-0.097835	0.734762	0.671233
1.093463	-13.968750	3.671374	0.193624	0.734762	0.650104
-1.093463	-13.968750	3.671374	-0.193624	0.734762	0.650104
0.313412	-13.834822	3.672329	0.057682	0.734762	0.675868
-0.313412	-13.834822	3.672329	-0.057682	0.734762	0.675868
0.793891	-13.901786	3.673406	0.143290	0.734762	0.663018
-0.793891	-13.901786	3.673406	-0.143290	0.734762	0.663018
0.664056	-13.879464	3.674514	0.120633	0.734762	0.667512
-0.664056	-13.879464	3.674514	-0.120633	0.734762	0.667512
0.993037	-13.946428	3.674760	0.176958	0.734762	0.654837
-0.993037	-13.946428	3.674760	-0.176958	0.734762	0.654837
1.517571	-14.102678	3.674797	0.258917	0.734762	0.626967
-1.517571	-14.102678	3.674797	-0.258917	0.734762	0.626967
0.282136	-13.834822	3.674864	0.051925	0.734762	0.676335
-0.282136	-13.834822	3.674864	-0.051925	0.734762	0.676335
1.163111	-13.991072	3.675275	0.204665	0.734762	0.646713
-1.163111	-13.991072	3.675275	-0.204665	0.734762	0.646713
0.893155	-13.924108	3.675428	0.160176	0.734762	0.659142
-0.893155	-13.924108	3.675428	-0.160176	0.734762	0.659142
0.503798	-13.857142	3.675490	0.092117	0.734762	0.672041
-0.503798	-13.857142	3.675490	-0.092117	0.734762	0.672041
0.250839	-13.834822	3.677133	0.046165	0.734762	0.676752
-0.250839	-13.834822	3.677133	-0.046165	0.734762	0.676752
1.445934	-14.080358	3.677602	0.248204	0.734762	0.631284
-1.445934	-14.080358	3.677602	-0.248204	0.734762	0.631284
1.233207	-14.013392	3.677862	0.215646	0.734762	0.643134
-1.233207	-14.013392	3.677862	-0.215646	0.734762	0.643134
1.374644	-14.058036	3.679039	0.237419	0.734762	0.635419
-1.374644	-14.058036	3.679039	-0.237419	0.734762	0.635419
1.303727	-14.035714	3.679122	0.226566	0.734762	0.639369
-1.303727	-14.035714	3.679122	-0.226566	0.734762	0.639369
0.219524	-13.834822	3.679135	0.040402	0.734762	0.677121
-0.219524	-13.834822	3.679135	-0.040402	0.734762	0.677121
0.472488	-13.857142	3.679646	0.086392	0.734762	0.672801
-0.472488	-13.857142	3.679646	-0.086392	0.734762	0.672801
0.762588	-13.901786	3.680032	0.137641	0.734762	0.664214
-0.762588	-13.901786	3.680032	-0.137641	0.734762	0.664214
0.632749	-13.879464	3.680034	0.114945	0.734762	0.668515
-0.632749	-13.879464	3.680034	-0.114945	0.734762	0.668515
1.062166	-13.968750	3.680550	0.188082	0.734762	0.651729
-1.062166	-13.968750	3.680550	-0.188082	0.734762	0.651729
0.188193	-13.834822	3.680871	0.034636	0.734762	0.677440
-0.188193	-13.834822	3.680871	-0.034636	0.734762	0.677440
0.156848	-13.834822	3.682340	0.028867	0.734762	0.677711
-0.156848	-13.834822	3.682340	-0.028867	0.734762	0.677711
0.861831	-13.924108	3.682899	0.154559	0.734762	0.660482
-0.861831	-13.924108	3.682899	-0.154559	0.734762	0.660482
0.961715	-13.946428	3.683082	0.171376	0.734762	0.656319
-0.961715	-13.946428	3.683082	-0.171376	0.734762	0.656319
0.441144	-13.857142	3.683535	0.080660	0.734762	0.673512
-0.441144	-13.857142	3.683535	-0.080660	0.734762	0.673512
0.125492	-13.834822	3.683542	0.023096	0.734762	0.677932
-0.125492	-13.834822	3.683542	-0.023096	0.734762	0.677932
1.558221	-14.125000	3.684012	0.264245	0.734762	0.624740
-1.558221	-14.125000	3.684012	-0.264245	0.734762	0.624740
0.094127	-13.834822	3.684476	0.017323	0.734762	0.678104
-0.094127	-13.834822	3.684476	-0.017323	0.734762	0.678104
1.131779	-13.991072	3.685044	0.199151	0.734762	0.648432
-1.131779	-13.991072	3.685044	-0.199151	0.734762	0.648432
0.062755	-13.834822	3.685144	0.011550	0.734762	0.678227
-0.062755	-13.834822	3.685144	-0.011550	0.734762	0.678227
0.601395	-13.879464	3.685288	0.109249	0.734762	0.669470
-0.601395	-13.879464	3.685288	-0.109249	0.734762	0.669470
0.031379	-13.834822	3.685545	0.005775	0.734762	0.678301
-0.031379	-13.834822	3.685545	-0.005775	0.734762	0.678301
0.000000	-13.834822	3.685678	0.000000	0.734762	0.678325
0.731230	-13.901786	3.686391	0.131981	0.734762	0.665362
-0.731230	-13.901786	3.686391	-0.131981	0.734762	0.665362
0.409767	-13.857142	3.687158	0.074923	0.734762	0.674175
-0.409767	-13.857142	3.687158	-0.074923	0.734762	0.674175
1.486230	-14.102678	3.687584	0.253570	0.734762	0.629148
-1.486230	-14.102678	3.687584	-0.253570	0.734762	0.629148
1.201851	-14.013392	3.688228	0.210163	0.734762	0.644947
-1.201851	-14.013392	3.688228	-0.210163	0.734762	0.644947
1.030793	-13.968750	3.689460	0.182526	0.734762	0.653306
-1.030793	-13.968750	3.689460	-0.182526	0.734762	0.653306
1.414572	-14.080358	3.689779	0.242820	0.734762	0.633375
-1.414572	-14.080358	3.689779	-0.242820	0.734762	0.633375
1.272357	-14.035714	3.690088	0.221114	0.734762	0.641275
-1.272357	-14.035714	3.690088	-0.221114	0.734762	0.641275
0.830445	-13.924108	3.690103	0.148930	0.734762	0.661774
-0.830445	-13.924108	3.690103	-0.148930	0.734762	0.661774
0.569998	-13.879464	3.690274	0.103546	0.734762	0.670375
-0.569998	-13.879464	3.690274	-0.103546	0.734762	0.670375
0.378361	-13.857142	3.690513	0.069181	0.734762	0.674788
-0.378361	-13.857142	3.690513	-0.069181	0.734762	0.674788
1.343272	-14.058036	3.690609	0.232001	0.734762	0.637417
-1.343272	-14.058036	3.690609	-0.232001	0.734762	0.637417
0.930324	-13.946428	3.691136	0.165782	0.734762	0.657755
-0.930324	-13.946428	3.691136	-0.165782	0.734762	0.657755
0.699818	-13.901786	3.692483	0.126311	0.734762	0.666461
-0.699818	-13.901786	3.692483	-0.126311	0.734762	0.666461
0.346927	-13.857142	3.693600	0.063434	0.734762	0.675353
-0.346927	-13.857142	3.693600	-0.063434	0.734762	0.675353
1.100365	-13.991072	3.694546	0.193624	0.734762	0.650104
-1.100365	-13.991072	3.694546	-0.193624	0.734762	0.650104
0.538559	-13.879464	3.694993	0.097835	0.734762	0.671233
-0.538559	-13.879464	3.694993	-0.097835	0.734762	0.671233
0.315468	-13.857142	3.696420	0.057682	0.734762	0.675868
-0.315468	-13.857142	3.696420	-0.057682	0.734762	0.675868
0.798999	-13.924108	3.697039	0.143290	0.734762	0.663018
-0.798999	-13.924108	3.697039	-0.143290	0.734762	0.663018
1.526800	-14.125000	3.697145	0.258917	0.734762	0.626967
-1.526800	-14.125000	3.697145	-0.258917	0.734762	0.626967
0.999345	-13.968750	3.698102	0.176958	0.734762	0.654837
-0.999345	-13.968750	3.698102	-0.176958	0.734762	0.654837
0.668356	-13.901786	3.698307	0.120633	0.734762	0.667512
-0.668356	-13.901786	3.698307	-0.120633	0.734762	0.667512
1.170407	-14.013392	3.698327	0.204665	0.734762	0.646713
-1.170407	-14.013392	3.698327	-0.204665	0.734762	0.646713
0.898865	-13.946428	3.698923	0.160176	0.734762	0.659142
-0.898865	-13.946428	3.698923	-0.160176	0.734762	0.659142
0.283987	-13.857142	3.698972	0.051925	0.734762	0.676335
-0.283987	-13.857142	3.698972	-0.051925	0.734762	0.676335
0.507082	-13.879464	3.699445	0.092117	0.734762	0.672041
-0.507082	-13.879464	3.699445	-0.092117	0.734762	0.672041
1.454781	-14.102678	3.700104	0.248204	0.734762	0.631284
-1.454781	-14.102678	3.700104	-0.248204	0.734762	0.631284
1.240894	-14.035714	3.700787	0.215646	0.734762	0.643134
-1.240894	-14.035714	3.700787	-0.215646	0.734762	0.643134
0.252485	-13.857142	3.701255	0.046165	0.734762	0.676752
-0.252485	-13.857142	3.701255	-0.046165	0.734762	0.676752
1.383107	-14.080358	3.701689	0.237419	0.734762	0.635419
-1.383107	-14.080358	3.701689	-0.237419	0.734762	0.635419
1.311803	-14.058036	3.701912	0.226566	0.734762	0.639369
-1.311803	-14.058036	3.701912	-0.226566	0.734762	0.639369
0.220964	-13.857142	3.703271	0.040402	0.734762	0.677121
-0.220964	-13.857142	3.703271	-0.040402	0.734762	0.677121
0.475567	-13.879464	3.703628	0.086392	0.734762	0.672801
-0.475567	-13.879464	3.703628	-0.086392	0.734762	0.672801
0.767494	-13.924108	3.703707	0.137641	0.734762	0.664214
-0.767494	-13.924108	3.703707	-0.137641	0.734762	0.664214
1.068871	-13.991072	3.703780	0.188082	0.734762	0.651729
-1.068871	-13.991072	3.703780	-0.188082	0.734762	0.651729
0.636846	-13.901786	3.703863	0.114945	0.734762	0.668515
-0.636846	-13.901786	3.703863	-0.114945	0.734762	0.668515
0.189428	-13.857142	3.705018	0.034636	0.734762	0.677440
-0.189428	-13.857142	3.705018	-0.034636	0.734762	0.677440
0.867341	-13.946428	3.706441	0.154559	0.734762	0.660482
-0.867341	-13.946428	3.706441	-0.154559	0.734762	0.660482
0.967824	-13.968750	3.706476	0.171376	0.734762	0.656319
-0.967824	-13.968750	3.706476	-0.171376	0.734762	0.656319
0.157877	-13.857142	3.706496	0.028867	0.734762	0.677711
-0.157877	-13.857142	3.706496	-0.028867	0.734762	0.677711
0.444019	-13.879464	3.707542	0.080660	0.734762	0.673512
-0.444019	-13.879464	3.707542	-0.080660	0.734762	0.673512
0.126316	-13.857142	3.707706	0.023096	0.734762	0.677932
-0.126316	-13.857142	3.707706	-0.023096	0.734762	0.677932
1.138878	-14.013392	3.708157	0.199151	0.734762	0.648432
-1.138878	-14.013392	3.708157	-0.199151	0.734762	0.648432
0.094745	-13.857142	3.708647	0.017323	0.734762	0.678104
-0.094745	-13.857142	3.708647	-0.017323	0.734762	0.678104
0.605289	-13.901786	3.709151	0.109249	0.734762	0.669470
-0.605289	-13.901786	3.709151	-0.109249	0.734762	0.669470
0.063167	-13.857142	3.709319	0.011550	0.734762	0.678227
-0.063167	-13.857142	3.709319	-0.011550	0.734762	0.678227
0.031585	-13.857142	3.709723	0.005775	0.734762	0.678301
-0.031585	-13.857142	3.709723	-0.005775	0.734762	0.678301
0.000000	-13.857142	3.709857	0.000000	0.734762	0.678325
1.495268	-14.125000	3.710010	0.253570	0.734762	0.629148
-1.495268	-14.125000	3.710010	-0.253570	0.734762	0.629148
0.735934	-13.924108	3.710107	0.131981	0.734762	0.665362
-0.735934	-13.924108	3.710107	-0.131981	0.734762	0.665362
0.412438	-13.879464	3.711188	0.074923	0.734762	0.674175
-0.412438	-13.879464	3.711188	-0.074923	0.734762	0.674175
1.209342	-14.035714	3.711217	0.210163	0.734762	0.644947
-1.209342	-14.035714	3.711217	-0.210163	0.734762	0.644947
1.423227	-14.102678	3.712355	0.242820	0.734762	0.633375
-1.423227	-14.102678	3.712355	-0.242820	0.734762	0.633375
1.037299	-13.991072	3.712746	0.182526	0.734762	0.653306
-1.037299	-13.991072	3.712746	-0.182526	0.734762	0.653306
1.280238	-14.058036	3.712946	0.221114	0.734762	0.641275
-1.280238	-14.058036	3.712946	-0.221114	0.734762	0.641275
1.351541	-14.080358	3.713330	0.232001	0.734762	0.637417
-1.351541	-14.080358	3.713330	-0.232001	0.734762	0.637417
0.835754	-13.946428	3.713691	0.148930	0.734762	0.661774
-0.835754	-13.946428	3.713691	-0.148930	0.734762	0.661774
0.573689	-13.901786	3.714170	0.103546	0.734762	0.670375
-0.573689	-13.901786	3.714170	-0.103546	0.734762	0.670375
0.380827	-13.879464	3.714565	0.069181	0.734762	0.674788
-0.380827	-13.879464	3.714565	-0.069181	0.734762	0.674788
0.936233	-13.968750	3.714581	0.165782	0.734762	0.657755
-0.936233	-13.968750	3.714581	-0.165782	0.734762	0.657755
0.704321	-13.924108	3.716238	0.126311	0.734762	0.666461
-0.704321	-13.924108	3.716238	-0.126311	0.734762	0.666461
0.349188	-13.879464	3.717673	0.063434	0.734762	0.675353
-0.349188	-13.879464	3.717673	-0.063434	0.734762	0.675353
1.107266	-14.013392	3.717719	0.193624	0.734762	0.650104
-1.107266	-14.013392	3.717719	-0.193624	0.734762	0.650104
0.542047	-13.901786	3.718919	0.097835	0.734762	0.671233
-0.542047	-13.901786	3.718919	-0.097835	0.734762	0.671233
0.317524	-13.879464	3.720511	0.057682	0.734762	0.675868
-0.317524	-13.879464	3.720511	-0.057682	0.734762	0.675868
0.804106	-13.946428	3.720672	0.143290	0.734762	0.663018
-0.804106	-13.946428	3.720672	-0.143290	0.734762	0.663018
1.177702	-14.035714	3.721379	0.204665	0.734762	0.646713
-1.177702	-14.035714	3.721379	-0.204665	0.734762	0.646713
1.005652	-13.991072	3.721443	0.176958	0.734762	0.654837
-1.005652	-13.991072	3.721443	-0.176958	0.734762	0.654837
0.672656	-13.924108	3.722100	0.120633	0.734762	0.667512
-0.672656	-13.924108	3.722100	-0.120633	0.734762	0.667512
0.904574	-13.968750	3.722417	0.160176	0.734762	0.659142
-0.904574	-13.968750	3.722417	-0.160176	0.734762	0.659142
1.463628	-14.125000	3.722606	0.248204	0.734762	0.631284
-1.463628	-14.125000	3.722606	-0.248204	0.734762	0.631284
0.285838	-13.879464	3.723079	0.051925	0.734762	0.676335
-0.285838	-13.879464	3.723079	-0.051925	0.734762	0.676335
0.510365	-13.901786	3.723399	0.092117	0.734762	0.672041
-0.510365	-13.901786	3.723399	-0.092117	0.734762	0.672041
1.248581	-14.058036	3.723711	0.215646	0.734762	0.643134
-1.248581	-14.058036	3.723711	-0.215646	0.734762	0.643134
1.391569	-14.102678	3.724338	0.237419	0.734762	0.635419
-1.391569	-14.102678	3.724338	-0.237419	0.734762	0.635419
1.319878	-14.080358	3.724702	0.226566	0.734762	0.639369
-1.319878	-14.080358	3.724702	-0.226566	0.734762	0.639369
0.254130	-13.879464	3.725378	0.046165	0.734762	0.676752
-0.254130	-13.879464	3.725378	-0.046165	0.734762	0.676752
1.075575	-14.013392	3.727011	0.188082	0.734762	0.651729
-1.075575	-14.013392	3.727011	-0.188082	0.734762	0.651729
0.772400	-13.946428	3.727383	0.137641	0.734762	0.664214
-0.772400	-13.946428	3.727383	-0.137641	0.734762	0.664214
0.222404	-13.879464	3.727407	0.040402	0.734762	0.677121
-0.222404	-13.879464	3.727407	-0.040402	0.734762	0.677121
0.478647	-13.901786	3.727609	0.086392	0.734762	0.672801
-0.478647	-13.901786	3.727609	-0.086392	0.734762	0.672801
0.640943	-13.924108	3.727692	0.114945	0.734762	0.668515
-0.640943	-13.924108	3.727692	-0.114945	0.734762	0.668515
0.190662	-13.879464	3.729165	0.034636	0.734762	0.677440
-0.190662	-13.879464	3.729165	-0.034636	0.734762	0.677440
0.973932	-13.991072	3.729870	0.171376	0.734762	0.656319
-0.973932	-13.991072	3.729870	-0.171376	0.734762	0.656319
0.872850	-13.968750	3.729984	0.154559	0.734762	0.660482
-0.872850	-13.968750	3.729984	-0.154559	0.734762	0.660482
0.158906	-13.879464	3.730653	0.028867	0.734762	0.677711
-0.158906	-13.879464	3.730653	-0.028867	0.734762	0.677711
1.145976	-14.035714	3.731270	0.199151	0.734762	0.648432
-1.145976	-14.035714	3.731270	-0.199151	0.734762	0.648432
0.446894	-13.901786	3.731549	0.080660	0.734762	0.673512
-0.446894	-13.901786	3.731549	-0.080660	0.734762	0.673512
0.127139	-13.879464	3.731871	0.023096	0.734762	0.677932
-0.127139	-13.879464	3.731871	-0.023096	0.734762	0.677932
0.095362	-13.879464	3.732818	0.017323	0.734762	0.678104
-0.095362	-13.879464	3.732818	-0.017323	0.734762	0.678104
0.609183	-13.924108	3.733014	0.109249	0.734762	0.669470
-0.609183	-13.924108	3.733014	-0.109249	0.734762	0.669470
0.063579	-13.879464	3.733495	0.011550	0.734762	0.678227
-0.063579	-13.879464	3.733495	-0.011550	0.734762	0.678227
0.740639	-13.946428	3.733824	0.131981	0.734762	0.665362
-0.740639	-13.946428	3.733824	-0.131981	0.734762	0.665362
0.031790	-13.879464	3.733900	0.005775	0.734762	0.678301
-0.031790	-13.879464	3.733900	-0.005775	0.734762	0.678301
0.000000	-13.879464	3.734036	0.000000	0.734762	0.678325
1.216833	-14.058036	3.734206	0.210163	0.734762	0.644947
-1.216833	-14.058036	3.734206	-0.210163	0.734762	0.644947
1.431882	-14.125000	3.734931	0.242820	0.734762	0.633375
-1.431882	-14.125000	3.734931	-0.242820	0.734762	0.633375
0.415108	-13.901786	3.735219	0.074923	0.734762	0.674175
-0.415108	-13.901786	3.735219	-0.074923	0.734762	0.674175
1.288119	-14.080358	3.735804	0.221114	0.734762	0.641275
-1.288119	-14.080358	3.735804	-0.221114	0.734762	0.641275
1.043805	-14.013392	3.736033	0.182526	0.734762	0.653306
-1.043805	-14.013392	3.736033	-0.182526	0.734762	0.653306
1.359811	-14.102678	3.736050	0.232001	0.734762	0.637417
-1.359811	-14.102678	3.736050	-0.232001	0.734762	0.637417
0.841062	-13.968750	3.737280	0.148930	0.734762	0.661774
-0.841062	-13.968750	3.737280	-0.148930	0.734762	0.661774
0.942142	-13.991072	3.738027	0.165782	0.734762	0.657755
-0.942142	-13.991072	3.738027	-0.165782	0.734762	0.657755
0.577380	-13.924108	3.738065	0.103546	0.734762	0.670375
-0.577380	-13.924108	3.738065	-0.103546	0.734762	0.670375
0.383293	-13.901786	3.738618	0.069181	0.734762	0.674788
-0.383293	-13.901786	3.738618	-0.069181	0.734762	0.674788
0.708823	-13.946428	3.739994	0.126311	0.734762	0.666461
-0.708823	-13.946428	3.739994	-0.126311	0.734762	0.666461
1.114168	-14.035714	3.740891	0.193624	0.734762	0.650104
-1.114168	-14.035714	3.740891	-0.193624	0.734762	0.650104
0.351449	-13.901786	3.741745	0.063434	0.734762	0.675353
-0.351449	-13.901786	3.741745	-0.063434	0.734762	0.675353
0.545534	-13.924108	3.742845	0.097835	0.734762	0.671233
-0.545534	-13.924108	3.742845	-0.097835	0.734762	0.671233
0.809214	-13.968750	3.744305	0.143290	0.734762	0.663018
-0.809214	-13.968750	3.744305	-0.143290	0.734762	0.663018
1.184997	-14.058036	3.744430	0.204665	0.734762	0.646713
-1.184997	-14.058036	3.744430	-0.204665	0.734762	0.646713
0.319580	-13.901786	3.744602	0.057682	0.734762	0.675868
-0.319580	-13.901786	3.744602	-0.057682	0.734762	0.675868
1.011960	-14.013392	3.744784	0.176958	0.734762	0.654837
-1.011960	-14.013392	3.744784	-0.176958	0.734762	0.654837
0.676956	-13.946428	3.745893	0.120633	0.734762	0.667512
-0.676956	-13.946428	3.745893	-0.120633	0.734762	0.667512
0.910284	-13.991072	3.745912	0.160176	0.734762	0.659142
-0.910284	-13.991072	3.745912	-0.160176	0.734762	0.659142
1.256267	-14.080358	3.746635	0.215646	0.734762	0.643134
-1.256267	-14.080358	3.746635	-0.215646	0.734762	0.643134
1.400032	-14.125000	3.746987	0.237419	0.734762	0.635419
-1.400032	-14.125000	3.746987	-0.237419	0.734762	0.635419
0.287688	-13.901786	3.747187	0.051925	0.734762	0.676335
-0.287688	-13.901786	3.747187	-0.051925	0.734762	0.676335
0.513649	-13.924108	3.747354	0.092117	0.734762	0.672041
-0.513649	-13.924108	3.747354	-0.092117	0.734762	0.672041
1.327954	-14.102678	3.747492	0.226566	0.734762	0.639369
-1.327954	-14.102678	3.747492	-0.226566	0.734762	0.639369
0.255776	-13.901786	3.749501	0.046165	0.734762	0.676752
-0.255776	-13.901786	3.749501	-0.046165	0.734762	0.676752
1.082279	-14.035714	3.750242	0.188082	0.734762	0.651729
-1.082279	-14.035714	3.750242	-0.188082	0.734762	0.651729
0.777306	-13.968750	3.751059	0.137641	0.734762	0.664214
-0.777306	-13.968750	3.751059	-0.137641	0.734762	0.664214
0.645040	-13.946428	3.751521	0.114945	0.734762	0.668515
-0.645040	-13.946428	3.751521	-0.114945	0.734762	0.668515
0.223844	-13.901786	3.751542	0.040402	0.734762	0.677121
-0.223844	-13.901786	3.751542	-0.040402	0.734762	0.677121
0.481726	-13.924108	3.751591	0.086392	0.734762	0.672801
-0.481726	-13.924108	3.751591	-0.086392	0.734762	0.672801
0.980041	-14.013392	3.753264	0.171376	0.734762	0.656319
-0.980041	-14.013392	3.753264	-0.171376	0.734762	0.656319
0.191897	-13.901786	3.753312	0.034636	0.734762	0.677440
-0.191897	-13.901786	3.753312	-0.034636	0.734762	0.677440
0.878359	-13.991072	3.753526	0.154559	0.734762	0.660482
-0.878359	-13.991072	3.753526	-0.154559	0.734762	0.660482
1.153075	-14.058036	3.754383	0.199151	0.734762	0.648432
-1.153075	-14.058036	3.754383	-0.199151	0.734762	0.648432
0.159935	-13.901786	3.754810	0.028867	0.734762	0.677711
-0.159935	-13.901786	3.754810	-0.028867	0.734762	0.677711
0.449769	-13.924108	3.755556	0.080660	0.734762	0.673512
-0.449769	-13.924108	3.755556	-0.080660	0.734762	0.673512
0.127962	-13.901786	3.756035	0.023096	0.734762	0.677932
-0.127962	-13.901786	3.756035	-0.023096	0.734762	0.677932
0.613078	-13.946428	3.756877	0.109249	0.734762	0.669470
-0.613078	-13.946428	3.756877	-0.109249	0.734762	0.669470
0.095980	-13.901786	3.756989	0.017323	0.734762	0.678104
-0.095980	-13.901786	3.756989	-0.017323	0.734762	0.678104
1.224324	-14.080358	3.757195	0.210163	0.734762	0.644947
-1.224324	-14.080358	3.757195	-0.210163	0.734762	0.644947
0.745343	-13.968750	3.757540	0.131981	0.734762	0.665362
-0.745343	-13.968750	3.757540	-0.131981	0.734762	0.665362
0.063990	-13.901786	3.757669	0.011550	0.734762	0.678227
-0.063990	-13.901786	3.757669	-0.011550	0.734762	0.678227
-0.031996	-13.901786	3.758078	-0.005775	0.734762	0.678301
0.031996	-13.901786	3.758078	0.005775	0.734762	0.678301
0.000000	-13.901786	3.758214	0.000000	0.734762	0.678325
1.296001	-14.102678	3.758662	0.221114	0.734762	0.641275
-1.296001	-14.102678	3.758662	-0.221114	0.734762	0.641275
1.368081	-14.125000	3.758770	0.232001	0.734762	0.637417
-1.368081	-14.125000	3.758770	-0.232001	0.734762	0.637417
0.417779	-13.924108	3.759249	0.074923	0.734762	0.674175
-0.417779	-13.924108	3.759249	-0.074923	0.734762	0.674175
1.050311	-14.035714	3.759320	0.182526	0.734762	0.653306
-1.050311	-14.035714	3.759320	-0.182526	0.734762	0.653306
0.846371	-13.991072	3.760868	0.148930	0.734762	0.661774
-0.846371	-13.991072	3.760868	-0.148930	0.734762	0.661774
0.948051	-14.013392	3.761472	0.165782	0.734762	0.657755
-0.948051	-14.013392	3.761472	-0.165782	0.734762	0.657755
0.581070	-13.946428	3.761960	0.103546	0.734762	0.670375
-0.581070	-13.946428	3.761960	-0.103546	0.734762	0.670375
0.385759	-13.924108	3.762670	0.069181	0.734762	0.674788
-0.385759	-13.924108	3.762670	-0.069181	0.734762	0.674788
0.713325	-13.968750	3.763750	0.126311	0.734762	0.666461
-0.713325	-13.968750	3.763750	-0.126311	0.734762	0.666461
1.121070	-14.058036	3.764064	0.193624	0.734762	0.650104
-1.121070	-14.058036	3.764064	-0.193624	0.734762	0.650104
0.353710	-13.924108	3.765818	0.063434	0.734762	0.675353
-0.353710	-13.924108	3.765818	-0.063434	0.734762	0.675353
0.549021	-13.946428	3.766771	0.097835	0.734762	0.671233
-0.549021	-13.946428	3.766771	-0.097835	0.734762	0.671233
1.192292	-14.080358	3.767482	0.204665	0.734762	0.646713
-1.192292	-14.080358	3.767482	-0.204665	0.734762	0.646713
0.814321	-13.991072	3.767938	0.143290	0.734762	0.663018
-0.814321	-13.991072	3.767938	-0.143290	0.734762	0.663018
1.018267	-14.035714	3.768126	0.176958	0.734762	0.654837
-1.018267	-14.035714	3.768126	-0.176958	0.734762	0.654837
0.321637	-13.924108	3.768693	0.057682	0.734762	0.675868
-0.321637	-13.924108	3.768693	-0.057682	0.734762	0.675868
0.915993	-14.013392	3.769407	0.160176	0.734762	0.659142
-0.915993	-14.013392	3.769407	-0.160176	0.734762	0.659142
1.263954	-14.102678	3.769559	0.215646	0.734762	0.643134
-1.263954	-14.102678	3.769559	-0.215646	0.734762	0.643134
0.681256	-13.968750	3.769686	0.120633	0.734762	0.667512
-0.681256	-13.968750	3.769686	-0.120633	0.734762	0.667512
1.336030	-14.125000	3.770282	0.226566	0.734762	0.639369
-1.336030	-14.125000	3.770282	-0.226566	0.734762	0.639369
0.289539	-13.924108	3.771295	0.051925	0.734762	0.676335
-0.289539	-13.924108	3.771295	-0.051925	0.734762	0.676335
0.516932	-13.946428	3.771308	0.092117	0.734762	0.672041
-0.516932	-13.946428	3.771308	-0.092117	0.734762	0.672041
1.088983	-14.058036	3.773472	0.188082	0.734762	0.651729
-1.088983	-14.058036	3.773472	-0.188082	0.734762	0.651729
0.257421	-13.924108	3.773623	0.046165	0.734762	0.676752
-0.257421	-13.924108	3.773623	-0.046165	0.734762	0.676752
0.782213	-13.991072	3.774734	0.137641	0.734762	0.664214
-0.782213	-13.991072	3.774734	-0.137641	0.734762	0.664214
0.649137	-13.968750	3.775350	0.114945	0.734762	0.668515
-0.649137	-13.968750	3.775350	-0.114945	0.734762	0.668515
0.484806	-13.946428	3.775573	0.086392	0.734762	0.672801
-0.484806	-13.946428	3.775573	-0.086392	0.734762	0.672801
0.225284	-13.924108	3.775678	0.040402	0.734762	0.677121
-0.225284	-13.924108	3.775678	-0.040402	0.734762	0.677121
0.986150	-14.035714	3.776658	0.171376	0.734762	0.656319
-0.986150	-14.035714	3.776658	-0.171376	0.734762	0.656319
0.883868	-14.013392	3.777069	0.154559	0.734762	0.660482
-0.883868	-14.013392	3.777069	-0.154559	0.734762	0.660482
0.193131	-13.924108	3.777459	0.034636	0.734762	0.677440
-0.193131	-13.924108	3.777459	-0.034636	0.734762	0.677440
1.160174	-14.080358	3.777496	0.199151	0.734762	0.648432
-1.160174	-14.080358	3.777496	-0.199151	0.734762	0.648432
0.160964	-13.924108	3.778966	0.028867	0.734762	0.677711
-0.160964	-13.924108	3.778966	-0.028867	0.734762	0.677711
0.452644	-13.946428	3.779563	0.080660	0.734762	0.673512
-0.452644	-13.946428	3.779563	-0.080660	0.734762	0.673512
1.231815	-14.102678	3.780184	0.210163	0.734762	0.644947
-1.231815	-14.102678	3.780184	-0.210163	0.734762	0.644947
0.128785	-13.924108	3.780200	0.023096	0.734762	0.677932
-0.128785	-13.924108	3.780200	-0.023096	0.734762	0.677932
0.616972	-13.968750	3.780740	0.109249	0.734762	0.669470
-0.616972	-13.968750	3.780740	-0.109249	0.734762	0.669470
0.096597	-13.924108	3.781159	0.017323	0.734762	0.678104
-0.096597	-13.924108	3.781159	-0.017323	0.734762	0.678104
0.750047	-13.991072	3.781257	0.131981	0.734762	0.665362
-0.750047	-13.991072	3.781257	-0.131981	0.734762	0.665362
1.303882	-14.125000	3.781520	0.221114	0.734762	0.641275
-1.303882	-14.125000	3.781520	-0.221114	0.734762	0.641275
0.064402	-13.924108	3.781845	0.011550	0.734762	0.678227
-0.064402	-13.924108	3.781845	-0.011550	0.734762	0.678227
-0.032202	-13.924108	3.782256	-0.005775	0.734762	0.678301
0.032202	-13.924108	3.782256	0.005775	0.734762	0.678301
0.000000	-13.924108	3.782393	0.000000	0.734762	0.678325
1.056817	-14.058036	3.782607	0.182526	0.734762	0.653306
-1.056817	-14.058036	3.782607	-0.182526	0.734762	0.653306
0.420449	-13.946428	3.783280	0.074923	0.734762	0.674175
-0.420449	-13.946428	3.783280	-0.074923	0.734762	0.674175
0.851679	-14.013392	3.784457	0.148930	0.734762	0.661774
-0.851679	-14.013392	3.784457	-0.148930	0.734762	0.661774
0.953961	-14.035714	3.784917	0.165782	0.734762	0.657755
