-0.701956	-9.750000	3.248013	-0.143290	-0.734762	0.663018
1.213853	-9.616072	3.248704	0.237419	-0.734762	0.635419
-1.213853	-9.616072	3.248704	-0.237419	-0.734762	0.635419
2.163366	-9.214286	3.248921	0.375956	-0.734762	0.564608
-2.163366	-9.214286	3.248921	-0.375956	-0.734762	0.564608
1.406975	-9.549108	3.249049	0.269554	-0.734762	0.622467
-1.406975	-9.549108	3.249049	-0.269554	-0.734762	0.622467
1.277839	-9.593750	3.250067	0.248204	-0.734762	0.631284
-1.277839	-9.593750	3.250067	-0.248204	-0.734762	0.631284
1.342221	-9.571428	3.250187	0.258917	-0.734762	0.626967
-1.342221	-9.571428	3.250187	-0.258917	-0.734762	0.626967
2.204519	-9.191964	3.250395	0.380750	-0.734762	0.561386
-2.204519	-9.191964	3.250395	-0.380750	-0.734762	0.561386
1.932873	-9.325892	3.251230	0.346637	-0.734762	0.583068
-1.932873	-9.325892	3.251230	-0.346637	-0.734762	0.583068
2.245854	-9.169642	3.251403	0.385515	-0.734762	0.558124
-2.245854	-9.169642	3.251403	-0.385515	-0.734762	0.558124
1.059518	-9.660714	3.251441	0.210163	-0.734762	0.644947
-1.059518	-9.660714	3.251441	-0.210163	-0.734762	0.644947
1.575598	-9.482142	3.251506	0.295800	-0.734762	0.610432
-1.575598	-9.482142	3.251506	-0.295800	-0.734762	0.610432
1.786130	-9.392858	3.251581	0.326583	-0.734762	0.594532
-1.786130	-9.392858	3.251581	-0.326583	-0.734762	0.594532
2.287364	-9.147322	3.251941	0.390253	-0.734762	0.554822
-2.287364	-9.147322	3.251941	-0.390253	-0.734762	0.554822
2.329046	-9.125000	3.252007	0.394963	-0.734762	0.551479
-2.329046	-9.125000	3.252007	-0.394963	-0.734762	0.551479
0.790386	-9.727678	3.252521	0.160176	-0.734762	0.659142
-0.790386	-9.727678	3.252521	-0.160176	-0.734762	0.659142
1.680315	-9.437500	3.253171	0.311293	-0.734762	0.602679
-1.680315	-9.437500	3.253171	-0.311293	-0.734762	0.602679
0.674278	-9.750000	3.253871	0.137641	-0.734762	0.664214
-0.674278	-9.750000	3.253871	-0.137641	-0.734762	0.664214
0.969234	-9.683036	3.254266	0.193624	-0.734762	0.650104
-0.969234	-9.683036	3.254266	-0.193624	-0.734762	0.650104
0.879501	-9.705358	3.254616	0.176958	-0.734762	0.654837
-0.879501	-9.705358	3.254616	-0.176958	-0.734762	0.654837
1.973016	-9.303572	3.255333	0.351588	-0.734762	0.580095
-1.973016	-9.303572	3.255333	-0.351588	-0.734762	0.580095
1.122608	-9.638392	3.255787	0.221114	-0.734762	0.641275
-1.122608	-9.638392	3.255787	-0.221114	-0.734762	0.641275
1.509835	-9.504464	3.255927	0.285363	-0.734762	0.615380
-1.509835	-9.504464	3.255927	-0.285363	-0.734762	0.615380
1.825569	-9.370536	3.257349	0.331633	-0.734762	0.591730
-1.825569	-9.370536	3.257349	-0.331633	-0.734762	0.591730
1.186150	-9.616072	3.258921	0.232001	-0.734762	0.637417
-1.186150	-9.616072	3.258921	-0.232001	-0.734762	0.637417
2.013367	-9.281250	3.258988	0.356514	-0.734762	0.577081
-2.013367	-9.281250	3.258988	-0.356514	-0.734762	0.577081
1.444382	-9.526786	3.259058	0.274844	-0.734762	0.620150
-1.444382	-9.526786	3.259058	-0.274844	-0.734762	0.620150
0.762666	-9.727678	3.259132	0.154559	-0.734762	0.660482
-0.762666	-9.727678	3.259132	-0.154559	-0.734762	0.660482
0.646551	-9.750000	3.259494	0.131981	-0.734762	0.665362
-0.646551	-9.750000	3.259494	-0.131981	-0.734762	0.665362
1.613952	-9.459822	3.259642	0.300986	-0.734762	0.607892
-1.613952	-9.459822	3.259642	-0.300986	-0.734762	0.607892
1.719229	-9.415178	3.260135	0.316413	-0.734762	0.600007
-1.719229	-9.415178	3.260135	-0.316413	-0.734762	0.600007
1.031798	-9.660714	3.260343	0.204665	-0.734762	0.646713
-1.031798	-9.660714	3.260343	-0.204665	-0.734762	0.646713
1.250122	-9.593750	3.260829	0.242820	-0.734762	0.633375
-1.250122	-9.593750	3.260829	-0.242820	-0.734762	0.633375
1.379262	-9.549108	3.260910	0.264245	-0.734762	0.624740
-1.379262	-9.549108	3.260910	-0.264245	-0.734762	0.624740
1.314501	-9.571428	3.261496	0.253570	-0.734762	0.629148
-1.314501	-9.571428	3.261496	-0.253570	-0.734762	0.629148
0.851760	-9.705358	3.261986	0.171376	-0.734762	0.656319
-0.851760	-9.705358	3.261986	-0.171376	-0.734762	0.656319
2.053922	-9.258928	3.262189	0.361415	-0.734762	0.574025
-2.053922	-9.258928	3.262189	-0.361415	-0.734762	0.574025
0.941493	-9.683036	3.262400	0.188082	-0.734762	0.651729
-0.941493	-9.683036	3.262400	-0.188082	-0.734762	0.651729
1.865235	-9.348214	3.262679	0.336659	-0.734762	0.588885
-1.865235	-9.348214	3.262679	-0.336659	-0.734762	0.588885
1.547858	-9.482142	3.264802	0.290592	-0.734762	0.612928
-1.547858	-9.482142	3.264802	-0.290592	-0.734762	0.612928
0.618777	-9.750000	3.264880	0.126311	-0.734762	0.666461
-0.618777	-9.750000	3.264880	-0.126311	-0.734762	0.666461
2.094677	-9.236608	3.264935	0.366289	-0.734762	0.570927
-2.094677	-9.236608	3.264935	-0.366289	-0.734762	0.570927
1.094848	-9.638392	3.265227	0.215646	-0.734762	0.643134
-1.094848	-9.638392	3.265227	-0.215646	-0.734762	0.643134
0.734891	-9.727678	3.265507	0.148930	-0.734762	0.661774
-0.734891	-9.727678	3.265507	-0.148930	-0.734762	0.661774
1.758382	-9.392858	3.266670	0.321510	-0.734762	0.597291
-1.758382	-9.392858	3.266670	-0.321510	-0.734762	0.597291
2.135627	-9.214286	3.267221	0.371136	-0.734762	0.567788
-2.135627	-9.214286	3.267221	-0.371136	-0.734762	0.567788
1.652557	-9.437500	3.267359	0.306151	-0.734762	0.605307
-1.652557	-9.437500	3.267359	-0.306151	-0.734762	0.605307
1.905123	-9.325892	3.267568	0.341660	-0.734762	0.585998
-1.905123	-9.325892	3.267568	-0.341660	-0.734762	0.585998
1.482060	-9.504464	3.268664	0.280114	-0.734762	0.617787
-1.482060	-9.504464	3.268664	-0.280114	-0.734762	0.617787
1.158362	-9.616072	3.268902	0.226566	-0.734762	0.639369
-1.158362	-9.616072	3.268902	-0.226566	-0.734762	0.639369
1.004003	-9.660714	3.269010	0.199151	-0.734762	0.648432
-1.004003	-9.660714	3.269010	-0.199151	-0.734762	0.648432
2.176767	-9.191964	3.269046	0.375956	-0.734762	0.564608
-2.176767	-9.191964	3.269046	-0.375956	-0.734762	0.564608
0.823958	-9.705358	3.269120	0.165782	-0.734762	0.657755
-0.823958	-9.705358	3.269120	-0.165782	-0.734762	0.657755
0.590958	-9.750000	3.270030	0.120633	-0.734762	0.667512
-0.590958	-9.750000	3.270030	-0.120633	-0.734762	0.667512
0.913684	-9.683036	3.270297	0.182526	-0.734762	0.653306
-0.913684	-9.683036	3.270297	-0.182526	-0.734762	0.653306
2.218091	-9.169642	3.270406	0.380750	-0.734762	0.561386
-2.218091	-9.169642	3.270406	-0.380750	-0.734762	0.561386
1.416583	-9.526786	3.271237	0.269554	-0.734762	0.622467
-1.416583	-9.526786	3.271237	-0.269554	-0.734762	0.622467
2.259595	-9.147322	3.271297	0.385515	-0.734762	0.558124
-2.259595	-9.147322	3.271297	-0.385515	-0.734762	0.558124
1.222315	-9.593750	3.271354	0.237419	-0.734762	0.635419
-1.222315	-9.593750	3.271354	-0.237419	-0.734762	0.635419
0.707063	-9.727678	3.271646	0.143290	-0.734762	0.663018
-0.707063	-9.727678	3.271646	-0.143290	-0.734762	0.663018
2.301275	-9.125000	3.271718	0.390253	-0.734762	0.554822
-2.301275	-9.125000	3.271718	-0.390253	-0.734762	0.554822
1.945229	-9.303572	3.272013	0.346637	-0.734762	0.583068
-1.945229	-9.303572	3.272013	-0.346637	-0.734762	0.583068
1.351450	-9.549108	3.272535	0.258917	-0.734762	0.626967
-1.351450	-9.549108	3.272535	-0.258917	-0.734762	0.626967
1.286686	-9.571428	3.272569	0.248204	-0.734762	0.631284
-1.286686	-9.571428	3.272569	-0.248204	-0.734762	0.631284
1.797771	-9.370536	3.272773	0.326583	-0.734762	0.594532
-1.797771	-9.370536	3.272773	-0.326583	-0.734762	0.594532
1.586142	-9.459822	3.273265	0.295800	-0.734762	0.610432
-1.586142	-9.459822	3.273265	-0.295800	-0.734762	0.610432
1.067010	-9.638392	3.274430	0.210163	-0.734762	0.644947
-1.067010	-9.638392	3.274430	-0.210163	-0.734762	0.644947
1.691411	-9.415178	3.274654	0.311293	-0.734762	0.602679
-1.691411	-9.415178	3.274654	-0.311293	-0.734762	0.602679
0.563097	-9.750000	3.274943	0.114945	-0.734762	0.668515
-0.563097	-9.750000	3.274943	-0.114945	-0.734762	0.668515
1.985548	-9.281250	3.276011	0.351588	-0.734762	0.580095
-1.985548	-9.281250	3.276011	-0.351588	-0.734762	0.580095
0.796095	-9.705358	3.276016	0.160176	-0.734762	0.659142
-0.796095	-9.705358	3.276016	-0.160176	-0.734762	0.659142
0.976135	-9.660714	3.277439	0.193624	-0.734762	0.650104
-0.976135	-9.660714	3.277439	-0.193624	-0.734762	0.650104
0.679184	-9.727678	3.277547	0.137641	-0.734762	0.664214
-0.679184	-9.727678	3.277547	-0.137641	-0.734762	0.664214
1.520007	-9.482142	3.277862	0.285363	-0.734762	0.615380
-1.520007	-9.482142	3.277862	-0.285363	-0.734762	0.615380
0.885808	-9.683036	3.277958	0.176958	-0.734762	0.654837
-0.885808	-9.683036	3.277958	-0.176958	-0.734762	0.654837
1.837390	-9.348214	3.278440	0.331633	-0.734762	0.591730
-1.837390	-9.348214	3.278440	-0.331633	-0.734762	0.591730
1.130489	-9.616072	3.278645	0.221114	-0.734762	0.641275
-1.130489	-9.616072	3.278645	-0.221114	-0.734762	0.641275
2.026074	-9.258928	3.279557	0.356514	-0.734762	0.577081
-2.026074	-9.258928	3.279557	-0.356514	-0.734762	0.577081
0.535195	-9.750000	3.279618	0.109249	-0.734762	0.669470
-0.535195	-9.750000	3.279618	-0.109249	-0.734762	0.669470
1.454178	-9.504464	3.281163	0.274844	-0.734762	0.620150
-1.454178	-9.504464	3.281163	-0.274844	-0.734762	0.620150
1.624680	-9.437500	3.281310	0.300986	-0.734762	0.607892
-1.624680	-9.437500	3.281310	-0.300986	-0.734762	0.607892
1.730507	-9.392858	3.281522	0.316413	-0.734762	0.600007
-1.730507	-9.392858	3.281522	-0.316413	-0.734762	0.600007
1.194420	-9.593750	3.281641	0.232001	-0.734762	0.637417
-1.194420	-9.593750	3.281641	-0.232001	-0.734762	0.637417
2.066805	-9.236608	3.282650	0.361415	-0.734762	0.574025
-2.066805	-9.236608	3.282650	-0.361415	-0.734762	0.574025
0.768176	-9.705358	3.282675	0.154559	-0.734762	0.660482
-0.768176	-9.705358	3.282675	-0.154559	-0.734762	0.660482
1.388681	-9.526786	3.283179	0.264245	-0.734762	0.624740
-1.388681	-9.526786	3.283179	-0.264245	-0.734762	0.624740
0.651255	-9.727678	3.283211	0.131981	-0.734762	0.665362
-0.651255	-9.727678	3.283211	-0.131981	-0.734762	0.665362
1.039093	-9.638392	3.283395	0.204665	-0.734762	0.646713
-1.039093	-9.638392	3.283395	-0.204665	-0.734762	0.646713
1.258778	-9.571428	3.283405	0.242820	-0.734762	0.633375
-1.258778	-9.571428	3.283405	-0.242820	-0.734762	0.633375
1.877235	-9.325892	3.283669	0.336659	-0.734762	0.588885
-1.877235	-9.325892	3.283669	-0.336659	-0.734762	0.588885
1.323539	-9.549108	3.283922	0.253570	-0.734762	0.629148
-1.323539	-9.549108	3.283922	-0.253570	-0.734762	0.629148
0.507254	-9.750000	3.284056	0.103546	-0.734762	0.670375
-0.507254	-9.750000	3.284056	-0.103546	-0.734762	0.670375
2.107733	-9.214286	3.285285	0.366289	-0.734762	0.570927
-2.107733	-9.214286	3.285285	-0.366289	-0.734762	0.570927
0.857869	-9.683036	3.285380	0.171376	-0.734762	0.656319
-0.857869	-9.683036	3.285380	-0.171376	-0.734762	0.656319
0.948197	-9.660714	3.285630	0.188082	-0.734762	0.651729
-0.948197	-9.660714	3.285630	-0.188082	-0.734762	0.651729
1.558216	-9.459822	3.286650	0.290592	-0.734762	0.612928
-1.558216	-9.459822	3.286650	-0.290592	-0.734762	0.612928
2.148856	-9.191964	3.287460	0.371136	-0.734762	0.567788
-2.148856	-9.191964	3.287460	-0.371136	-0.734762	0.567788
1.769842	-9.370536	3.287960	0.321510	-0.734762	0.597291
-1.769842	-9.370536	3.287960	-0.321510	-0.734762	0.597291
1.102535	-9.616072	3.288151	0.215646	-0.734762	0.643134
-1.102535	-9.616072	3.288151	-0.215646	-0.734762	0.643134
0.479276	-9.750000	3.288255	0.097835	-0.734762	0.671233
-0.479276	-9.750000	3.288255	-0.097835	-0.734762	0.671233
1.917302	-9.303572	3.288456	0.341660	-0.734762	0.585998
-1.917302	-9.303572	3.288456	-0.341660	-0.734762	0.585998
0.623279	-9.727678	3.288636	0.126311	-0.734762	0.666461
-0.623279	-9.727678	3.288636	-0.126311	-0.734762	0.666461
1.663470	-9.415178	3.288935	0.306151	-0.734762	0.605307
-1.663470	-9.415178	3.288935	-0.306151	-0.734762	0.605307
0.740200	-9.705358	3.289096	0.148930	-0.734762	0.661774
-0.740200	-9.705358	3.289096	-0.148930	-0.734762	0.661774
2.190167	-9.169642	3.289171	0.375956	-0.734762	0.564608
-2.190167	-9.169642	3.289171	-0.375956	-0.734762	0.564608
2.231663	-9.147322	3.290416	0.380750	-0.734762	0.561386
-2.231663	-9.147322	3.290416	-0.380750	-0.734762	0.561386
1.492045	-9.482142	3.290684	0.280114	-0.734762	0.617787
-1.492045	-9.482142	3.290684	-0.280114	-0.734762	0.617787
2.273337	-9.125000	3.291191	0.385515	-0.734762	0.558124
-2.273337	-9.125000	3.291191	-0.385515	-0.734762	0.558124
1.166438	-9.593750	3.291692	0.226566	-0.734762	0.639369
-1.166438	-9.593750	3.291692	-0.226566	-0.734762	0.639369
1.011102	-9.638392	3.292123	0.199151	-0.734762	0.648432
-1.011102	-9.638392	3.292123	-0.199151	-0.734762	0.648432
0.451263	-9.750000	3.292217	0.092117	-0.734762	0.672041
-0.451263	-9.750000	3.292217	-0.092117	-0.734762	0.672041
0.829867	-9.683036	3.292565	0.165782	-0.734762	0.657755
-0.829867	-9.683036	3.292565	-0.165782	-0.734762	0.657755
1.957585	-9.281250	3.292796	0.346637	-0.734762	0.583068
-1.957585	-9.281250	3.292796	-0.346637	-0.734762	0.583068
1.426191	-9.504464	3.293424	0.269554	-0.734762	0.622467
-1.426191	-9.504464	3.293424	-0.269554	-0.734762	0.622467
0.920190	-9.660714	3.293584	0.182526	-0.734762	0.653306
-0.920190	-9.660714	3.293584	-0.182526	-0.734762	0.653306
0.595258	-9.727678	3.293823	0.120633	-0.734762	0.667512
-0.595258	-9.727678	3.293823	-0.120633	-0.734762	0.667512
1.809412	-9.348214	3.293965	0.326583	-0.734762	0.594532
-1.809412	-9.348214	3.293965	-0.326583	-0.734762	0.594532
1.230778	-9.571428	3.294003	0.237419	-0.734762	0.635419
-1.230778	-9.571428	3.294003	-0.237419	-0.734762	0.635419
1.360679	-9.526786	3.294883	0.258917	-0.734762	0.626967
-1.360679	-9.526786	3.294883	-0.258917	-0.734762	0.626967
1.596685	-9.437500	3.295023	0.295800	-0.734762	0.610432
-1.596685	-9.437500	3.295023	-0.295800	-0.734762	0.610432
1.295533	-9.549108	3.295071	0.248204	-0.734762	0.631284
-1.295533	-9.549108	3.295071	-0.248204	-0.734762	0.631284
0.712171	-9.705358	3.295279	0.143290	-0.734762	0.663018
-0.712171	-9.705358	3.295279	-0.143290	-0.734762	0.663018
0.423218	-9.750000	3.295939	0.086392	-0.734762	0.672801
-0.423218	-9.750000	3.295939	-0.086392	-0.734762	0.672801
1.702507	-9.392858	3.296136	0.311293	-0.734762	0.602679
-1.702507	-9.392858	3.296136	-0.311293	-0.734762	0.602679
1.998080	-9.258928	3.296688	0.351588	-0.734762	0.580095
-1.998080	-9.258928	3.296688	-0.351588	-0.734762	0.580095
1.074501	-9.616072	3.297418	0.210163	-0.734762	0.644947
-1.074501	-9.616072	3.297418	-0.210163	-0.734762	0.644947
0.567194	-9.727678	3.298772	0.114945	-0.734762	0.668515
-0.567194	-9.727678	3.298772	-0.114945	-0.734762	0.668515
0.395142	-9.750000	3.299423	0.080660	-0.734762	0.673512
-0.395142	-9.750000	3.299423	-0.080660	-0.734762	0.673512
0.801805	-9.683036	3.299511	0.160176	-0.734762	0.659142
-0.801805	-9.683036	3.299511	-0.160176	-0.734762	0.659142
1.849211	-9.325892	3.299532	0.331633	-0.734762	0.591730
-1.849211	-9.325892	3.299532	-0.331633	-0.734762	0.591730
1.530178	-9.459822	3.299797	0.285363	-0.734762	0.615380
-1.530178	-9.459822	3.299797	-0.285363	-0.734762	0.615380
2.038782	-9.236608	3.300127	0.356514	-0.734762	0.577081
-2.038782	-9.236608	3.300127	-0.356514	-0.734762	0.577081
0.983037	-9.638392	3.300611	0.193624	-0.734762	0.650104
-0.983037	-9.638392	3.300611	-0.193624	-0.734762	0.650104
0.684090	-9.705358	3.301223	0.137641	-0.734762	0.664214
-0.684090	-9.705358	3.301223	-0.137641	-0.734762	0.664214
0.892116	-9.660714	3.301299	0.176958	-0.734762	0.654837
-0.892116	-9.660714	3.301299	-0.176958	-0.734762	0.654837
1.138371	-9.593750	3.301503	0.221114	-0.734762	0.641275
-1.138371	-9.593750	3.301503	-0.221114	-0.734762	0.641275
0.367037	-9.750000	3.302668	0.074923	-0.734762	0.674175
-0.367037	-9.750000	3.302668	-0.074923	-0.734762	0.674175
1.741786	-9.370536	3.302909	0.316413	-0.734762	0.600007
-1.741786	-9.370536	3.302909	-0.316413	-0.734762	0.600007
1.635409	-9.415178	3.302978	0.300986	-0.734762	0.607892
-1.635409	-9.415178	3.302978	-0.300986	-0.734762	0.607892
2.079687	-9.214286	3.303111	0.361415	-0.734762	0.574025
-2.079687	-9.214286	3.303111	-0.361415	-0.734762	0.574025
1.463975	-9.482142	3.303268	0.274844	-0.734762	0.620150
-1.463975	-9.482142	3.303268	-0.274844	-0.734762	0.620150
0.539089	-9.727678	3.303481	0.109249	-0.734762	0.669470
-0.539089	-9.727678	3.303481	-0.109249	-0.734762	0.669470
1.202689	-9.571428	3.304362	0.232001	-0.734762	0.637417
-1.202689	-9.571428	3.304362	-0.232001	-0.734762	0.637417
1.889235	-9.303572	3.304660	0.336659	-0.734762	0.588885
-1.889235	-9.303572	3.304660	-0.336659	-0.734762	0.588885
1.398100	-9.504464	3.305447	0.264245	-0.734762	0.624740
-1.398100	-9.504464	3.305447	-0.264245	-0.734762	0.624740
2.120790	-9.191964	3.305636	0.366289	-0.734762	0.570927
-2.120790	-9.191964	3.305636	-0.366289	-0.734762	0.570927
0.338906	-9.750000	3.305673	0.069181	-0.734762	0.674788
-0.338906	-9.750000	3.305673	-0.069181	-0.734762	0.674788
1.267433	-9.549108	3.305981	0.242820	-0.734762	0.633375
-1.267433	-9.549108	3.305981	-0.242820	-0.734762	0.633375
0.773685	-9.683036	3.306218	0.154559	-0.734762	0.660482
-0.773685	-9.683036	3.306218	-0.154559	-0.734762	0.660482
1.332578	-9.526786	3.306347	0.253570	-0.734762	0.629148
-1.332578	-9.526786	3.306347	-0.253570	-0.734762	0.629148
1.046389	-9.616072	3.306447	0.204665	-0.734762	0.646713
-1.046389	-9.616072	3.306447	-0.204665	-0.734762	0.646713
0.655960	-9.705358	3.306927	0.131981	-0.734762	0.665362
-0.655960	-9.705358	3.306927	-0.131981	-0.734762	0.665362
2.162085	-9.169642	3.307699	0.371136	-0.734762	0.567788
-2.162085	-9.169642	3.307699	-0.371136	-0.734762	0.567788
0.510944	-9.727678	3.307951	0.103546	-0.734762	0.670375
-0.510944	-9.727678	3.307951	-0.103546	-0.734762	0.670375
0.310750	-9.750000	3.308438	0.063434	-0.734762	0.675353
-0.310750	-9.750000	3.308438	-0.063434	-0.734762	0.675353
1.568575	-9.437500	3.308498	0.290592	-0.734762	0.612928
-1.568575	-9.437500	3.308498	-0.290592	-0.734762	0.612928
0.863977	-9.660714	3.308774	0.171376	-0.734762	0.656319
-0.863977	-9.660714	3.308774	-0.171376	-0.734762	0.656319
0.954901	-9.638392	3.308861	0.188082	-0.734762	0.651729
-0.954901	-9.638392	3.308861	-0.188082	-0.734762	0.651729
1.781302	-9.348214	3.309250	0.321510	-0.734762	0.597291
-1.781302	-9.348214	3.309250	-0.321510	-0.734762	0.597291
2.203568	-9.147322	3.309297	0.375956	-0.734762	0.564608
-2.203568	-9.147322	3.309297	-0.375956	-0.734762	0.564608
1.929480	-9.281250	3.309343	0.341660	-0.734762	0.585998
-1.929480	-9.281250	3.309343	-0.341660	-0.734762	0.585998
2.245234	-9.125000	3.310426	0.380750	-0.734762	0.561386
-2.245234	-9.125000	3.310426	-0.380750	-0.734762	0.561386
1.674383	-9.392858	3.310511	0.306151	-0.734762	0.605307
-1.674383	-9.392858	3.310511	-0.306151	-0.734762	0.605307
0.282572	-9.750000	3.310964	0.057682	-0.734762	0.675868
-0.282572	-9.750000	3.310964	-0.057682	-0.734762	0.675868
1.110222	-9.593750	3.311075	0.215646	-0.734762	0.643134
-1.110222	-9.593750	3.311075	-0.215646	-0.734762	0.643134
0.482763	-9.727678	3.312181	0.097835	-0.734762	0.671233
-0.482763	-9.727678	3.312181	-0.097835	-0.734762	0.671233
0.627782	-9.705358	3.312392	0.126311	-0.734762	0.666461
-0.627782	-9.705358	3.312392	-0.126311	-0.734762	0.666461
0.745509	-9.683036	3.312685	0.148930	-0.734762	0.661774
-0.745509	-9.683036	3.312685	-0.148930	-0.734762	0.661774
1.502030	-9.459822	3.312705	0.280114	-0.734762	0.617787
-1.502030	-9.459822	3.312705	-0.280114	-0.734762	0.617787
0.254373	-9.750000	3.313250	0.051925	-0.734762	0.676335
-0.254373	-9.750000	3.313250	-0.051925	-0.734762	0.676335
1.969941	-9.258928	3.313579	0.346637	-0.734762	0.583068
-1.969941	-9.258928	3.313579	-0.346637	-0.734762	0.583068
1.174513	-9.571428	3.314481	0.226566	-0.734762	0.639369
-1.174513	-9.571428	3.314481	-0.226566	-0.734762	0.639369
1.821053	-9.325892	3.315156	0.326583	-0.734762	0.594532
-1.821053	-9.325892	3.315156	-0.326583	-0.734762	0.594532
1.018201	-9.616072	3.315236	0.199151	-0.734762	0.648432
-1.018201	-9.616072	3.315236	-0.199151	-0.734762	0.648432
0.226156	-9.750000	3.315295	0.046165	-0.734762	0.676752
-0.226156	-9.750000	3.315295	-0.046165	-0.734762	0.676752
1.435799	-9.482142	3.315612	0.269554	-0.734762	0.622467
-1.435799	-9.482142	3.315612	-0.269554	-0.734762	0.622467
0.835776	-9.660714	3.316010	0.165782	-0.734762	0.657755
-0.835776	-9.660714	3.316010	-0.165782	-0.734762	0.657755
0.454547	-9.727678	3.316171	0.092117	-0.734762	0.672041
-0.454547	-9.727678	3.316171	-0.092117	-0.734762	0.672041
1.239241	-9.549108	3.316652	0.237419	-0.734762	0.635419
-1.239241	-9.549108	3.316652	-0.237419	-0.734762	0.635419
1.607229	-9.415178	3.316782	0.295800	-0.734762	0.610432
-1.607229	-9.415178	3.316782	-0.295800	-0.734762	0.610432
0.926696	-9.638392	3.316871	0.182526	-0.734762	0.653306
-0.926696	-9.638392	3.316871	-0.182526	-0.734762	0.653306
0.197922	-9.750000	3.317101	0.040402	-0.734762	0.677121
-0.197922	-9.750000	3.317101	-0.040402	-0.734762	0.677121
1.369908	-9.504464	3.317230	0.258917	-0.734762	0.626967
-1.369908	-9.504464	3.317230	-0.258917	-0.734762	0.626967
2.010612	-9.236608	3.317365	0.351588	-0.734762	0.580095
-2.010612	-9.236608	3.317365	-0.351588	-0.734762	0.580095
1.304380	-9.526786	3.317573	0.248204	-0.734762	0.631284
-1.304380	-9.526786	3.317573	-0.248204	-0.734762	0.631284
0.599558	-9.705358	3.317616	0.120633	-0.734762	0.667512
-0.599558	-9.705358	3.317616	-0.120633	-0.734762	0.667512
1.713603	-9.370536	3.317618	0.311293	-0.734762	0.602679
-1.713603	-9.370536	3.317618	-0.311293	-0.734762	0.602679
0.169674	-9.750000	3.318665	0.034636	-0.734762	0.677440
-0.169674	-9.750000	3.318665	-0.034636	-0.734762	0.677440
0.717278	-9.683036	3.318912	0.143290	-0.734762	0.663018
-0.717278	-9.683036	3.318912	-0.143290	-0.734762	0.663018
0.426297	-9.727678	3.319921	0.086392	-0.734762	0.672801
-0.426297	-9.727678	3.319921	-0.086392	-0.734762	0.672801
0.141414	-9.750000	3.319990	0.028867	-0.734762	0.677711
-0.141414	-9.750000	3.319990	-0.028867	-0.734762	0.677711
1.081992	-9.593750	3.320407	0.210163	-0.734762	0.644947
-1.081992	-9.593750	3.320407	-0.210163	-0.734762	0.644947
1.861032	-9.303572	3.320624	0.331633	-0.734762	0.591730
-1.861032	-9.303572	3.320624	-0.331633	-0.734762	0.591730
2.051490	-9.214286	3.320697	0.356514	-0.734762	0.577081
-2.051490	-9.214286	3.320697	-0.356514	-0.734762	0.577081
0.113144	-9.750000	3.321073	0.023096	-0.734762	0.677932
-0.113144	-9.750000	3.321073	-0.023096	-0.734762	0.677932
1.540350	-9.437500	3.321732	0.285363	-0.734762	0.615380
-1.540350	-9.437500	3.321732	-0.285363	-0.734762	0.615380
0.084865	-9.750000	3.321916	0.017323	-0.734762	0.678104
-0.084865	-9.750000	3.321916	-0.017323	-0.734762	0.678104
0.056580	-9.750000	3.322518	0.011550	-0.734762	0.678227
-0.056580	-9.750000	3.322518	-0.011550	-0.734762	0.678227
0.571291	-9.705358	3.322601	0.114945	-0.734762	0.668515
-0.571291	-9.705358	3.322601	-0.114945	-0.734762	0.668515
0.028291	-9.750000	3.322880	0.005775	-0.734762	0.678301
-0.028291	-9.750000	3.322880	-0.005775	-0.734762	0.678301
0.000000	-9.750000	3.323000	0.000000	-0.734762	0.678325
0.807514	-9.660714	3.323006	0.160176	-0.734762	0.659142
-0.807514	-9.660714	3.323006	-0.160176	-0.734762	0.659142
0.398017	-9.727678	3.323430	0.080660	-0.734762	0.673512
-0.398017	-9.727678	3.323430	-0.080660	-0.734762	0.673512
2.092570	-9.191964	3.323572	0.361415	-0.734762	0.574025
-2.092570	-9.191964	3.323572	-0.361415	-0.734762	0.574025
0.989939	-9.616072	3.323784	0.193624	-0.734762	0.650104
-0.989939	-9.616072	3.323784	-0.193624	-0.734762	0.650104
1.753064	-9.348214	3.324296	0.316413	-0.734762	0.600007
-1.753064	-9.348214	3.324296	-0.316413	-0.734762	0.600007
1.146252	-9.571428	3.324361	0.221114	-0.734762	0.641275
-1.146252	-9.571428	3.324361	-0.221114	-0.734762	0.641275
0.898423	-9.638392	3.324640	0.176958	-0.734762	0.654837
-0.898423	-9.638392	3.324640	-0.176958	-0.734762	0.654837
1.646137	-9.392858	3.324646	0.300986	-0.734762	0.607892
-1.646137	-9.392858	3.324646	-0.300986	-0.734762	0.607892
0.688996	-9.683036	3.324898	0.137641	-0.734762	0.664214
-0.688996	-9.683036	3.324898	-0.137641	-0.734762	0.664214
1.473772	-9.459822	3.325373	0.274844	-0.734762	0.620150
-1.473772	-9.459822	3.325373	-0.274844	-0.734762	0.620150
1.901235	-9.281250	3.325650	0.336659	-0.734762	0.588885
-1.901235	-9.281250	3.325650	-0.336659	-0.734762	0.588885
2.133846	-9.169642	3.325986	0.366289	-0.734762	0.570927
-2.133846	-9.169642	3.325986	-0.366289	-0.734762	0.570927
0.369708	-9.727678	3.326698	0.074923	-0.734762	0.674175
-0.369708	-9.727678	3.326698	-0.074923	-0.734762	0.674175
1.210959	-9.549108	3.327082	0.232001	-0.734762	0.637417
-1.210959	-9.549108	3.327082	-0.232001	-0.734762	0.637417
0.542983	-9.705358	3.327344	0.109249	-0.734762	0.669470
-0.542983	-9.705358	3.327344	-0.109249	-0.734762	0.669470
1.407519	-9.482142	3.327716	0.264245	-0.734762	0.624740
-1.407519	-9.482142	3.327716	-0.264245	-0.734762	0.624740
2.175314	-9.147322	3.327937	0.371136	-0.734762	0.567788
-2.175314	-9.147322	3.327937	-0.371136	-0.734762	0.567788
1.276088	-9.526786	3.328558	0.242820	-0.734762	0.633375
-1.276088	-9.526786	3.328558	-0.242820	-0.734762	0.633375
1.341616	-9.504464	3.328773	0.253570	-0.734762	0.629148
-1.341616	-9.504464	3.328773	-0.253570	-0.734762	0.629148
2.216969	-9.125000	3.329422	0.375956	-0.734762	0.564608
-2.216969	-9.125000	3.329422	-0.375956	-0.734762	0.564608
1.053684	-9.593750	3.329499	0.204665	-0.734762	0.646713
-1.053684	-9.593750	3.329499	-0.204665	-0.734762	0.646713
0.341372	-9.727678	3.329725	0.069181	-0.734762	0.674788
-0.341372	-9.727678	3.329725	-0.069181	-0.734762	0.674788
0.779194	-9.660714	3.329760	0.154559	-0.734762	0.660482
-0.779194	-9.660714	3.329760	-0.154559	-0.734762	0.660482
1.941658	-9.258928	3.330231	0.341660	-0.734762	0.585998
-1.941658	-9.258928	3.330231	-0.341660	-0.734762	0.585998
1.578933	-9.415178	3.330345	0.290592	-0.734762	0.612928
-1.578933	-9.415178	3.330345	-0.290592	-0.734762	0.612928
1.792763	-9.325892	3.330540	0.321510	-0.734762	0.597291
-1.792763	-9.325892	3.330540	-0.321510	-0.734762	0.597291
0.660664	-9.683036	3.330643	0.131981	-0.734762	0.665362
-0.660664	-9.683036	3.330643	-0.131981	-0.734762	0.665362
0.514635	-9.705358	3.331846	0.103546	-0.734762	0.670375
-0.514635	-9.705358	3.331846	-0.103546	-0.734762	0.670375
1.685295	-9.370536	3.332087	0.306151	-0.734762	0.605307
-1.685295	-9.370536	3.332087	-0.306151	-0.734762	0.605307
0.961605	-9.616072	3.332092	0.188082	-0.734762	0.651729
-0.961605	-9.616072	3.332092	-0.188082	-0.734762	0.651729
0.870086	-9.638392	3.332169	0.171376	-0.734762	0.656319
-0.870086	-9.638392	3.332169	-0.171376	-0.734762	0.656319
0.313011	-9.727678	3.332511	0.063434	-0.734762	0.675353
-0.313011	-9.727678	3.332511	-0.063434	-0.734762	0.675353
1.117908	-9.571428	3.333999	0.215646	-0.734762	0.643134
-1.117908	-9.571428	3.333999	-0.215646	-0.734762	0.643134
1.982296	-9.236608	3.334363	0.346637	-0.734762	0.583068
-1.982296	-9.236608	3.334363	-0.346637	-0.734762	0.583068
1.512014	-9.437500	3.334726	0.280114	-0.734762	0.617787
-1.512014	-9.437500	3.334726	-0.280114	-0.734762	0.617787
0.284628	-9.727678	3.335055	0.057682	-0.734762	0.675868
-0.284628	-9.727678	3.335055	-0.057682	-0.734762	0.675868
0.486250	-9.705358	3.336107	0.097835	-0.734762	0.671233
-0.486250	-9.705358	3.336107	-0.097835	-0.734762	0.671233
0.632284	-9.683036	3.336148	0.126311	-0.734762	0.666461
-0.632284	-9.683036	3.336148	-0.126311	-0.734762	0.666461
0.750817	-9.660714	3.336273	0.148930	-0.734762	0.661774
-0.750817	-9.660714	3.336273	-0.148930	-0.734762	0.661774
1.832694	-9.303572	3.336348	0.326583	-0.734762	0.594532
-1.832694	-9.303572	3.336348	-0.326583	-0.734762	0.594532
1.182589	-9.549108	3.337271	0.226566	-0.734762	0.639369
-1.182589	-9.549108	3.337271	-0.226566	-0.734762	0.639369
0.256224	-9.727678	3.337357	0.051925	-0.734762	0.676335
-0.256224	-9.727678	3.337357	-0.051925	-0.734762	0.676335
1.445407	-9.459822	3.337800	0.269554	-0.734762	0.622467
-1.445407	-9.459822	3.337800	-0.269554	-0.734762	0.622467
2.023144	-9.214286	3.338042	0.351588	-0.734762	0.580095
-2.023144	-9.214286	3.338042	-0.351588	-0.734762	0.580095
1.025299	-9.593750	3.338349	0.199151	-0.734762	0.648432
-1.025299	-9.593750	3.338349	-0.199151	-0.734762	0.648432
1.617772	-9.392858	3.338540	0.295800	-0.734762	0.610432
-1.617772	-9.392858	3.338540	-0.295800	-0.734762	0.610432
1.724698	-9.348214	3.339100	0.311293	-0.734762	0.602679
-1.724698	-9.348214	3.339100	-0.311293	-0.734762	0.602679
1.247704	-9.526786	3.339301	0.237419	-0.734762	0.635419
-1.247704	-9.526786	3.339301	-0.237419	-0.734762	0.635419
0.227801	-9.727678	3.339418	0.046165	-0.734762	0.676752
-0.227801	-9.727678	3.339418	-0.046165	-0.734762	0.676752
0.841685	-9.638392	3.339456	0.165782	-0.734762	0.657755
-0.841685	-9.638392	3.339456	-0.165782	-0.734762	0.657755
1.379137	-9.482142	3.339578	0.258917	-0.734762	0.626967
-1.379137	-9.482142	3.339578	-0.258917	-0.734762	0.626967
1.313227	-9.504464	3.340075	0.248204	-0.734762	0.631284
-1.313227	-9.504464	3.340075	-0.248204	-0.734762	0.631284
0.457830	-9.705358	3.340126	0.092117	-0.734762	0.672041
-0.457830	-9.705358	3.340126	-0.092117	-0.734762	0.672041
0.933202	-9.616072	3.340158	0.182526	-0.734762	0.653306
-0.933202	-9.616072	3.340158	-0.182526	-0.734762	0.653306
0.199362	-9.727678	3.341236	0.040402	-0.734762	0.677121
-0.199362	-9.727678	3.341236	-0.040402	-0.734762	0.677121
2.064198	-9.191964	3.341267	0.356514	-0.734762	0.577081
-2.064198	-9.191964	3.341267	-0.356514	-0.734762	0.577081
0.603858	-9.683036	3.341410	0.120633	-0.734762	0.667512
-0.603858	-9.683036	3.341410	-0.120633	-0.734762	0.667512
1.872853	-9.281250	3.341716	0.331633	-0.734762	0.591730
-1.872853	-9.281250	3.341716	-0.331633	-0.734762	0.591730
0.722386	-9.660714	3.342545	0.143290	-0.734762	0.663018
-0.722386	-9.660714	3.342545	-0.143290	-0.734762	0.663018
0.170909	-9.727678	3.342812	0.034636	-0.734762	0.677440
-0.170909	-9.727678	3.342812	-0.034636	-0.734762	0.677440
1.089483	-9.571428	3.343396	0.210163	-0.734762	0.644947
-1.089483	-9.571428	3.343396	-0.210163	-0.734762	0.644947
1.550522	-9.415178	3.343667	0.285363	-0.734762	0.615380
-1.550522	-9.415178	3.343667	-0.285363	-0.734762	0.615380
0.429377	-9.705358	3.343903	0.086392	-0.734762	0.672801
-0.429377	-9.705358	3.343903	-0.086392	-0.734762	0.672801
2.105452	-9.169642	3.344033	0.361415	-0.734762	0.574025
-2.105452	-9.169642	3.344033	-0.361415	-0.734762	0.574025
0.142443	-9.727678	3.344146	0.028867	-0.734762	0.677711
-0.142443	-9.727678	3.344146	-0.028867	-0.734762	0.677711
0.113967	-9.727678	3.345238	0.023096	-0.734762	0.677932
-0.113967	-9.727678	3.345238	-0.023096	-0.734762	0.677932
1.764342	-9.325892	3.345683	0.316413	-0.734762	0.600007
-1.764342	-9.325892	3.345683	-0.316413	-0.734762	0.600007
0.085482	-9.727678	3.346087	0.017323	-0.734762	0.678104
-0.085482	-9.727678	3.346087	-0.017323	-0.734762	0.678104
1.656866	-9.370536	3.346314	0.300986	-0.734762	0.607892
-1.656866	-9.370536	3.346314	-0.300986	-0.734762	0.607892
2.146902	-9.147322	3.346337	0.366289	-0.734762	0.570927
-2.146902	-9.147322	3.346337	-0.366289	-0.734762	0.570927
0.575388	-9.683036	3.346430	0.114945	-0.734762	0.668515
-0.575388	-9.683036	3.346430	-0.114945	-0.734762	0.668515
0.813224	-9.638392	3.346500	0.160176	-0.734762	0.659142
-0.813224	-9.638392	3.346500	-0.160176	-0.734762	0.659142
1.913235	-9.258928	3.346641	0.336659	-0.734762	0.588885
-1.913235	-9.258928	3.346641	-0.336659	-0.734762	0.588885
0.056992	-9.727678	3.346693	0.011550	-0.734762	0.678227
-0.056992	-9.727678	3.346693	-0.011550	-0.734762	0.678227
0.996840	-9.593750	3.346957	0.193624	-0.734762	0.650104
-0.996840	-9.593750	3.346957	-0.193624	-0.734762	0.650104
0.028497	-9.727678	3.347057	0.005775	-0.734762	0.678301
-0.028497	-9.727678	3.347057	-0.005775	-0.734762	0.678301
0.000000	-9.727678	3.347178	0.000000	-0.734762	0.678325
1.154134	-9.549108	3.347219	0.221114	-0.734762	0.641275
-1.154134	-9.549108	3.347219	-0.221114	-0.734762	0.641275
0.400892	-9.705358	3.347437	0.080660	-0.734762	0.673512
-0.400892	-9.705358	3.347437	-0.080660	-0.734762	0.673512
1.483568	-9.437500	3.347478	0.274844	-0.734762	0.620150
-1.483568	-9.437500	3.347478	-0.274844	-0.734762	0.620150
0.904731	-9.616072	3.347982	0.176958	-0.734762	0.654837
-0.904731	-9.616072	3.347982	-0.176958	-0.734762	0.654837
2.188543	-9.125000	3.348176	0.371136	-0.734762	0.567788
-2.188543	-9.125000	3.348176	-0.371136	-0.734762	0.567788
0.693902	-9.660714	3.348574	0.137641	-0.734762	0.664214
-0.693902	-9.660714	3.348574	-0.137641	-0.734762	0.664214
1.219229	-9.526786	3.349803	0.232001	-0.734762	0.637417
-1.219229	-9.526786	3.349803	-0.232001	-0.734762	0.637417
1.416938	-9.459822	3.349984	0.264245	-0.734762	0.624740
-1.416938	-9.459822	3.349984	-0.264245	-0.734762	0.624740
0.372378	-9.705358	3.350729	0.074923	-0.734762	0.674175
-0.372378	-9.705358	3.350729	-0.074923	-0.734762	0.674175
1.953837	-9.236608	3.351118	0.341660	-0.734762	0.585998
-1.953837	-9.236608	3.351118	-0.341660	-0.734762	0.585998
1.284743	-9.504464	3.351134	0.242820	-0.734762	0.633375
-1.284743	-9.504464	3.351134	-0.242820	-0.734762	0.633375
1.350654	-9.482142	3.351199	0.253570	-0.734762	0.629148
-1.350654	-9.482142	3.351199	-0.253570	-0.734762	0.629148
0.546877	-9.683036	3.351207	0.109249	-0.734762	0.669470
-0.546877	-9.683036	3.351207	-0.109249	-0.734762	0.669470
1.804223	-9.303572	3.351830	0.321510	-0.734762	0.597291
-1.804223	-9.303572	3.351830	-0.321510	-0.734762	0.597291
1.589290	-9.392858	3.352193	0.290592	-0.734762	0.612928
-1.589290	-9.392858	3.352193	-0.290592	-0.734762	0.612928
1.060979	-9.571428	3.352550	0.204665	-0.734762	0.646713
-1.060979	-9.571428	3.352550	-0.204665	-0.734762	0.646713
0.784703	-9.638392	3.353303	0.154559	-0.734762	0.660482
-0.784703	-9.638392	3.353303	-0.154559	-0.734762	0.660482
1.696208	-9.348214	3.353663	0.306151	-0.734762	0.605307
-1.696208	-9.348214	3.353663	-0.306151	-0.734762	0.605307
0.343838	-9.705358	3.353778	0.069181	-0.734762	0.674788
-0.343838	-9.705358	3.353778	-0.069181	-0.734762	0.674788
0.665368	-9.660714	3.354360	0.131981	-0.734762	0.665362
-0.665368	-9.660714	3.354360	-0.131981	-0.734762	0.665362
1.994652	-9.214286	3.355146	0.346637	-0.734762	0.583068
-1.994652	-9.214286	3.355146	-0.346637	-0.734762	0.583068
0.968309	-9.593750	3.355322	0.188082	-0.734762	0.651729
-0.968309	-9.593750	3.355322	-0.188082	-0.734762	0.651729
0.876194	-9.616072	3.355563	0.171376	-0.734762	0.656319
-0.876194	-9.616072	3.355563	-0.171376	-0.734762	0.656319
0.518326	-9.683036	3.355742	0.103546	-0.734762	0.670375
-0.518326	-9.683036	3.355742	-0.103546	-0.734762	0.670375
0.315272	-9.705358	3.356583	0.063434	-0.734762	0.675353
-0.315272	-9.705358	3.356583	-0.063434	-0.734762	0.675353
1.521999	-9.415178	3.356746	0.280114	-0.734762	0.617787
-1.521999	-9.415178	3.356746	-0.280114	-0.734762	0.617787
1.125595	-9.549108	3.356923	0.215646	-0.734762	0.643134
-1.125595	-9.549108	3.356923	-0.215646	-0.734762	0.643134
1.844335	-9.281250	3.357540	0.326583	-0.734762	0.594532
-1.844335	-9.281250	3.357540	-0.326583	-0.734762	0.594532
2.035676	-9.191964	3.358720	0.351588	-0.734762	0.580095
-2.035676	-9.191964	3.358720	-0.351588	-0.734762	0.580095
0.286684	-9.705358	3.359146	0.057682	-0.734762	0.675868
-0.286684	-9.705358	3.359146	-0.057682	-0.734762	0.675868
0.756126	-9.638392	3.359862	0.148930	-0.734762	0.661774
-0.756126	-9.638392	3.359862	-0.148930	-0.734762	0.661774
0.636786	-9.660714	3.359903	0.126311	-0.734762	0.666461
-0.636786	-9.660714	3.359903	-0.126311	-0.734762	0.666461
1.455015	-9.437500	3.359987	0.269554	-0.734762	0.622467
-1.455015	-9.437500	3.359987	-0.269554	-0.734762	0.622467
0.489738	-9.683036	3.360033	0.097835	-0.734762	0.671233
-0.489738	-9.683036	3.360033	-0.097835	-0.734762	0.671233
1.190665	-9.526786	3.360062	0.226566	-0.734762	0.639369
-1.190665	-9.526786	3.360062	-0.226566	-0.734762	0.639369
1.628316	-9.370536	3.360299	0.295800	-0.734762	0.610432
-1.628316	-9.370536	3.360299	-0.295800	-0.734762	0.610432
1.735794	-9.325892	3.360582	0.311293	-0.734762	0.602679
-1.735794	-9.325892	3.360582	-0.311293	-0.734762	0.602679
1.032398	-9.571428	3.361462	0.199151	-0.734762	0.648432
-1.032398	-9.571428	3.361462	-0.199151	-0.734762	0.648432
0.258075	-9.705358	3.361465	0.051925	-0.734762	0.676335
-0.258075	-9.705358	3.361465	-0.051925	-0.734762	0.676335
2.076906	-9.169642	3.361836	0.356514	-0.734762	0.577081
-2.076906	-9.169642	3.361836	-0.356514	-0.734762	0.577081
1.388366	-9.459822	3.361926	0.258917	-0.734762	0.626967
-1.388366	-9.459822	3.361926	-0.258917	-0.734762	0.626967
1.256166	-9.504464	3.361950	0.237419	-0.734762	0.635419
-1.256166	-9.504464	3.361950	-0.237419	-0.734762	0.635419
1.322074	-9.482142	3.362576	0.248204	-0.734762	0.631284
-1.322074	-9.482142	3.362576	-0.248204	-0.734762	0.631284
1.884674	-9.258928	3.362808	0.331633	-0.734762	0.591730
-1.884674	-9.258928	3.362808	-0.331633	-0.734762	0.591730
0.847594	-9.616072	3.362901	0.165782	-0.734762	0.657755
-0.847594	-9.616072	3.362901	-0.165782	-0.734762	0.657755
0.939708	-9.593750	3.363445	0.182526	-0.734762	0.653306
-0.939708	-9.593750	3.363445	-0.182526	-0.734762	0.653306
0.229447	-9.705358	3.363540	0.046165	-0.734762	0.676752
-0.229447	-9.705358	3.363540	-0.046165	-0.734762	0.676752
0.461113	-9.683036	3.364080	0.092117	-0.734762	0.672041
-0.461113	-9.683036	3.364080	-0.092117	-0.734762	0.672041
2.118335	-9.147322	3.364493	0.361415	-0.734762	0.574025
-2.118335	-9.147322	3.364493	-0.361415	-0.734762	0.574025
0.608158	-9.660714	3.365203	0.120633	-0.734762	0.667512
-0.608158	-9.660714	3.365203	-0.120633	-0.734762	0.667512
0.200803	-9.705358	3.365372	0.040402	-0.734762	0.677121
-0.200803	-9.705358	3.365372	-0.040402	-0.734762	0.677121
1.560693	-9.392858	3.365602	0.285363	-0.734762	0.615380
-1.560693	-9.392858	3.365602	-0.285363	-0.734762	0.615380
0.727493	-9.638392	3.366178	0.143290	-0.734762	0.663018
-0.727493	-9.638392	3.366178	-0.143290	-0.734762	0.663018
1.096974	-9.549108	3.366385	0.210163	-0.734762	0.644947
-1.096974	-9.549108	3.366385	-0.210163	-0.734762	0.644947
2.159958	-9.125000	3.366687	0.366289	-0.734762	0.570927
-2.159958	-9.125000	3.366687	-0.366289	-0.734762	0.570927
0.172144	-9.705358	3.366959	0.034636	-0.734762	0.677440
-0.172144	-9.705358	3.366959	-0.034636	-0.734762	0.677440
1.775621	-9.303572	3.367069	0.316413	-0.734762	0.600007
-1.775621	-9.303572	3.367069	-0.316413	-0.734762	0.600007
1.925235	-9.236608	3.367631	0.336659	-0.734762	0.588885
-1.925235	-9.236608	3.367631	-0.336659	-0.734762	0.588885
0.432456	-9.683036	3.367884	0.086392	-0.734762	0.672801
-0.432456	-9.683036	3.367884	-0.086392	-0.734762	0.672801
1.667594	-9.348214	3.367982	0.300986	-0.734762	0.607892
-1.667594	-9.348214	3.367982	-0.300986	-0.734762	0.607892
0.143472	-9.705358	3.368303	0.028867	-0.734762	0.677711
-0.143472	-9.705358	3.368303	-0.028867	-0.734762	0.677711
0.114790	-9.705358	3.369402	0.023096	-0.734762	0.677932
-0.114790	-9.705358	3.369402	-0.023096	-0.734762	0.677932
1.493365	-9.415178	3.369583	0.274844	-0.734762	0.620150
-1.493365	-9.415178	3.369583	-0.274844	-0.734762	0.620150
0.818933	-9.616072	3.369995	0.160176	-0.734762	0.659142
-0.818933	-9.616072	3.369995	-0.160176	-0.734762	0.659142
1.162015	-9.526786	3.370077	0.221114	-0.734762	0.641275
-1.162015	-9.526786	3.370077	-0.221114	-0.734762	0.641275
1.003742	-9.571428	3.370129	0.193624	-0.734762	0.650104
-1.003742	-9.571428	3.370129	-0.193624	-0.734762	0.650104
0.086100	-9.705358	3.370258	0.017323	-0.734762	0.678104
-0.086100	-9.705358	3.370258	-0.017323	-0.734762	0.678104
0.579486	-9.660714	3.370259	0.114945	-0.734762	0.668515
-0.579486	-9.660714	3.370259	-0.114945	-0.734762	0.668515
0.057403	-9.705358	3.370868	0.011550	-0.734762	0.678227
-0.057403	-9.705358	3.370868	-0.011550	-0.734762	0.678227
0.028703	-9.705358	3.371235	0.005775	-0.734762	0.678301
-0.028703	-9.705358	3.371235	-0.005775	-0.734762	0.678301
0.911039	-9.593750	3.371323	0.176958	-0.734762	0.654837
-0.911039	-9.593750	3.371323	-0.176958	-0.734762	0.654837
0.000000	-9.705358	3.371357	0.000000	-0.734762	0.678325
0.403767	-9.683036	3.371444	0.080660	-0.734762	0.673512
-0.403767	-9.683036	3.371444	-0.080660	-0.734762	0.673512
1.966015	-9.214286	3.372006	0.341660	-0.734762	0.585998
-1.966015	-9.214286	3.372006	-0.341660	-0.734762	0.585998
0.698808	-9.638392	3.372249	0.137641	-0.734762	0.664214
-0.698808	-9.638392	3.372249	-0.137641	-0.734762	0.664214
1.426357	-9.437500	3.372253	0.264245	-0.734762	0.624740
-1.426357	-9.437500	3.372253	-0.264245	-0.734762	0.624740
1.227498	-9.504464	3.372523	0.232001	-0.734762	0.637417
-1.227498	-9.504464	3.372523	-0.232001	-0.734762	0.637417
1.815683	-9.281250	3.373121	0.321510	-0.734762	0.597291
-1.815683	-9.281250	3.373121	-0.321510	-0.734762	0.597291
1.359693	-9.459822	3.373625	0.253570	-0.734762	0.629148
-1.359693	-9.459822	3.373625	-0.253570	-0.734762	0.629148
1.293399	-9.482142	3.373710	0.242820	-0.734762	0.633375
-1.293399	-9.482142	3.373710	-0.242820	-0.734762	0.633375
1.599649	-9.370536	3.374040	0.290592	-0.734762	0.612928
-1.599649	-9.370536	3.374040	-0.290592	-0.734762	0.612928
0.375049	-9.683036	3.374759	0.074923	-0.734762	0.674175
-0.375049	-9.683036	3.374759	-0.074923	-0.734762	0.674175
0.550771	-9.660714	3.375070	0.109249	-0.734762	0.669470
-0.550771	-9.660714	3.375070	-0.109249	-0.734762	0.669470
1.707120	-9.325892	3.375239	0.306151	-0.734762	0.605307
-1.707120	-9.325892	3.375239	-0.306151	-0.734762	0.605307
1.068274	-9.549108	3.375602	0.204665	-0.734762	0.646713
-1.068274	-9.549108	3.375602	-0.204665	-0.734762	0.646713
2.007008	-9.191964	3.375929	0.346637	-0.734762	0.583068
-2.007008	-9.191964	3.375929	-0.346637	-0.734762	0.583068
0.790212	-9.616072	3.376845	0.154559	-0.734762	0.660482
-0.790212	-9.616072	3.376845	-0.154559	-0.734762	0.660482
0.346304	-9.683036	3.377830	0.069181	-0.734762	0.674788
-0.346304	-9.683036	3.377830	-0.069181	-0.734762	0.674788
0.670073	-9.638392	3.378077	0.131981	-0.734762	0.665362
-0.670073	-9.638392	3.378077	-0.131981	-0.734762	0.665362
0.975013	-9.571428	3.378553	0.188082	-0.734762	0.651729
-0.975013	-9.571428	3.378553	-0.188082	-0.734762	0.651729
1.855976	-9.258928	3.378732	0.326583	-0.734762	0.594532
-1.855976	-9.258928	3.378732	-0.326583	-0.734762	0.594532
1.531983	-9.392858	3.378767	0.280114	-0.734762	0.617787
-1.531983	-9.392858	3.378767	-0.280114	-0.734762	0.617787
0.882303	-9.593750	3.378957	0.171376	-0.734762	0.656319
-0.882303	-9.593750	3.378957	-0.171376	-0.734762	0.656319
2.048209	-9.169642	3.379397	0.351588	-0.734762	0.580095
-2.048209	-9.169642	3.379397	-0.351588	-0.734762	0.580095
0.522017	-9.660714	3.379637	0.103546	-0.734762	0.670375
-0.522017	-9.660714	3.379637	-0.103546	-0.734762	0.670375
1.133281	-9.526786	3.379848	0.215646	-0.734762	0.643134
-1.133281	-9.526786	3.379848	-0.215646	-0.734762	0.643134
0.317533	-9.683036	3.380656	0.063434	-0.734762	0.675353
-0.317533	-9.683036	3.380656	-0.063434	-0.734762	0.675353
1.638860	-9.348214	3.382057	0.295800	-0.734762	0.610432
-1.638860	-9.348214	3.382057	-0.295800	-0.734762	0.610432
1.746890	-9.303572	3.382065	0.311293	-0.734762	0.602679
-1.746890	-9.303572	3.382065	-0.311293	-0.734762	0.602679
1.464623	-9.415178	3.382174	0.269554	-0.734762	0.622467
-1.464623	-9.415178	3.382174	-0.269554	-0.734762	0.622467
2.089613	-9.147322	3.382406	0.356514	-0.734762	0.577081
-2.089613	-9.147322	3.382406	-0.356514	-0.734762	0.577081
1.198741	-9.504464	3.382852	0.226566	-0.734762	0.639369
-1.198741	-9.504464	3.382852	-0.226566	-0.734762	0.639369
0.288740	-9.683036	3.383237	0.057682	-0.734762	0.675868
-0.288740	-9.683036	3.383237	-0.057682	-0.734762	0.675868
0.761434	-9.616072	3.383451	0.148930	-0.734762	0.661774
-0.761434	-9.616072	3.383451	-0.148930	-0.734762	0.661774
0.641289	-9.638392	3.383659	0.126311	-0.734762	0.666461
-0.641289	-9.638392	3.383659	-0.126311	-0.734762	0.666461
1.896495	-9.236608	3.383900	0.331633	-0.734762	0.591730
-1.896495	-9.236608	3.383900	-0.331633	-0.734762	0.591730
0.493225	-9.660714	3.383959	0.097835	-0.734762	0.671233
-0.493225	-9.660714	3.383959	-0.097835	-0.734762	0.671233
1.397595	-9.437500	3.384274	0.258917	-0.734762	0.626967
-1.397595	-9.437500	3.384274	-0.258917	-0.734762	0.626967
1.039497	-9.549108	3.384575	0.199151	-0.734762	0.648432
-1.039497	-9.549108	3.384575	-0.199151	-0.734762	0.648432
1.264629	-9.482142	3.384600	0.237419	-0.734762	0.635419
-1.264629	-9.482142	3.384600	-0.237419	-0.734762	0.635419
2.131217	-9.125000	3.384954	0.361415	-0.734762	0.574025
-2.131217	-9.125000	3.384954	-0.361415	-0.734762	0.574025
1.330922	-9.459822	3.385078	0.248204	-0.734762	0.631284
-1.330922	-9.459822	3.385078	-0.248204	-0.734762	0.631284
0.259926	-9.683036	3.385572	0.051925	-0.734762	0.676335
-0.259926	-9.683036	3.385572	-0.051925	-0.734762	0.676335
0.853504	-9.593750	3.386346	0.165782	-0.734762	0.657755
-0.853504	-9.593750	3.386346	-0.165782	-0.734762	0.657755
0.946214	-9.571428	3.386731	0.182526	-0.734762	0.653306
-0.946214	-9.571428	3.386731	-0.182526	-0.734762	0.653306
1.570865	-9.370536	3.387537	0.285363	-0.734762	0.615380
-1.570865	-9.370536	3.387537	-0.285363	-0.734762	0.615380
0.231093	-9.683036	3.387663	0.046165	-0.734762	0.676752
-0.231093	-9.683036	3.387663	-0.046165	-0.734762	0.676752
0.464397	-9.660714	3.388035	0.092117	-0.734762	0.672041
-0.464397	-9.660714	3.388035	-0.092117	-0.734762	0.672041
1.786899	-9.281250	3.388456	0.316413	-0.734762	0.600007
-1.786899	-9.281250	3.388456	-0.316413	-0.734762	0.600007
1.937235	-9.214286	3.388622	0.336659	-0.734762	0.588885
-1.937235	-9.214286	3.388622	-0.336659	-0.734762	0.588885
0.612458	-9.638392	3.388996	0.120633	-0.734762	0.667512
-0.612458	-9.638392	3.388996	-0.120633	-0.734762	0.667512
1.104465	-9.526786	3.389374	0.210163	-0.734762	0.644947
-1.104465	-9.526786	3.389374	-0.210163	-0.734762	0.644947
0.202243	-9.683036	3.389508	0.040402	-0.734762	0.677121
-0.202243	-9.683036	3.389508	-0.040402	-0.734762	0.677121
1.678323	-9.325892	3.389650	0.300986	-0.734762	0.607892
-1.678323	-9.325892	3.389650	-0.300986	-0.734762	0.607892
0.732601	-9.616072	3.389811	0.143290	-0.734762	0.663018
-0.732601	-9.616072	3.389811	-0.143290	-0.734762	0.663018
0.173378	-9.683036	3.391106	0.034636	-0.734762	0.677440
-0.173378	-9.683036	3.391106	-0.034636	-0.734762	0.677440
1.503162	-9.392858	3.391688	0.274844	-0.734762	0.620150
-1.503162	-9.392858	3.391688	-0.274844	-0.734762	0.620150
0.435535	-9.660714	3.391866	0.086392	-0.734762	0.672801
-0.435535	-9.660714	3.391866	-0.086392	-0.734762	0.672801
0.144501	-9.683036	3.392460	0.028867	-0.734762	0.677711
-0.144501	-9.683036	3.392460	-0.028867	-0.734762	0.677711
1.978193	-9.191964	3.392894	0.341660	-0.734762	0.585998
-1.978193	-9.191964	3.392894	-0.341660	-0.734762	0.585998
1.169897	-9.504464	3.392935	0.221114	-0.734762	0.641275
-1.169897	-9.504464	3.392935	-0.221114	-0.734762	0.641275
1.010644	-9.549108	3.393302	0.193624	-0.734762	0.650104
-1.010644	-9.549108	3.393302	-0.193624	-0.734762	0.650104
0.824642	-9.593750	3.393490	0.160176	-0.734762	0.659142
-0.824642	-9.593750	3.393490	-0.160176	-0.734762	0.659142
0.115613	-9.683036	3.393567	0.023096	-0.734762	0.677932
-0.115613	-9.683036	3.393567	-0.023096	-0.734762	0.677932
0.583583	-9.638392	3.394087	0.114945	-0.734762	0.668515
-0.583583	-9.638392	3.394087	-0.114945	-0.734762	0.668515
1.827143	-9.258928	3.394411	0.321510	-0.734762	0.597291
-1.827143	-9.258928	3.394411	-0.321510	-0.734762	0.597291
0.086717	-9.683036	3.394428	0.017323	-0.734762	0.678104
-0.086717	-9.683036	3.394428	-0.017323	-0.734762	0.678104
1.435776	-9.415178	3.394521	0.264245	-0.734762	0.624740
-1.435776	-9.415178	3.394521	-0.264245	-0.734762	0.624740
0.917346	-9.571428	3.394664	0.176958	-0.734762	0.654837
-0.917346	-9.571428	3.394664	-0.176958	-0.734762	0.654837
0.057815	-9.683036	3.395043	0.011550	-0.734762	0.678227
-0.057815	-9.683036	3.395043	-0.011550	-0.734762	0.678227
1.235768	-9.482142	3.395244	0.232001	-0.734762	0.637417
-1.235768	-9.482142	3.395244	-0.232001	-0.734762	0.637417
0.028909	-9.683036	3.395413	0.005775	-0.734762	0.678301
-0.028909	-9.683036	3.395413	-0.005775	-0.734762	0.678301
0.406642	-9.660714	3.395451	0.080660	-0.734762	0.673512
-0.406642	-9.660714	3.395451	-0.080660	-0.734762	0.673512
0.000000	-9.683036	3.395536	0.000000	-0.734762	0.678325
1.610007	-9.348214	3.395888	0.290592	-0.734762	0.612928
-1.610007	-9.348214	3.395888	-0.290592	-0.734762	0.612928
0.703714	-9.616072	3.395925	0.137641	-0.734762	0.664214
-0.703714	-9.616072	3.395925	-0.137641	-0.734762	0.664214
1.368731	-9.437500	3.396050	0.253570	-0.734762	0.629148
