-1.716285	-15.776786	3.124430	-0.326583	-0.734762	0.594532
1.198191	-15.977678	3.125371	0.242820	-0.734762	0.633375
-1.198191	-15.977678	3.125371	-0.242820	-0.734762	0.633375
2.043024	-15.620536	3.125552	0.371136	-0.734762	0.567788
-2.043024	-15.620536	3.125552	-0.371136	-0.734762	0.567788
1.385602	-15.910714	3.126428	0.274844	-0.734762	0.620150
-1.385602	-15.910714	3.126428	-0.274844	-0.734762	0.620150
1.858739	-15.709822	3.126531	0.346637	-0.734762	0.583068
-1.858739	-15.709822	3.126531	-0.346637	-0.734762	0.583068
1.260271	-15.955358	3.126942	0.253570	-0.734762	0.629148
-1.260271	-15.955358	3.126942	-0.253570	-0.734762	0.629148
1.322749	-15.933036	3.127299	0.264245	-0.734762	0.624740
-1.322749	-15.933036	3.127299	-0.264245	-0.734762	0.624740
2.082961	-15.598214	3.128170	0.375956	-0.734762	0.564608
-2.082961	-15.598214	3.128170	-0.375956	-0.734762	0.564608
2.492057	-15.375000	3.128842	0.422606	-0.734762	0.530593
-2.492057	-15.375000	3.128842	-0.422606	-0.734762	0.530593
1.549581	-15.843750	3.129634	0.300986	-0.734762	0.607892
-1.549581	-15.843750	3.129634	-0.300986	-0.734762	0.607892
2.123090	-15.575892	3.130333	0.380750	-0.734762	0.561386
-2.123090	-15.575892	3.130333	-0.380750	-0.734762	0.561386
1.754644	-15.754464	3.130797	0.331633	-0.734762	0.591730
-1.754644	-15.754464	3.130797	-0.331633	-0.734762	0.591730
2.450427	-15.397322	3.130905	0.418074	-0.734762	0.534172
-2.450427	-15.397322	3.130905	-0.418074	-0.734762	0.534172
1.897822	-15.687500	3.131270	0.351588	-0.734762	0.580095
-1.897822	-15.687500	3.131270	-0.351588	-0.734762	0.580095
1.651559	-15.799108	3.131813	0.316413	-0.734762	0.600007
-1.651559	-15.799108	3.131813	-0.316413	-0.734762	0.600007
2.163405	-15.553572	3.132039	0.385515	-0.734762	0.558124
-2.163405	-15.553572	3.132039	-0.385515	-0.734762	0.558124
1.109907	-16.000000	3.132162	0.226566	-0.734762	0.639369
-1.109907	-16.000000	3.132162	-0.226566	-0.734762	0.639369
2.408943	-15.419642	3.132487	0.413511	-0.734762	0.537712
-2.408943	-15.419642	3.132487	-0.413511	-0.734762	0.537712
2.203902	-15.531250	3.133283	0.390253	-0.734762	0.554822
-2.203902	-15.531250	3.133283	-0.390253	-0.734762	0.554822
2.367611	-15.441964	3.133591	0.408918	-0.734762	0.541213
-2.367611	-15.441964	3.133591	-0.408918	-0.734762	0.541213
1.485710	-15.866072	3.133717	0.290592	-0.734762	0.612928
-1.485710	-15.866072	3.133717	-0.290592	-0.734762	0.612928
2.244576	-15.508928	3.134063	0.394963	-0.734762	0.551479
-2.244576	-15.508928	3.134063	-0.394963	-0.734762	0.551479
2.326436	-15.464286	3.134220	0.404295	-0.734762	0.544675
-2.326436	-15.464286	3.134220	-0.404295	-0.734762	0.544675
2.285422	-15.486608	3.134377	0.399643	-0.734762	0.548097
-2.285422	-15.486608	3.134377	-0.399643	-0.734762	0.548097
1.171539	-15.977678	3.135458	0.237419	-0.734762	0.635419
-1.171539	-15.977678	3.135458	-0.237419	-0.734762	0.635419
1.937120	-15.665178	3.135569	0.356514	-0.734762	0.577081
-1.937120	-15.665178	3.135569	-0.356514	-0.734762	0.577081
1.422153	-15.888392	3.136539	0.280114	-0.734762	0.617787
-1.422153	-15.888392	3.136539	-0.280114	-0.734762	0.617787
1.793235	-15.732142	3.136735	0.336659	-0.734762	0.588885
-1.793235	-15.732142	3.136735	-0.336659	-0.734762	0.588885
1.233603	-15.955358	3.137558	0.248204	-0.734762	0.631284
-1.233603	-15.955358	3.137558	-0.248204	-0.734762	0.631284
1.587082	-15.821428	3.137904	0.306151	-0.734762	0.605307
-1.587082	-15.821428	3.137904	-0.306151	-0.734762	0.605307
1.358934	-15.910714	3.138112	0.269554	-0.734762	0.622467
-1.358934	-15.910714	3.138112	-0.269554	-0.734762	0.622467
1.296076	-15.933036	3.138447	0.258917	-0.734762	0.626967
-1.296076	-15.933036	3.138447	-0.258917	-0.734762	0.626967
1.689622	-15.776786	3.138929	0.321510	-0.734762	0.597291
-1.689622	-15.776786	3.138929	-0.321510	-0.734762	0.597291
1.976628	-15.642858	3.139424	0.361415	-0.734762	0.574025
-1.976628	-15.642858	3.139424	-0.361415	-0.734762	0.574025
1.083200	-16.000000	3.141497	0.221114	-0.734762	0.641275
-1.083200	-16.000000	3.141497	-0.221114	-0.734762	0.641275
1.832054	-15.709822	3.142242	0.341660	-0.734762	0.585998
-1.832054	-15.709822	3.142242	-0.341660	-0.734762	0.585998
1.522880	-15.843750	3.142713	0.295800	-0.734762	0.610432
-1.522880	-15.843750	3.142713	-0.295800	-0.734762	0.610432
2.016340	-15.620536	3.142832	0.366289	-0.734762	0.570927
-2.016340	-15.620536	3.142832	-0.366289	-0.734762	0.570927
1.144802	-15.977678	3.145319	0.232001	-0.734762	0.637417
-1.144802	-15.977678	3.145319	-0.232001	-0.734762	0.637417
1.727926	-15.754464	3.145622	0.326583	-0.734762	0.594532
-1.727926	-15.754464	3.145622	-0.326583	-0.734762	0.594532
1.624835	-15.799108	3.145761	0.311293	-0.734762	0.602679
-1.624835	-15.799108	3.145761	-0.311293	-0.734762	0.602679
2.056253	-15.598214	3.145790	0.371136	-0.734762	0.567788
-2.056253	-15.598214	3.145790	-0.371136	-0.734762	0.567788
1.458977	-15.866072	3.146253	0.285363	-0.734762	0.615380
-1.458977	-15.866072	3.146253	-0.285363	-0.734762	0.615380
1.871095	-15.687500	3.147314	0.346637	-0.734762	0.583068
-1.871095	-15.687500	3.147314	-0.346637	-0.734762	0.583068
1.206846	-15.955358	3.147947	0.242820	-0.734762	0.633375
-1.206846	-15.955358	3.147947	-0.242820	-0.734762	0.633375
2.096362	-15.575892	3.148295	0.375956	-0.734762	0.564608
-2.096362	-15.575892	3.148295	-0.375956	-0.734762	0.564608
1.395398	-15.888392	3.148533	0.274844	-0.734762	0.620150
-1.395398	-15.888392	3.148533	-0.274844	-0.734762	0.620150
1.269309	-15.933036	3.149368	0.253570	-0.734762	0.629148
-1.269309	-15.933036	3.149368	-0.253570	-0.734762	0.629148
1.332168	-15.910714	3.149567	0.264245	-0.734762	0.624740
-1.332168	-15.910714	3.149567	-0.264245	-0.734762	0.624740
2.465329	-15.375000	3.149945	0.418074	-0.734762	0.534172
-2.465329	-15.375000	3.149945	-0.418074	-0.734762	0.534172
2.136661	-15.553572	3.150344	0.380750	-0.734762	0.561386
-2.136661	-15.553572	3.150344	-0.380750	-0.734762	0.561386
1.056415	-16.000000	3.150606	0.215646	-0.734762	0.643134
-1.056415	-16.000000	3.150606	-0.215646	-0.734762	0.643134
1.560309	-15.821428	3.151302	0.300986	-0.734762	0.607892
-1.560309	-15.821428	3.151302	-0.300986	-0.734762	0.607892
2.423682	-15.397322	3.151654	0.413511	-0.734762	0.537712
-2.423682	-15.397322	3.151654	-0.413511	-0.734762	0.537712
1.766465	-15.732142	3.151889	0.331633	-0.734762	0.591730
-1.766465	-15.732142	3.151889	-0.331633	-0.734762	0.591730
2.177146	-15.531250	3.151933	0.385515	-0.734762	0.558124
-2.177146	-15.531250	3.151933	-0.385515	-0.734762	0.558124
1.910355	-15.665178	3.151947	0.351588	-0.734762	0.580095
-1.910355	-15.665178	3.151947	-0.351588	-0.734762	0.580095
2.382186	-15.419642	3.152883	0.408918	-0.734762	0.541213
-2.382186	-15.419642	3.152883	-0.408918	-0.734762	0.541213
2.217812	-15.508928	3.153059	0.390253	-0.734762	0.554822
-2.217812	-15.508928	3.153059	-0.390253	-0.734762	0.554822
1.662837	-15.776786	3.153200	0.316413	-0.734762	0.600007
-1.662837	-15.776786	3.153200	-0.316413	-0.734762	0.600007
2.340847	-15.441964	3.153635	0.404295	-0.734762	0.544675
-2.340847	-15.441964	3.153635	-0.404295	-0.734762	0.544675
2.258654	-15.486608	3.153720	0.394963	-0.734762	0.551479
-2.258654	-15.486608	3.153720	-0.394963	-0.734762	0.551479
2.299667	-15.464286	3.153913	0.399643	-0.734762	0.548097
-2.299667	-15.464286	3.153913	-0.399643	-0.734762	0.548097
1.117983	-15.977678	3.154952	0.226566	-0.734762	0.639369
-1.117983	-15.977678	3.154952	-0.226566	-0.734762	0.639369
1.496068	-15.843750	3.155565	0.290592	-0.734762	0.612928
-1.496068	-15.843750	3.155565	-0.290592	-0.734762	0.612928
1.949828	-15.642858	3.156139	0.356514	-0.734762	0.577081
-1.949828	-15.642858	3.156139	-0.356514	-0.734762	0.577081
1.805235	-15.709822	3.157726	0.336659	-0.734762	0.588885
-1.805235	-15.709822	3.157726	-0.336659	-0.734762	0.588885
1.180002	-15.955358	3.158108	0.237419	-0.734762	0.635419
-1.180002	-15.955358	3.158108	-0.237419	-0.734762	0.635419
1.432138	-15.866072	3.158560	0.280114	-0.734762	0.617787
-1.432138	-15.866072	3.158560	-0.280114	-0.734762	0.617787
1.597994	-15.799108	3.159480	0.306151	-0.734762	0.605307
-1.597994	-15.799108	3.159480	-0.306151	-0.734762	0.605307
1.029554	-16.000000	3.159485	0.210163	-0.734762	0.644947
-1.029554	-16.000000	3.159485	-0.210163	-0.734762	0.644947
1.989510	-15.620536	3.159885	0.361415	-0.734762	0.574025
-1.989510	-15.620536	3.159885	-0.361415	-0.734762	0.574025
1.242450	-15.933036	3.160060	0.248204	-0.734762	0.631284
-1.242450	-15.933036	3.160060	-0.248204	-0.734762	0.631284
1.701082	-15.754464	3.160219	0.321510	-0.734762	0.597291
-1.701082	-15.754464	3.160219	-0.321510	-0.734762	0.597291
1.368542	-15.888392	3.160299	0.269554	-0.734762	0.622467
-1.368542	-15.888392	3.160299	-0.269554	-0.734762	0.622467
1.305305	-15.910714	3.160795	0.258917	-0.734762	0.626967
-1.305305	-15.910714	3.160795	-0.258917	-0.734762	0.626967
1.844232	-15.687500	3.163130	0.341660	-0.734762	0.585998
-1.844232	-15.687500	3.163130	-0.341660	-0.734762	0.585998
2.029396	-15.598214	3.163183	0.366289	-0.734762	0.570927
-2.029396	-15.598214	3.163183	-0.366289	-0.734762	0.570927
1.091082	-15.977678	3.164355	0.221114	-0.734762	0.641275
-1.091082	-15.977678	3.164355	-0.221114	-0.734762	0.641275
1.533423	-15.821428	3.164472	0.295800	-0.734762	0.610432
-1.533423	-15.821428	3.164472	-0.295800	-0.734762	0.610432
2.069482	-15.575892	3.166029	0.371136	-0.734762	0.567788
-2.069482	-15.575892	3.166029	-0.371136	-0.734762	0.567788
1.739566	-15.732142	3.166814	0.326583	-0.734762	0.594532
-1.739566	-15.732142	3.166814	-0.326583	-0.734762	0.594532
1.635931	-15.776786	3.167243	0.311293	-0.734762	0.602679
-1.635931	-15.776786	3.167243	-0.311293	-0.734762	0.602679
1.153072	-15.955358	3.168039	0.232001	-0.734762	0.637417
-1.153072	-15.955358	3.168039	-0.232001	-0.734762	0.637417
1.883451	-15.665178	3.168097	0.346637	-0.734762	0.583068
-1.883451	-15.665178	3.168097	-0.346637	-0.734762	0.583068
1.002618	-16.000000	3.168136	0.204665	-0.734762	0.646713
-1.002618	-16.000000	3.168136	-0.204665	-0.734762	0.646713
1.469149	-15.843750	3.168188	0.285363	-0.734762	0.615380
-1.469149	-15.843750	3.168188	-0.285363	-0.734762	0.615380
2.109763	-15.553572	3.168420	0.375956	-0.734762	0.564608
-2.109763	-15.553572	3.168420	-0.375956	-0.734762	0.564608
2.150233	-15.531250	3.170354	0.380750	-0.734762	0.561386
-2.150233	-15.531250	3.170354	-0.380750	-0.734762	0.561386
1.215502	-15.933036	3.170523	0.242820	-0.734762	0.633375
-1.215502	-15.933036	3.170523	-0.242820	-0.734762	0.633375
1.405195	-15.866072	3.170638	0.274844	-0.734762	0.620150
-1.405195	-15.866072	3.170638	-0.274844	-0.734762	0.620150
2.438421	-15.375000	3.170820	0.413511	-0.734762	0.537712
-2.438421	-15.375000	3.170820	-0.413511	-0.734762	0.537712
1.278348	-15.910714	3.171793	0.253570	-0.734762	0.629148
-1.278348	-15.910714	3.171793	-0.253570	-0.734762	0.629148
2.190888	-15.508928	3.171827	0.385515	-0.734762	0.558124
-2.190888	-15.508928	3.171827	-0.385515	-0.734762	0.558124
1.341587	-15.888392	3.171836	0.264245	-0.734762	0.624740
-1.341587	-15.888392	3.171836	-0.264245	-0.734762	0.624740
2.396762	-15.397322	3.172174	0.408918	-0.734762	0.541213
-2.396762	-15.397322	3.172174	-0.408918	-0.734762	0.541213
1.922887	-15.642858	3.172625	0.351588	-0.734762	0.580095
-1.922887	-15.642858	3.172625	-0.351588	-0.734762	0.580095
2.231723	-15.486608	3.172836	0.390253	-0.734762	0.554822
-2.231723	-15.486608	3.172836	-0.390253	-0.734762	0.554822
1.571038	-15.799108	3.172970	0.300986	-0.734762	0.607892
-1.571038	-15.799108	3.172970	-0.300986	-0.734762	0.607892
1.778286	-15.709822	3.172981	0.331633	-0.734762	0.591730
-1.778286	-15.709822	3.172981	-0.331633	-0.734762	0.591730
2.355258	-15.419642	3.173050	0.404295	-0.734762	0.544675
-2.355258	-15.419642	3.173050	-0.404295	-0.734762	0.544675
2.272733	-15.464286	3.173378	0.394963	-0.734762	0.551479
-2.272733	-15.464286	3.173378	-0.394963	-0.734762	0.551479
2.313913	-15.441964	3.173450	0.399643	-0.734762	0.548097
-2.313913	-15.441964	3.173450	-0.399643	-0.734762	0.548097
1.064102	-15.977678	3.173530	0.215646	-0.734762	0.643134
-1.064102	-15.977678	3.173530	-0.215646	-0.734762	0.643134
1.674115	-15.754464	3.174587	0.316413	-0.734762	0.600007
-1.674115	-15.754464	3.174587	-0.316413	-0.734762	0.600007
0.975609	-16.000000	3.176557	0.199151	-0.734762	0.648432
-0.975609	-16.000000	3.176557	-0.199151	-0.734762	0.648432
1.962536	-15.620536	3.176708	0.356514	-0.734762	0.577081
-1.962536	-15.620536	3.176708	-0.356514	-0.734762	0.577081
1.506426	-15.821428	3.177412	0.290592	-0.734762	0.612928
-1.506426	-15.821428	3.177412	-0.290592	-0.734762	0.612928
1.126059	-15.955358	3.177742	0.226566	-0.734762	0.639369
-1.126059	-15.955358	3.177742	-0.226566	-0.734762	0.639369
1.817235	-15.687500	3.178717	0.336659	-0.734762	0.588885
-1.817235	-15.687500	3.178717	-0.336659	-0.734762	0.588885
2.002393	-15.598214	3.180346	0.361415	-0.734762	0.574025
-2.002393	-15.598214	3.180346	-0.361415	-0.734762	0.574025
1.442122	-15.843750	3.180581	0.280114	-0.734762	0.617787
-1.442122	-15.843750	3.180581	-0.280114	-0.734762	0.617787
1.188465	-15.933036	3.180757	0.237419	-0.734762	0.635419
-1.188465	-15.933036	3.180757	-0.237419	-0.734762	0.635419
1.608907	-15.776786	3.181056	0.306151	-0.734762	0.605307
-1.608907	-15.776786	3.181056	-0.306151	-0.734762	0.605307
1.712542	-15.732142	3.181509	0.321510	-0.734762	0.597291
-1.712542	-15.732142	3.181509	-0.321510	-0.734762	0.597291
1.037045	-15.977678	3.182474	0.210163	-0.734762	0.644947
-1.037045	-15.977678	3.182474	-0.210163	-0.734762	0.644947
1.378150	-15.866072	3.182487	0.269554	-0.734762	0.622467
-1.378150	-15.866072	3.182487	-0.269554	-0.734762	0.622467
1.251298	-15.910714	3.182562	0.248204	-0.734762	0.631284
-1.251298	-15.910714	3.182562	-0.248204	-0.734762	0.631284
1.314534	-15.888392	3.183143	0.258917	-0.734762	0.626967
-1.314534	-15.888392	3.183143	-0.258917	-0.734762	0.626967
2.042453	-15.575892	3.183533	0.366289	-0.734762	0.570927
-2.042453	-15.575892	3.183533	-0.366289	-0.734762	0.570927
1.856410	-15.665178	3.184018	0.341660	-0.734762	0.585998
-1.856410	-15.665178	3.184018	-0.341660	-0.734762	0.585998
0.948529	-16.000000	3.184748	0.193624	-0.734762	0.650104
-0.948529	-16.000000	3.184748	-0.193624	-0.734762	0.650104
1.543967	-15.799108	3.186230	0.295800	-0.734762	0.610432
-1.543967	-15.799108	3.186230	-0.295800	-0.734762	0.610432
2.082711	-15.553572	3.186267	0.371136	-0.734762	0.567788
-2.082711	-15.553572	3.186267	-0.371136	-0.734762	0.567788
1.098963	-15.955358	3.187213	0.221114	-0.734762	0.641275
-1.098963	-15.955358	3.187213	-0.221114	-0.734762	0.641275
1.751207	-15.709822	3.188006	0.326583	-0.734762	0.594532
-1.751207	-15.709822	3.188006	-0.326583	-0.734762	0.594532
2.123163	-15.531250	3.188545	0.375956	-0.734762	0.564608
-2.123163	-15.531250	3.188545	-0.375956	-0.734762	0.564608
1.647027	-15.754464	3.188725	0.311293	-0.734762	0.602679
-1.647027	-15.754464	3.188725	-0.311293	-0.734762	0.602679
1.895806	-15.642858	3.188880	0.346637	-0.734762	0.583068
-1.895806	-15.642858	3.188880	-0.346637	-0.734762	0.583068
1.479320	-15.821428	3.190122	0.285363	-0.734762	0.615380
-1.479320	-15.821428	3.190122	-0.285363	-0.734762	0.615380
2.163804	-15.508928	3.190364	0.380750	-0.734762	0.561386
-2.163804	-15.508928	3.190364	-0.380750	-0.734762	0.561386
1.161342	-15.933036	3.190760	0.232001	-0.734762	0.637417
-1.161342	-15.933036	3.190760	-0.232001	-0.734762	0.637417
1.009913	-15.977678	3.191188	0.204665	-0.734762	0.646713
-1.009913	-15.977678	3.191188	-0.204665	-0.734762	0.646713
2.411338	-15.375000	3.191465	0.408918	-0.734762	0.541213
-2.411338	-15.375000	3.191465	-0.408918	-0.734762	0.541213
2.204629	-15.486608	3.191721	0.385515	-0.734762	0.558124
-2.204629	-15.486608	3.191721	-0.385515	-0.734762	0.558124
2.369668	-15.397322	3.192464	0.404295	-0.734762	0.544675
-2.369668	-15.397322	3.192464	-0.404295	-0.734762	0.544675
2.245633	-15.464286	3.192612	0.390253	-0.734762	0.554822
-2.245633	-15.464286	3.192612	-0.390253	-0.734762	0.554822
0.921381	-16.000000	3.192708	0.188082	-0.734762	0.651729
-0.921381	-16.000000	3.192708	-0.188082	-0.734762	0.651729
1.414992	-15.843750	3.192743	0.274844	-0.734762	0.620150
-1.414992	-15.843750	3.192743	-0.274844	-0.734762	0.620150
2.328158	-15.419642	3.192986	0.399643	-0.734762	0.548097
-2.328158	-15.419642	3.192986	-0.399643	-0.734762	0.548097
2.286811	-15.441964	3.193035	0.394963	-0.734762	0.551479
-2.286811	-15.441964	3.193035	-0.394963	-0.734762	0.551479
1.224157	-15.910714	3.193100	0.242820	-0.734762	0.633375
-1.224157	-15.910714	3.193100	-0.242820	-0.734762	0.633375
1.935419	-15.620536	3.193302	0.351588	-0.734762	0.580095
-1.935419	-15.620536	3.193302	-0.351588	-0.734762	0.580095
1.790107	-15.687500	3.194073	0.331633	-0.734762	0.591730
-1.790107	-15.687500	3.194073	-0.331633	-0.734762	0.591730
1.351005	-15.866072	3.194104	0.264245	-0.734762	0.624740
-1.351005	-15.866072	3.194104	-0.264245	-0.734762	0.624740
1.287386	-15.888392	3.194219	0.253570	-0.734762	0.629148
-1.287386	-15.888392	3.194219	-0.253570	-0.734762	0.629148
1.581766	-15.776786	3.194638	0.300986	-0.734762	0.607892
-1.581766	-15.776786	3.194638	-0.300986	-0.734762	0.607892
1.685394	-15.732142	3.195974	0.316413	-0.734762	0.600007
-1.685394	-15.732142	3.195974	-0.316413	-0.734762	0.600007
1.071789	-15.955358	3.196454	0.215646	-0.734762	0.643134
-1.071789	-15.955358	3.196454	-0.215646	-0.734762	0.643134
1.975243	-15.598214	3.197278	0.356514	-0.734762	0.577081
-1.975243	-15.598214	3.197278	-0.356514	-0.734762	0.577081
1.516784	-15.799108	3.199260	0.290592	-0.734762	0.612928
-1.516784	-15.799108	3.199260	-0.290592	-0.734762	0.612928
0.982707	-15.977678	3.199670	0.199151	-0.734762	0.648432
-0.982707	-15.977678	3.199670	-0.199151	-0.734762	0.648432
1.829235	-15.665178	3.199707	0.336659	-0.734762	0.588885
-1.829235	-15.665178	3.199707	-0.336659	-0.734762	0.588885
0.894166	-16.000000	3.200437	0.182526	-0.734762	0.653306
-0.894166	-16.000000	3.200437	-0.182526	-0.734762	0.653306
1.134134	-15.933036	3.200531	0.226566	-0.734762	0.639369
-1.134134	-15.933036	3.200531	-0.226566	-0.734762	0.639369
2.015275	-15.575892	3.200807	0.361415	-0.734762	0.574025
-2.015275	-15.575892	3.200807	-0.361415	-0.734762	0.574025
1.452107	-15.821428	3.202601	0.280114	-0.734762	0.617787
-1.452107	-15.821428	3.202601	-0.280114	-0.734762	0.617787
1.619820	-15.754464	3.202632	0.306151	-0.734762	0.605307
-1.619820	-15.754464	3.202632	-0.306151	-0.734762	0.605307
1.724002	-15.709822	3.202799	0.321510	-0.734762	0.597291
-1.724002	-15.709822	3.202799	-0.321510	-0.734762	0.597291
1.196927	-15.910714	3.203406	0.237419	-0.734762	0.635419
-1.196927	-15.910714	3.203406	-0.237419	-0.734762	0.635419
2.055509	-15.553572	3.203884	0.366289	-0.734762	0.570927
-2.055509	-15.553572	3.203884	-0.366289	-0.734762	0.570927
1.387758	-15.843750	3.204674	0.269554	-0.734762	0.622467
-1.387758	-15.843750	3.204674	-0.269554	-0.734762	0.622467
1.868588	-15.642858	3.204905	0.341660	-0.734762	0.585998
-1.868588	-15.642858	3.204905	-0.341660	-0.734762	0.585998
1.260145	-15.888392	3.205064	0.248204	-0.734762	0.631284
-1.260145	-15.888392	3.205064	-0.248204	-0.734762	0.631284
1.044536	-15.955358	3.205463	0.210163	-0.734762	0.644947
-1.044536	-15.955358	3.205463	-0.210163	-0.734762	0.644947
1.323763	-15.866072	3.205491	0.258917	-0.734762	0.626967
-1.323763	-15.866072	3.205491	-0.258917	-0.734762	0.626967
2.095940	-15.531250	3.206506	0.371136	-0.734762	0.567788
-2.095940	-15.531250	3.206506	-0.371136	-0.734762	0.567788
0.955431	-15.977678	3.207921	0.193624	-0.734762	0.650104
-0.955431	-15.977678	3.207921	-0.193624	-0.734762	0.650104
0.866886	-16.000000	3.207934	0.176958	-0.734762	0.654837
-0.866886	-16.000000	3.207934	-0.176958	-0.734762	0.654837
1.554511	-15.776786	3.207989	0.295800	-0.734762	0.610432
-1.554511	-15.776786	3.207989	-0.295800	-0.734762	0.610432
2.136564	-15.508928	3.208671	0.375956	-0.734762	0.564608
-2.136564	-15.508928	3.208671	-0.375956	-0.734762	0.564608
1.762848	-15.687500	3.209198	0.326583	-0.734762	0.594532
-1.762848	-15.687500	3.209198	-0.326583	-0.734762	0.594532
1.908162	-15.620536	3.209664	0.346637	-0.734762	0.583068
-1.908162	-15.620536	3.209664	-0.346637	-0.734762	0.583068
1.106845	-15.933036	3.210071	0.221114	-0.734762	0.641275
-1.106845	-15.933036	3.210071	-0.221114	-0.734762	0.641275
1.658123	-15.732142	3.210207	0.311293	-0.734762	0.602679
-1.658123	-15.732142	3.210207	-0.311293	-0.734762	0.602679
2.177376	-15.486608	3.210375	0.380750	-0.734762	0.561386
-2.177376	-15.486608	3.210375	-0.380750	-0.734762	0.561386
2.218371	-15.464286	3.211615	0.385515	-0.734762	0.558124
-2.218371	-15.464286	3.211615	-0.385515	-0.734762	0.558124
2.384079	-15.375000	3.211879	0.404295	-0.734762	0.544675
-2.384079	-15.375000	3.211879	-0.404295	-0.734762	0.544675
1.489492	-15.799108	3.212057	0.285363	-0.734762	0.615380
-1.489492	-15.799108	3.212057	-0.285363	-0.734762	0.615380
2.259543	-15.441964	3.212388	0.390253	-0.734762	0.554822
-2.259543	-15.441964	3.212388	-0.390253	-0.734762	0.554822
2.342403	-15.397322	3.212523	0.399643	-0.734762	0.548097
-2.342403	-15.397322	3.212523	-0.399643	-0.734762	0.548097
2.300889	-15.419642	3.212692	0.394963	-0.734762	0.551479
-2.300889	-15.419642	3.212692	-0.394963	-0.734762	0.551479
1.169611	-15.910714	3.213480	0.232001	-0.734762	0.637417
-1.169611	-15.910714	3.213480	-0.232001	-0.734762	0.637417
1.947951	-15.598214	3.213979	0.351588	-0.734762	0.580095
-1.947951	-15.598214	3.213979	-0.351588	-0.734762	0.580095
1.017208	-15.955358	3.214240	0.204665	-0.734762	0.646713
-1.017208	-15.955358	3.214240	-0.204665	-0.734762	0.646713
1.424788	-15.821428	3.214848	0.274844	-0.734762	0.620150
-1.424788	-15.821428	3.214848	-0.274844	-0.734762	0.620150
1.801927	-15.665178	3.215165	0.331633	-0.734762	0.591730
-1.801927	-15.665178	3.215165	-0.331633	-0.734762	0.591730
0.839543	-16.000000	3.215198	0.171376	-0.734762	0.656319
-0.839543	-16.000000	3.215198	-0.171376	-0.734762	0.656319
1.232812	-15.888392	3.215676	0.242820	-0.734762	0.633375
-1.232812	-15.888392	3.215676	-0.242820	-0.734762	0.633375
0.928085	-15.977678	3.215939	0.188082	-0.734762	0.651729
-0.928085	-15.977678	3.215939	-0.188082	-0.734762	0.651729
1.592495	-15.754464	3.216306	0.300986	-0.734762	0.607892
-1.592495	-15.754464	3.216306	-0.300986	-0.734762	0.607892
1.360424	-15.843750	3.216373	0.264245	-0.734762	0.624740
-1.360424	-15.843750	3.216373	-0.264245	-0.734762	0.624740
1.296424	-15.866072	3.216645	0.253570	-0.734762	0.629148
-1.296424	-15.866072	3.216645	-0.253570	-0.734762	0.629148
1.696672	-15.709822	3.217361	0.316413	-0.734762	0.600007
-1.696672	-15.709822	3.217361	-0.316413	-0.734762	0.600007
1.987951	-15.575892	3.217848	0.356514	-0.734762	0.577081
-1.987951	-15.575892	3.217848	-0.356514	-0.734762	0.577081
1.079475	-15.933036	3.219378	0.215646	-0.734762	0.643134
-1.079475	-15.933036	3.219378	-0.215646	-0.734762	0.643134
1.841235	-15.642858	3.220698	0.336659	-0.734762	0.588885
-1.841235	-15.642858	3.220698	-0.336659	-0.734762	0.588885
1.527142	-15.776786	3.221107	0.290592	-0.734762	0.612928
-1.527142	-15.776786	3.221107	-0.290592	-0.734762	0.612928
2.028157	-15.553572	3.221267	0.361415	-0.734762	0.574025
-2.028157	-15.553572	3.221267	-0.361415	-0.734762	0.574025
0.812139	-16.000000	3.222229	0.165782	-0.734762	0.657755
-0.812139	-16.000000	3.222229	-0.165782	-0.734762	0.657755
0.989806	-15.955358	3.222784	0.199151	-0.734762	0.648432
-0.989806	-15.955358	3.222784	-0.199151	-0.734762	0.648432
1.142210	-15.910714	3.223321	0.226566	-0.734762	0.639369
-1.142210	-15.910714	3.223321	-0.226566	-0.734762	0.639369
0.900672	-15.977678	3.223724	0.182526	-0.734762	0.653306
-0.900672	-15.977678	3.223724	-0.182526	-0.734762	0.653306
1.735462	-15.687500	3.224089	0.321510	-0.734762	0.597291
-1.735462	-15.687500	3.224089	-0.321510	-0.734762	0.597291
1.630732	-15.732142	3.224207	0.306151	-0.734762	0.605307
-1.630732	-15.732142	3.224207	-0.306151	-0.734762	0.605307
2.068565	-15.531250	3.224234	0.366289	-0.734762	0.570927
-2.068565	-15.531250	3.224234	-0.366289	-0.734762	0.570927
1.462091	-15.799108	3.224622	0.280114	-0.734762	0.617787
-1.462091	-15.799108	3.224622	-0.280114	-0.734762	0.617787
1.880767	-15.620536	3.225793	0.341660	-0.734762	0.585998
-1.880767	-15.620536	3.225793	-0.341660	-0.734762	0.585998
1.205390	-15.888392	3.226055	0.237419	-0.734762	0.635419
-1.205390	-15.888392	3.226055	-0.237419	-0.734762	0.635419
2.109169	-15.508928	3.226744	0.371136	-0.734762	0.567788
-2.109169	-15.508928	3.226744	-0.371136	-0.734762	0.567788
1.397366	-15.821428	3.226862	0.269554	-0.734762	0.622467
-1.397366	-15.821428	3.226862	-0.269554	-0.734762	0.622467
1.268992	-15.866072	3.227566	0.248204	-0.734762	0.631284
-1.268992	-15.866072	3.227566	-0.248204	-0.734762	0.631284
1.332992	-15.843750	3.227839	0.258917	-0.734762	0.626967
-1.332992	-15.843750	3.227839	-0.258917	-0.734762	0.626967
1.052027	-15.933036	3.228452	0.210163	-0.734762	0.644947
-1.052027	-15.933036	3.228452	-0.210163	-0.734762	0.644947
2.149965	-15.486608	3.228796	0.375956	-0.734762	0.564608
-2.149965	-15.486608	3.228796	-0.375956	-0.734762	0.564608
0.784677	-16.000000	3.229026	0.160176	-0.734762	0.659142
-0.784677	-16.000000	3.229026	-0.160176	-0.734762	0.659142
1.565054	-15.754464	3.229748	0.295800	-0.734762	0.610432
-1.565054	-15.754464	3.229748	-0.295800	-0.734762	0.610432
2.190948	-15.464286	3.230385	0.380750	-0.734762	0.561386
-2.190948	-15.464286	3.230385	-0.380750	-0.734762	0.561386
1.774489	-15.665178	3.230389	0.326583	-0.734762	0.594532
-1.774489	-15.665178	3.230389	-0.326583	-0.734762	0.594532
1.920518	-15.598214	3.230447	0.346637	-0.734762	0.583068
-1.920518	-15.598214	3.230447	-0.346637	-0.734762	0.583068
0.962332	-15.955358	3.231094	0.193624	-0.734762	0.650104
-0.962332	-15.955358	3.231094	-0.193624	-0.734762	0.650104
0.873193	-15.977678	3.231275	0.176958	-0.734762	0.654837
-0.873193	-15.977678	3.231275	-0.176958	-0.734762	0.654837
2.232112	-15.441964	3.231509	0.385515	-0.734762	0.558124
-2.232112	-15.441964	3.231509	-0.385515	-0.734762	0.558124
1.669219	-15.709822	3.231689	0.311293	-0.734762	0.602679
-1.669219	-15.709822	3.231689	-0.311293	-0.734762	0.602679
2.356648	-15.375000	3.232060	0.399643	-0.734762	0.548097
-2.356648	-15.375000	3.232060	-0.399643	-0.734762	0.548097
2.273454	-15.419642	3.232165	0.390253	-0.734762	0.554822
-2.273454	-15.419642	3.232165	-0.390253	-0.734762	0.554822
2.314967	-15.397322	3.232349	0.394963	-0.734762	0.551479
-2.314967	-15.397322	3.232349	-0.394963	-0.734762	0.551479
1.114726	-15.910714	3.232929	0.221114	-0.734762	0.641275
-1.114726	-15.910714	3.232929	-0.221114	-0.734762	0.641275
1.499664	-15.776786	3.233992	0.285363	-0.734762	0.615380
-1.499664	-15.776786	3.233992	-0.285363	-0.734762	0.615380
1.960483	-15.575892	3.234656	0.351588	-0.734762	0.580095
-1.960483	-15.575892	3.234656	-0.351588	-0.734762	0.580095
0.757157	-16.000000	3.235590	0.154559	-0.734762	0.660482
-0.757157	-16.000000	3.235590	-0.154559	-0.734762	0.660482
1.177881	-15.888392	3.236201	0.232001	-0.734762	0.637417
-1.177881	-15.888392	3.236201	-0.232001	-0.734762	0.637417
1.813748	-15.642858	3.236257	0.331633	-0.734762	0.591730
-1.813748	-15.642858	3.236257	-0.331633	-0.734762	0.591730
1.434585	-15.799108	3.236953	0.274844	-0.734762	0.620150
-1.434585	-15.799108	3.236953	-0.274844	-0.734762	0.620150
1.024503	-15.933036	3.237292	0.204665	-0.734762	0.646713
-1.024503	-15.933036	3.237292	-0.204665	-0.734762	0.646713
1.603223	-15.732142	3.237974	0.300986	-0.734762	0.607892
-1.603223	-15.732142	3.237974	-0.300986	-0.734762	0.607892
1.241467	-15.866072	3.238252	0.242820	-0.734762	0.633375
-1.241467	-15.866072	3.238252	-0.242820	-0.734762	0.633375
2.000659	-15.553572	3.238418	0.356514	-0.734762	0.577081
-2.000659	-15.553572	3.238418	-0.356514	-0.734762	0.577081
0.845651	-15.977678	3.238592	0.171376	-0.734762	0.656319
-0.845651	-15.977678	3.238592	-0.171376	-0.734762	0.656319
1.369843	-15.821428	3.238642	0.264245	-0.734762	0.624740
-1.369843	-15.821428	3.238642	-0.264245	-0.734762	0.624740
1.707950	-15.687500	3.238748	0.316413	-0.734762	0.600007
-1.707950	-15.687500	3.238748	-0.316413	-0.734762	0.600007
1.305463	-15.843750	3.239070	0.253570	-0.734762	0.629148
-1.305463	-15.843750	3.239070	-0.253570	-0.734762	0.629148
0.934789	-15.955358	3.239169	0.188082	-0.734762	0.651729
-0.934789	-15.955358	3.239169	-0.188082	-0.734762	0.651729
1.853235	-15.620536	3.241688	0.336659	-0.734762	0.588885
-1.853235	-15.620536	3.241688	-0.336659	-0.734762	0.588885
2.041040	-15.531250	3.241728	0.361415	-0.734762	0.574025
-2.041040	-15.531250	3.241728	-0.361415	-0.734762	0.574025
0.729583	-16.000000	3.241919	0.148930	-0.734762	0.661774
-0.729583	-16.000000	3.241919	-0.148930	-0.734762	0.661774
1.087162	-15.910714	3.242302	0.215646	-0.734762	0.643134
-1.087162	-15.910714	3.242302	-0.215646	-0.734762	0.643134
1.537501	-15.754464	3.242955	0.290592	-0.734762	0.612928
-1.537501	-15.754464	3.242955	-0.290592	-0.734762	0.612928
2.081621	-15.508928	3.244584	0.366289	-0.734762	0.570927
-2.081621	-15.508928	3.244584	-0.366289	-0.734762	0.570927
1.746922	-15.665178	3.245380	0.321510	-0.734762	0.597291
-1.746922	-15.665178	3.245380	-0.321510	-0.734762	0.597291
0.818048	-15.977678	3.245674	0.165782	-0.734762	0.657755
-0.818048	-15.977678	3.245674	-0.165782	-0.734762	0.657755
1.641645	-15.709822	3.245783	0.306151	-0.734762	0.605307
-1.641645	-15.709822	3.245783	-0.306151	-0.734762	0.605307
0.996905	-15.933036	3.245897	0.199151	-0.734762	0.648432
-0.996905	-15.933036	3.245897	-0.199151	-0.734762	0.648432
1.150286	-15.888392	3.246112	0.226566	-0.734762	0.639369
-1.150286	-15.888392	3.246112	-0.226566	-0.734762	0.639369
1.472076	-15.776786	3.246643	0.280114	-0.734762	0.617787
-1.472076	-15.776786	3.246643	-0.280114	-0.734762	0.617787
1.892945	-15.598214	3.246680	0.341660	-0.734762	0.585998
-1.892945	-15.598214	3.246680	-0.341660	-0.734762	0.585998
2.122398	-15.486608	3.246983	0.371136	-0.734762	0.567788
-2.122398	-15.486608	3.246983	-0.371136	-0.734762	0.567788
0.907178	-15.955358	3.247010	0.182526	-0.734762	0.653306
-0.907178	-15.955358	3.247010	-0.182526	-0.734762	0.653306
0.701956	-16.000000	3.248013	0.143290	-0.734762	0.663018
-0.701956	-16.000000	3.248013	-0.143290	-0.734762	0.663018
1.213853	-15.866072	3.248704	0.237419	-0.734762	0.635419
-1.213853	-15.866072	3.248704	-0.237419	-0.734762	0.635419
2.163366	-15.464286	3.248921	0.375956	-0.734762	0.564608
-2.163366	-15.464286	3.248921	-0.375956	-0.734762	0.564608
1.406975	-15.799108	3.249049	0.269554	-0.734762	0.622467
-1.406975	-15.799108	3.249049	-0.269554	-0.734762	0.622467
1.277839	-15.843750	3.250067	0.248204	-0.734762	0.631284
-1.277839	-15.843750	3.250067	-0.248204	-0.734762	0.631284
1.342221	-15.821428	3.250187	0.258917	-0.734762	0.626967
-1.342221	-15.821428	3.250187	-0.258917	-0.734762	0.626967
2.204519	-15.441964	3.250395	0.380750	-0.734762	0.561386
-2.204519	-15.441964	3.250395	-0.380750	-0.734762	0.561386
1.932873	-15.575892	3.251230	0.346637	-0.734762	0.583068
-1.932873	-15.575892	3.251230	-0.346637	-0.734762	0.583068
2.245854	-15.419642	3.251403	0.385515	-0.734762	0.558124
-2.245854	-15.419642	3.251403	-0.385515	-0.734762	0.558124
1.059518	-15.910714	3.251441	0.210163	-0.734762	0.644947
-1.059518	-15.910714	3.251441	-0.210163	-0.734762	0.644947
1.575598	-15.732142	3.251506	0.295800	-0.734762	0.610432
-1.575598	-15.732142	3.251506	-0.295800	-0.734762	0.610432
1.786130	-15.642858	3.251581	0.326583	-0.734762	0.594532
-1.786130	-15.642858	3.251581	-0.326583	-0.734762	0.594532
2.287364	-15.397322	3.251941	0.390253	-0.734762	0.554822
-2.287364	-15.397322	3.251941	-0.390253	-0.734762	0.554822
2.329046	-15.375000	3.252007	0.394963	-0.734762	0.551479
-2.329046	-15.375000	3.252007	-0.394963	-0.734762	0.551479
0.790386	-15.977678	3.252521	0.160176	-0.734762	0.659142
-0.790386	-15.977678	3.252521	-0.160176	-0.734762	0.659142
1.680315	-15.687500	3.253171	0.311293	-0.734762	0.602679
-1.680315	-15.687500	3.253171	-0.311293	-0.734762	0.602679
0.674278	-16.000000	3.253871	0.137641	-0.734762	0.664214
-0.674278	-16.000000	3.253871	-0.137641	-0.734762	0.664214
0.969234	-15.933036	3.254266	0.193624	-0.734762	0.650104
-0.969234	-15.933036	3.254266	-0.193624	-0.734762	0.650104
0.879501	-15.955358	3.254616	0.176958	-0.734762	0.654837
-0.879501	-15.955358	3.254616	-0.176958	-0.734762	0.654837
1.973016	-15.553572	3.255333	0.351588	-0.734762	0.580095
-1.973016	-15.553572	3.255333	-0.351588	-0.734762	0.580095
1.122608	-15.888392	3.255787	0.221114	-0.734762	0.641275
-1.122608	-15.888392	3.255787	-0.221114	-0.734762	0.641275
1.509835	-15.754464	3.255927	0.285363	-0.734762	0.615380
-1.509835	-15.754464	3.255927	-0.285363	-0.734762	0.615380
1.825569	-15.620536	3.257349	0.331633	-0.734762	0.591730
-1.825569	-15.620536	3.257349	-0.331633	-0.734762	0.591730
1.186150	-15.866072	3.258921	0.232001	-0.734762	0.637417
-1.186150	-15.866072	3.258921	-0.232001	-0.734762	0.637417
2.013367	-15.531250	3.258988	0.356514	-0.734762	0.577081
-2.013367	-15.531250	3.258988	-0.356514	-0.734762	0.577081
1.444382	-15.776786	3.259058	0.274844	-0.734762	0.620150
-1.444382	-15.776786	3.259058	-0.274844	-0.734762	0.620150
0.762666	-15.977678	3.259132	0.154559	-0.734762	0.660482
-0.762666	-15.977678	3.259132	-0.154559	-0.734762	0.660482
0.646551	-16.000000	3.259494	0.131981	-0.734762	0.665362
-0.646551	-16.000000	3.259494	-0.131981	-0.734762	0.665362
1.613952	-15.709822	3.259642	0.300986	-0.734762	0.607892
-1.613952	-15.709822	3.259642	-0.300986	-0.734762	0.607892
1.719229	-15.665178	3.260135	0.316413	-0.734762	0.600007
-1.719229	-15.665178	3.260135	-0.316413	-0.734762	0.600007
1.031798	-15.910714	3.260343	0.204665	-0.734762	0.646713
-1.031798	-15.910714	3.260343	-0.204665	-0.734762	0.646713
1.250122	-15.843750	3.260829	0.242820	-0.734762	0.633375
-1.250122	-15.843750	3.260829	-0.242820	-0.734762	0.633375
1.379262	-15.799108	3.260910	0.264245	-0.734762	0.624740
-1.379262	-15.799108	3.260910	-0.264245	-0.734762	0.624740
1.314501	-15.821428	3.261496	0.253570	-0.734762	0.629148
-1.314501	-15.821428	3.261496	-0.253570	-0.734762	0.629148
0.851760	-15.955358	3.261986	0.171376	-0.734762	0.656319
-0.851760	-15.955358	3.261986	-0.171376	-0.734762	0.656319
2.053922	-15.508928	3.262189	0.361415	-0.734762	0.574025
-2.053922	-15.508928	3.262189	-0.361415	-0.734762	0.574025
0.941493	-15.933036	3.262400	0.188082	-0.734762	0.651729
-0.941493	-15.933036	3.262400	-0.188082	-0.734762	0.651729
1.865235	-15.598214	3.262679	0.336659	-0.734762	0.588885
-1.865235	-15.598214	3.262679	-0.336659	-0.734762	0.588885
1.547858	-15.732142	3.264802	0.290592	-0.734762	0.612928
-1.547858	-15.732142	3.264802	-0.290592	-0.734762	0.612928
0.618777	-16.000000	3.264880	0.126311	-0.734762	0.666461
-0.618777	-16.000000	3.264880	-0.126311	-0.734762	0.666461
2.094677	-15.486608	3.264935	0.366289	-0.734762	0.570927
-2.094677	-15.486608	3.264935	-0.366289	-0.734762	0.570927
1.094848	-15.888392	3.265227	0.215646	-0.734762	0.643134
-1.094848	-15.888392	3.265227	-0.215646	-0.734762	0.643134
0.734891	-15.977678	3.265507	0.148930	-0.734762	0.661774
-0.734891	-15.977678	3.265507	-0.148930	-0.734762	0.661774
1.758382	-15.642858	3.266670	0.321510	-0.734762	0.597291
-1.758382	-15.642858	3.266670	-0.321510	-0.734762	0.597291
2.135627	-15.464286	3.267221	0.371136	-0.734762	0.567788
-2.135627	-15.464286	3.267221	-0.371136	-0.734762	0.567788
1.652557	-15.687500	3.267359	0.306151	-0.734762	0.605307
-1.652557	-15.687500	3.267359	-0.306151	-0.734762	0.605307
1.905123	-15.575892	3.267568	0.341660	-0.734762	0.585998
-1.905123	-15.575892	3.267568	-0.341660	-0.734762	0.585998
1.482060	-15.754464	3.268664	0.280114	-0.734762	0.617787
-1.482060	-15.754464	3.268664	-0.280114	-0.734762	0.617787
1.158362	-15.866072	3.268902	0.226566	-0.734762	0.639369
-1.158362	-15.866072	3.268902	-0.226566	-0.734762	0.639369
1.004003	-15.910714	3.269010	0.199151	-0.734762	0.648432
-1.004003	-15.910714	3.269010	-0.199151	-0.734762	0.648432
2.176767	-15.441964	3.269046	0.375956	-0.734762	0.564608
-2.176767	-15.441964	3.269046	-0.375956	-0.734762	0.564608
0.823958	-15.955358	3.269120	0.165782	-0.734762	0.657755
-0.823958	-15.955358	3.269120	-0.165782	-0.734762	0.657755
0.590958	-16.000000	3.270030	0.120633	-0.734762	0.667512
-0.590958	-16.000000	3.270030	-0.120633	-0.734762	0.667512
0.913684	-15.933036	3.270297	0.182526	-0.734762	0.653306
-0.913684	-15.933036	3.270297	-0.182526	-0.734762	0.653306
2.218091	-15.419642	3.270406	0.380750	-0.734762	0.561386
-2.218091	-15.419642	3.270406	-0.380750	-0.734762	0.561386
1.416583	-15.776786	3.271237	0.269554	-0.734762	0.622467
-1.416583	-15.776786	3.271237	-0.269554	-0.734762	0.622467
2.259595	-15.397322	3.271297	0.385515	-0.734762	0.558124
-2.259595	-15.397322	3.271297	-0.385515	-0.734762	0.558124
1.222315	-15.843750	3.271354	0.237419	-0.734762	0.635419
-1.222315	-15.843750	3.271354	-0.237419	-0.734762	0.635419
0.707063	-15.977678	3.271646	0.143290	-0.734762	0.663018
-0.707063	-15.977678	3.271646	-0.143290	-0.734762	0.663018
2.301275	-15.375000	3.271718	0.390253	-0.734762	0.554822
-2.301275	-15.375000	3.271718	-0.390253	-0.734762	0.554822
1.945229	-15.553572	3.272013	0.346637	-0.734762	0.583068
-1.945229	-15.553572	3.272013	-0.346637	-0.734762	0.583068
1.351450	-15.799108	3.272535	0.258917	-0.734762	0.626967
-1.351450	-15.799108	3.272535	-0.258917	-0.734762	0.626967
1.286686	-15.821428	3.272569	0.248204	-0.734762	0.631284
-1.286686	-15.821428	3.272569	-0.248204	-0.734762	0.631284
1.797771	-15.620536	3.272773	0.326583	-0.734762	0.594532
-1.797771	-15.620536	3.272773	-0.326583	-0.734762	0.594532
1.586142	-15.709822	3.273265	0.295800	-0.734762	0.610432
-1.586142	-15.709822	3.273265	-0.295800	-0.734762	0.610432
1.067010	-15.888392	3.274430	0.210163	-0.734762	0.644947
-1.067010	-15.888392	3.274430	-0.210163	-0.734762	0.644947
1.691411	-15.665178	3.274654	0.311293	-0.734762	0.602679
-1.691411	-15.665178	3.274654	-0.311293	-0.734762	0.602679
0.563097	-16.000000	3.274943	0.114945	-0.734762	0.668515
-0.563097	-16.000000	3.274943	-0.114945	-0.734762	0.668515
1.985548	-15.531250	3.276011	0.351588	-0.734762	0.580095
-1.985548	-15.531250	3.276011	-0.351588	-0.734762	0.580095
0.796095	-15.955358	3.276016	0.160176	-0.734762	0.659142
-0.796095	-15.955358	3.276016	-0.160176	-0.734762	0.659142
0.976135	-15.910714	3.277439	0.193624	-0.734762	0.650104
-0.976135	-15.910714	3.277439	-0.193624	-0.734762	0.650104
0.679184	-15.977678	3.277547	0.137641	-0.734762	0.664214
-0.679184	-15.977678	3.277547	-0.137641	-0.734762	0.664214
1.520007	-15.732142	3.277862	0.285363	-0.734762	0.615380
-1.520007	-15.732142	3.277862	-0.285363	-0.734762	0.615380
0.885808	-15.933036	3.277958	0.176958	-0.734762	0.654837
-0.885808	-15.933036	3.277958	-0.176958	-0.734762	0.654837
1.837390	-15.598214	3.278440	0.331633	-0.734762	0.591730
-1.837390	-15.598214	3.278440	-0.331633	-0.734762	0.591730
1.130489	-15.866072	3.278645	0.221114	-0.734762	0.641275
-1.130489	-15.866072	3.278645	-0.221114	-0.734762	0.641275
2.026074	-15.508928	3.279557	0.356514	-0.734762	0.577081
-2.026074	-15.508928	3.279557	-0.356514	-0.734762	0.577081
0.535195	-16.000000	3.279618	0.109249	-0.734762	0.669470
-0.535195	-16.000000	3.279618	-0.109249	-0.734762	0.669470
1.454178	-15.754464	3.281163	0.274844	-0.734762	0.620150
-1.454178	-15.754464	3.281163	-0.274844	-0.734762	0.620150
1.624680	-15.687500	3.281310	0.300986	-0.734762	0.607892
-1.624680	-15.687500	3.281310	-0.300986	-0.734762	0.607892
1.730507	-15.642858	3.281522	0.316413	-0.734762	0.600007
-1.730507	-15.642858	3.281522	-0.316413	-0.734762	0.600007
1.194420	-15.843750	3.281641	0.232001	-0.734762	0.637417
-1.194420	-15.843750	3.281641	-0.232001	-0.734762	0.637417
2.066805	-15.486608	3.282650	0.361415	-0.734762	0.574025
-2.066805	-15.486608	3.282650	-0.361415	-0.734762	0.574025
0.768176	-15.955358	3.282675	0.154559	-0.734762	0.660482
-0.768176	-15.955358	3.282675	-0.154559	-0.734762	0.660482
1.388681	-15.776786	3.283179	0.264245	-0.734762	0.624740
-1.388681	-15.776786	3.283179	-0.264245	-0.734762	0.624740
0.651255	-15.977678	3.283211	0.131981	-0.734762	0.665362
-0.651255	-15.977678	3.283211	-0.131981	-0.734762	0.665362
1.039093	-15.888392	3.283395	0.204665	-0.734762	0.646713
-1.039093	-15.888392	3.283395	-0.204665	-0.734762	0.646713
1.258778	-15.821428	3.283405	0.242820	-0.734762	0.633375
-1.258778	-15.821428	3.283405	-0.242820	-0.734762	0.633375
1.877235	-15.575892	3.283669	0.336659	-0.734762	0.588885
-1.877235	-15.575892	3.283669	-0.336659	-0.734762	0.588885
1.323539	-15.799108	3.283922	0.253570	-0.734762	0.629148
-1.323539	-15.799108	3.283922	-0.253570	-0.734762	0.629148
0.507254	-16.000000	3.284056	0.103546	-0.734762	0.670375
-0.507254	-16.000000	3.284056	-0.103546	-0.734762	0.670375
2.107733	-15.464286	3.285285	0.366289	-0.734762	0.570927
-2.107733	-15.464286	3.285285	-0.366289	-0.734762	0.570927
0.857869	-15.933036	3.285380	0.171376	-0.734762	0.656319
-0.857869	-15.933036	3.285380	-0.171376	-0.734762	0.656319
0.948197	-15.910714	3.285630	0.188082	-0.734762	0.651729
-0.948197	-15.910714	3.285630	-0.188082	-0.734762	0.651729
1.558216	-15.709822	3.286650	0.290592	-0.734762	0.612928
-1.558216	-15.709822	3.286650	-0.290592	-0.734762	0.612928
2.148856	-15.441964	3.287460	0.371136	-0.734762	0.567788
-2.148856	-15.441964	3.287460	-0.371136	-0.734762	0.567788
1.769842	-15.620536	3.287960	0.321510	-0.734762	0.597291
-1.769842	-15.620536	3.287960	-0.321510	-0.734762	0.597291
1.102535	-15.866072	3.288151	0.215646	-0.734762	0.643134
-1.102535	-15.866072	3.288151	-0.215646	-0.734762	0.643134
0.479276	-16.000000	3.288255	0.097835	-0.734762	0.671233
-0.479276	-16.000000	3.288255	-0.097835	-0.734762	0.671233
1.917302	-15.553572	3.288456	0.341660	-0.734762	0.585998
-1.917302	-15.553572	3.288456	-0.341660	-0.734762	0.585998
0.623279	-15.977678	3.288636	0.126311	-0.734762	0.666461
-0.623279	-15.977678	3.288636	-0.126311	-0.734762	0.666461
1.663470	-15.665178	3.288935	0.306151	-0.734762	0.605307
-1.663470	-15.665178	3.288935	-0.306151	-0.734762	0.605307
0.740200	-15.955358	3.289096	0.148930	-0.734762	0.661774
-0.740200	-15.955358	3.289096	-0.148930	-0.734762	0.661774
2.190167	-15.419642	3.289171	0.375956	-0.734762	0.564608
-2.190167	-15.419642	3.289171	-0.375956	-0.734762	0.564608
2.231663	-15.397322	3.290416	0.380750	-0.734762	0.561386
-2.231663	-15.397322	3.290416	-0.380750	-0.734762	0.561386
1.492045	-15.732142	3.290684	0.280114	-0.734762	0.617787
-1.492045	-15.732142	3.290684	-0.280114	-0.734762	0.617787
2.273337	-15.375000	3.291191	0.385515	-0.734762	0.558124
-2.273337	-15.375000	3.291191	-0.385515	-0.734762	0.558124
1.166438	-15.843750	3.291692	0.226566	-0.734762	0.639369
-1.166438	-15.843750	3.291692	-0.226566	-0.734762	0.639369
1.011102	-15.888392	3.292123	0.199151	-0.734762	0.648432
-1.011102	-15.888392	3.292123	-0.199151	-0.734762	0.648432
0.451263	-16.000000	3.292217	0.092117	-0.734762	0.672041
-0.451263	-16.000000	3.292217	-0.092117	-0.734762	0.672041
0.829867	-15.933036	3.292565	0.165782	-0.734762	0.657755
-0.829867	-15.933036	3.292565	-0.165782	-0.734762	0.657755
1.957585	-15.531250	3.292796	0.346637	-0.734762	0.583068
-1.957585	-15.531250	3.292796	-0.346637	-0.734762	0.583068
1.426191	-15.754464	3.293424	0.269554	-0.734762	0.622467
-1.426191	-15.754464	3.293424	-0.269554	-0.734762	0.622467
0.920190	-15.910714	3.293584	0.182526	-0.734762	0.653306
-0.920190	-15.910714	3.293584	-0.182526	-0.734762	0.653306
0.595258	-15.977678	3.293823	0.120633	-0.734762	0.667512
-0.595258	-15.977678	3.293823	-0.120633	-0.734762	0.667512
1.809412	-15.598214	3.293965	0.326583	-0.734762	0.594532
-1.809412	-15.598214	3.293965	-0.326583	-0.734762	0.594532
1.230778	-15.821428	3.294003	0.237419	-0.734762	0.635419
-1.230778	-15.821428	3.294003	-0.237419	-0.734762	0.635419
1.360679	-15.776786	3.294883	0.258917	-0.734762	0.626967
-1.360679	-15.776786	3.294883	-0.258917	-0.734762	0.626967
1.596685	-15.687500	3.295023	0.295800	-0.734762	0.610432
-1.596685	-15.687500	3.295023	-0.295800	-0.734762	0.610432
1.295533	-15.799108	3.295071	0.248204	-0.734762	0.631284
-1.295533	-15.799108	3.295071	-0.248204	-0.734762	0.631284
0.712171	-15.955358	3.295279	0.143290	-0.734762	0.663018
-0.712171	-15.955358	3.295279	-0.143290	-0.734762	0.663018
0.423218	-16.000000	3.295939	0.086392	-0.734762	0.672801
-0.423218	-16.000000	3.295939	-0.086392	-0.734762	0.672801
1.702507	-15.642858	3.296136	0.311293	-0.734762	0.602679
-1.702507	-15.642858	3.296136	-0.311293	-0.734762	0.602679
1.998080	-15.508928	3.296688	0.351588	-0.734762	0.580095
-1.998080	-15.508928	3.296688	-0.351588	-0.734762	0.580095
1.074501	-15.866072	3.297418	0.210163	-0.734762	0.644947
-1.074501	-15.866072	3.297418	-0.210163	-0.734762	0.644947
0.567194	-15.977678	3.298772	0.114945	-0.734762	0.668515
-0.567194	-15.977678	3.298772	-0.114945	-0.734762	0.668515
0.395142	-16.000000	3.299423	0.080660	-0.734762	0.673512
-0.395142	-16.000000	3.299423	-0.080660	-0.734762	0.673512
0.801805	-15.933036	3.299511	0.160176	-0.734762	0.659142
-0.801805	-15.933036	3.299511	-0.160176	-0.734762	0.659142
1.849211	-15.575892	3.299532	0.331633	-0.734762	0.591730
-1.849211	-15.575892	3.299532	-0.331633	-0.734762	0.591730
1.530178	-15.709822	3.299797	0.285363	-0.734762	0.615380
-1.530178	-15.709822	3.299797	-0.285363	-0.734762	0.615380
2.038782	-15.486608	3.300127	0.356514	-0.734762	0.577081
-2.038782	-15.486608	3.300127	-0.356514	-0.734762	0.577081
0.983037	-15.888392	3.300611	0.193624	-0.734762	0.650104
-0.983037	-15.888392	3.300611	-0.193624	-0.734762	0.650104
0.684090	-15.955358	3.301223	0.137641	-0.734762	0.664214
-0.684090	-15.955358	3.301223	-0.137641	-0.734762	0.664214
0.892116	-15.910714	3.301299	0.176958	-0.734762	0.654837
-0.892116	-15.910714	3.301299	-0.176958	-0.734762	0.654837
1.138371	-15.843750	3.301503	0.221114	-0.734762	0.641275
-1.138371	-15.843750	3.301503	-0.221114	-0.734762	0.641275
0.367037	-16.000000	3.302668	0.074923	-0.734762	0.674175
-0.367037	-16.000000	3.302668	-0.074923	-0.734762	0.674175
1.741786	-15.620536	3.302909	0.316413	-0.734762	0.600007
-1.741786	-15.620536	3.302909	-0.316413	-0.734762	0.600007
1.635409	-15.665178	3.302978	0.300986	-0.734762	0.607892
-1.635409	-15.665178	3.302978	-0.300986	-0.734762	0.607892
2.079687	-15.464286	3.303111	0.361415	-0.734762	0.574025
-2.079687	-15.464286	3.303111	-0.361415	-0.734762	0.574025
1.463975	-15.732142	3.303268	0.274844	-0.734762	0.620150
-1.463975	-15.732142	3.303268	-0.274844	-0.734762	0.620150
0.539089	-15.977678	3.303481	0.109249	-0.734762	0.669470
-0.539089	-15.977678	3.303481	-0.109249	-0.734762	0.669470
1.202689	-15.821428	3.304362	0.232001	-0.734762	0.637417
-1.202689	-15.821428	3.304362	-0.232001	-0.734762	0.637417
1.889235	-15.553572	3.304660	0.336659	-0.734762	0.588885
-1.889235	-15.553572	3.304660	-0.336659	-0.734762	0.588885
1.398100	-15.754464	3.305447	0.264245	-0.734762	0.624740
-1.398100	-15.754464	3.305447	-0.264245	-0.734762	0.624740
2.120790	-15.441964	3.305636	0.366289	-0.734762	0.570927
-2.120790	-15.441964	3.305636	-0.366289	-0.734762	0.570927
0.338906	-16.000000	3.305673	0.069181	-0.734762	0.674788
-0.338906	-16.000000	3.305673	-0.069181	-0.734762	0.674788
1.267433	-15.799108	3.305981	0.242820	-0.734762	0.633375
-1.267433	-15.799108	3.305981	-0.242820	-0.734762	0.633375
0.773685	-15.933036	3.306218	0.154559	-0.734762	0.660482
-0.773685	-15.933036	3.306218	-0.154559	-0.734762	0.660482
1.332578	-15.776786	3.306347	0.253570	-0.734762	0.629148
-1.332578	-15.776786	3.306347	-0.253570	-0.734762	0.629148
1.046389	-15.866072	3.306447	0.204665	-0.734762	0.646713
-1.046389	-15.866072	3.306447	-0.204665	-0.734762	0.646713
0.655960	-15.955358	3.306927	0.131981	-0.734762	0.665362
-0.655960	-15.955358	3.306927	-0.131981	-0.734762	0.665362
2.162085	-15.419642	3.307699	0.371136	-0.734762	0.567788
-2.162085	-15.419642	3.307699	-0.371136	-0.734762	0.567788
0.510944	-15.977678	3.307951	0.103546	-0.734762	0.670375
-0.510944	-15.977678	3.307951	-0.103546	-0.734762	0.670375
0.310750	-16.000000	3.308438	0.063434	-0.734762	0.675353
-0.310750	-16.000000	3.308438	-0.063434	-0.734762	0.675353
1.568575	-15.687500	3.308498	0.290592	-0.734762	0.612928
-1.568575	-15.687500	3.308498	-0.290592	-0.734762	0.612928
0.863977	-15.910714	3.308774	0.171376	-0.734762	0.656319
-0.863977	-15.910714	3.308774	-0.171376	-0.734762	0.656319
