-2.074457	26.406296	0.302940	0.519947	-0.854142	-0.009799
2.074506	26.406372	0.302940	-0.519948	-0.854142	-0.009799
-2.043357	26.425329	0.303052	0.512120	-0.858858	-0.009850
2.010333	26.444805	0.303167	-0.503843	-0.863739	-0.009902
-1.963420	26.471745	0.303325	0.492085	-0.870490	-0.009974
1.956809	26.475201	0.303346	-0.490458	-0.871408	-0.009984
-1.956889	26.475338	0.303347	0.490458	-0.871408	-0.009984
1.929953	26.490450	0.303436	-0.483698	-0.875178	-0.010025
-1.882430	26.516296	0.303588	0.471787	-0.881655	-0.010094
1.848538	26.534222	0.303694	-0.463293	-0.886147	-0.010142
-1.836856	26.540007	0.303728	0.460396	-0.887656	-0.010158
1.836920	26.540125	0.303729	-0.460396	-0.887656	-0.010158
-1.800429	26.558958	0.303840	0.451235	-0.892347	-0.010209
1.766131	26.576094	0.303941	-0.442639	-0.896641	-0.010255
-1.717461	26.599710	0.304080	0.430441	-0.902560	-0.010318
1.714775	26.600710	0.304086	-0.429796	-0.902867	-0.010321
-1.714871	26.600908	0.304087	0.429796	-0.902867	-0.010321
1.682776	26.616047	0.304177	-0.421748	-0.906654	-0.010362
-1.633572	26.638529	0.304310	0.409417	-0.912288	-0.010422
1.598518	26.654057	0.304401	-0.400631	-0.916180	-0.010463
-1.590681	26.657183	0.304420	0.398694	-0.917024	-0.010472
1.590754	26.657345	0.304421	-0.398694	-0.917024	-0.010472
-1.548807	26.675394	0.304527	0.388172	-0.921527	-0.010520
1.513402	26.690105	0.304614	-0.379299	-0.925214	-0.010559
1.464737	26.709400	0.304728	-0.367126	-0.930111	-0.010612
-1.464827	26.709625	0.304730	0.367126	-0.930111	-0.010612
-1.463210	26.710285	0.304734	0.366719	-0.930271	-0.010613
1.427474	26.724173	0.304816	-0.357763	-0.933752	-0.010650
-1.376827	26.743185	0.304928	0.345070	-0.938516	-0.010701
1.340779	26.756241	0.305005	-0.336035	-0.941788	-0.010736
-1.337081	26.757277	0.305012	0.335130	-0.942111	-0.010739
1.337156	26.757486	0.305013	-0.335130	-0.942111	-0.010739
-1.289706	26.774075	0.305111	0.323235	-0.946257	-0.010783
1.253366	26.786291	0.305183	-0.314127	-0.949319	-0.010816
1.207862	26.800766	0.305269	-0.302743	-0.953010	-0.010855
-1.207922	26.800955	0.305270	0.302743	-0.953011	-0.010855
-1.201893	26.802937	0.305282	0.301226	-0.953491	-0.010860
1.165279	26.814310	0.305349	-0.292050	-0.956341	-0.010890
-1.113434	26.829758	0.305440	0.279056	-0.960213	-0.010931
-1.077237	26.839823	0.305500	0.270002	-0.962797	-0.010959
1.077304	26.840063	0.305501	-0.270002	-0.962798	-0.010959
1.076567	26.840281	0.305503	-0.269816	-0.962849	-0.010959
-1.024378	26.854523	0.305587	0.256736	-0.966419	-0.010997
0.987277	26.864187	0.305644	-0.247438	-0.968841	-0.011023
0.945349	26.874378	0.305705	-0.236945	-0.971460	-0.011051
-0.945384	26.874529	0.305705	0.236945	-0.971460	-0.011051
-0.934773	26.877218	0.305721	0.234279	-0.972107	-0.011057
0.897457	26.886021	0.305773	-0.224927	-0.974313	-0.011081
-0.844665	26.897831	0.305843	0.211696	-0.977273	-0.011112
-0.812364	26.904436	0.305883	0.203612	-0.978988	-0.011130
0.812400	26.904619	0.305884	-0.203612	-0.978988	-0.011130
0.807156	26.905767	0.305890	-0.202295	-0.979261	-0.011133
-0.754104	26.916351	0.305953	0.188999	-0.981914	-0.011161
0.716421	26.923416	0.305995	-0.179554	-0.983685	-0.011180
0.678421	26.929897	0.306033	-0.170042	-0.985373	-0.011198
-0.678439	26.930008	0.306034	0.170041	-0.985373	-0.011198
-0.663139	26.932768	0.306050	0.166200	-0.986028	-0.011205
0.625302	26.938959	0.306087	-0.156717	-0.987580	-0.011221
-0.571818	26.947075	0.306135	0.143313	-0.989614	-0.011243
-0.543695	26.950815	0.306157	0.136272	-0.990608	-0.011253
0.543710	26.950939	0.306158	-0.136272	-0.990608	-0.011253
0.533848	26.952387	0.306167	-0.133796	-0.990945	-0.011257
-0.480189	26.959261	0.306207	0.120348	-0.992668	-0.011275
0.442106	26.963692	0.306234	-0.110804	-0.993778	-0.011287
0.408326	26.967062	0.306254	-0.102344	-0.994685	-0.011296
-0.408331	26.967129	0.306254	0.102343	-0.994685	-0.011296
-0.388303	26.969322	0.306267	0.097319	-0.995189	-0.011301
0.350128	26.972870	0.306288	-0.087751	-0.996078	-0.011311
-0.296209	26.977251	0.306314	0.074238	-0.997176	-0.011322
-0.272486	26.978741	0.306323	0.068296	-0.997601	-0.011327
0.272488	26.978804	0.306323	-0.068295	-0.997601	-0.011327
0.257962	26.979914	0.306330	-0.064652	-0.997844	-0.011330
-0.203955	26.983046	0.306348	0.051117	-0.998628	-0.011338
0.165657	26.984821	0.306359	-0.041518	-0.999073	-0.011342
0.136322	26.985699	0.306364	-0.034168	-0.999352	-0.011345
-0.136321	26.985722	0.306364	0.034167	-0.999352	-0.011345
-0.111593	26.986700	0.306370	0.027968	-0.999544	-0.011347
0.073263	26.987589	0.306375	-0.018362	-0.999767	-0.011350
-0.000001	26.988085	0.306378	0.000000	-0.999936	-0.011352
-0.019170	26.988214	0.306379	0.004804	-0.999924	-0.011351
2.967994	25.663731	0.388183	-0.743858	-0.668261	-0.010108
-2.967994	25.663731	0.388183	0.743858	-0.668261	-0.010108
2.967994	-25.663731	0.388183	-0.743858	0.668261	-0.010108
-2.967994	-25.663731	0.388183	0.743858	0.668261	-0.010108
2.917773	-25.718584	0.389013	-0.731272	0.682009	-0.010316
2.917773	25.718584	0.389013	-0.731272	-0.682009	-0.010316
-2.917773	-25.718584	0.389013	0.731272	0.682009	-0.010316
-2.917773	25.718584	0.389013	0.731272	-0.682009	-0.010316
2.823081	-25.816677	0.390496	-0.707539	0.706593	-0.010688
2.823081	25.816677	0.390496	-0.707539	-0.706593	-0.010688
-2.823081	-25.816677	0.390496	0.707539	0.706593	-0.010688
-2.823081	25.816677	0.390496	0.707539	-0.706593	-0.010688
2.725093	-25.911478	0.391930	-0.682981	0.730353	-0.011047
2.725093	25.911478	0.391930	-0.682981	-0.730353	-0.011047
-2.725093	-25.911478	0.391930	0.682981	0.730353	-0.011047
-2.725093	25.911478	0.391930	0.682981	-0.730353	-0.011047
2.623922	-26.002876	0.393313	-0.657625	0.753260	-0.011394
2.623922	26.002876	0.393313	-0.657625	-0.753260	-0.011394
-2.623922	-26.002876	0.393313	0.657625	0.753260	-0.011394
-2.623922	26.002876	0.393313	0.657625	-0.753260	-0.011394
2.519687	-26.090763	0.394642	-0.631500	0.775287	-0.011727
2.519687	26.090763	0.394642	-0.631500	-0.775287	-0.011727
-2.519687	-26.090763	0.394642	0.631500	0.775287	-0.011727
-2.519687	26.090763	0.394642	0.631500	-0.775287	-0.011727
2.412509	-26.175039	0.395917	-0.604639	0.796409	-0.012046
2.412509	26.175039	0.395917	-0.604639	-0.796409	-0.012046
-2.412509	-26.175039	0.395917	0.604639	0.796409	-0.012046
-2.412509	26.175039	0.395917	0.604639	-0.796409	-0.012046
2.302515	-26.255604	0.397135	-0.577071	0.816600	-0.012352
2.302515	26.255604	0.397135	-0.577071	-0.816600	-0.012352
-2.302515	-26.255604	0.397135	0.577071	0.816600	-0.012352
-2.302515	26.255604	0.397135	0.577071	-0.816600	-0.012352
2.189831	-26.332365	0.398297	-0.548830	0.835838	-0.012643
2.189831	26.332365	0.398297	-0.548830	-0.835838	-0.012643
-2.189831	-26.332365	0.398297	0.548830	0.835838	-0.012643
-2.189831	26.332365	0.398297	0.548830	-0.835838	-0.012643
2.074590	-26.405230	0.399399	-0.519947	0.854101	-0.012919
2.074590	26.405230	0.399399	-0.519947	-0.854101	-0.012919
-2.074590	-26.405230	0.399399	0.519947	0.854101	-0.012919
-2.074590	26.405230	0.399399	0.519947	-0.854101	-0.012919
1.956927	-26.474117	0.400441	-0.490458	0.871365	-0.013180
1.956927	26.474117	0.400441	-0.490458	-0.871365	-0.013180
-1.956927	-26.474117	0.400441	0.490458	0.871365	-0.013180
-1.956927	26.474117	0.400441	0.490458	-0.871365	-0.013180
1.836978	-26.538942	0.401421	-0.460396	0.887612	-0.013426
1.836978	26.538942	0.401421	-0.460396	-0.887612	-0.013426
-1.836978	-26.538942	0.401421	0.460396	0.887612	-0.013426
-1.836978	26.538942	0.401421	0.460396	-0.887612	-0.013426
1.714885	-26.599632	0.402339	-0.429796	0.902823	-0.013656
1.714885	26.599632	0.402339	-0.429796	-0.902823	-0.013656
-1.714885	-26.599632	0.402339	0.429796	0.902823	-0.013656
-1.714885	26.599632	0.402339	0.429796	-0.902823	-0.013656
1.590788	-26.656116	0.403193	-0.398694	0.916979	-0.013870
1.590788	26.656116	0.403193	-0.398694	-0.916979	-0.013870
-1.590788	-26.656116	0.403193	0.398694	0.916979	-0.013870
-1.590788	26.656116	0.403193	0.398694	-0.916979	-0.013870
1.464834	-26.708328	0.403983	-0.367126	0.930065	-0.014068
1.464834	26.708328	0.403983	-0.367126	-0.930065	-0.014068
-1.464834	-26.708328	0.403983	0.367126	0.930065	-0.014068
-1.464834	26.708328	0.403983	0.367126	-0.930065	-0.014068
1.337170	-26.756205	0.404707	-0.335130	0.942064	-0.014249
-1.337170	-26.756205	0.404707	0.335130	0.942064	-0.014249
1.337170	26.756205	0.404707	-0.335130	-0.942064	-0.014249
-1.337170	26.756205	0.404707	0.335130	-0.942064	-0.014249
1.207943	-26.799692	0.405365	-0.302743	0.952963	-0.014414
-1.207943	-26.799692	0.405365	0.302743	0.952963	-0.014414
1.207943	26.799692	0.405365	-0.302743	-0.952963	-0.014414
-1.207943	26.799692	0.405365	0.302743	-0.952963	-0.014414
1.077307	-26.838741	0.405956	-0.270002	0.962750	-0.014562
-1.077307	-26.838741	0.405956	0.270002	0.962750	-0.014562
1.077307	26.838741	0.405956	-0.270002	-0.962750	-0.014562
-1.077307	26.838741	0.405956	0.270002	-0.962750	-0.014562
0.945412	-26.873302	0.406479	-0.236945	0.971412	-0.014693
-0.945412	-26.873302	0.406479	0.236945	0.971412	-0.014693
0.945412	26.873302	0.406479	-0.236945	-0.971412	-0.014693
-0.945412	26.873302	0.406479	0.236945	-0.971412	-0.014693
0.812413	-26.903339	0.406933	-0.203612	0.978940	-0.014807
-0.812413	-26.903339	0.406933	0.203612	0.978940	-0.014807
0.812413	26.903339	0.406933	-0.203612	-0.978940	-0.014807
-0.812413	26.903339	0.406933	0.203612	-0.978940	-0.014807
0.678465	-26.928812	0.407318	-0.170041	0.985324	-0.014904
-0.678465	-26.928812	0.407318	0.170041	0.985324	-0.014904
0.678465	26.928812	0.407318	-0.170041	-0.985324	-0.014904
-0.678465	26.928812	0.407318	0.170041	-0.985324	-0.014904
0.543725	-26.949696	0.407634	-0.136272	0.990558	-0.014983
-0.543725	-26.949696	0.407634	0.136272	0.990558	-0.014983
0.543725	26.949696	0.407634	-0.136272	-0.990558	-0.014983
-0.543725	26.949696	0.407634	0.136272	-0.990558	-0.014983
0.408351	-26.965965	0.407880	-0.102344	0.994635	-0.015045
-0.408351	-26.965965	0.407880	0.102344	0.994635	-0.015045
0.408351	26.965965	0.407880	-0.102344	-0.994635	-0.015045
-0.408351	26.965965	0.407880	0.102344	-0.994635	-0.015045
0.272499	-26.977598	0.408056	-0.068295	0.997551	-0.015089
-0.272499	-26.977598	0.408056	0.068295	0.997551	-0.015089
0.272499	26.977598	0.408056	-0.068295	-0.997551	-0.015089
-0.272499	26.977598	0.408056	0.068295	-0.997551	-0.015089
0.136329	-26.984583	0.408162	-0.034168	0.999302	-0.015115
-0.136329	-26.984583	0.408162	0.034168	0.999302	-0.015115
0.136329	26.984583	0.408162	-0.034168	-0.999302	-0.015115
-0.136329	26.984583	0.408162	0.034168	-0.999302	-0.015115
0.000000	-26.986914	0.408197	-0.000000	0.999886	-0.015124
0.000000	26.986914	0.408197	-0.000000	-0.999886	-0.015124
2.967994	25.659418	0.609968	-0.743858	-0.668149	-0.015883
-2.967994	25.659418	0.609968	0.743858	-0.668149	-0.015883
2.967994	-25.659418	0.609968	-0.743858	0.668149	-0.015883
-2.967994	-25.659418	0.609968	0.743858	0.668149	-0.015883
2.917773	-25.714260	0.611271	-0.731272	0.681894	-0.016210
2.917773	25.714260	0.611271	-0.731272	-0.681894	-0.016210
-2.917773	-25.714260	0.611271	0.731272	0.681894	-0.016210
-2.917773	25.714260	0.611271	0.731272	-0.681894	-0.016210
2.823081	-25.812338	0.613603	-0.707539	0.706475	-0.016794
2.823081	25.812338	0.613603	-0.707539	-0.706475	-0.016794
-2.823081	-25.812338	0.613603	0.707539	0.706475	-0.016794
-2.823081	25.812338	0.613603	0.707539	-0.706475	-0.016794
2.725093	-25.907124	0.615856	-0.682981	0.730230	-0.017359
2.725093	25.907124	0.615856	-0.682981	-0.730230	-0.017359
-2.725093	-25.907124	0.615856	0.682981	0.730230	-0.017359
-2.725093	25.907124	0.615856	0.682981	-0.730230	-0.017359
2.623922	-25.998505	0.618028	-0.657625	0.753133	-0.017903
2.623922	25.998505	0.618028	-0.657625	-0.753133	-0.017903
-2.623922	-25.998505	0.618028	0.657625	0.753133	-0.017903
-2.623922	25.998505	0.618028	0.657625	-0.753133	-0.017903
2.519687	-26.086378	0.620117	-0.631500	0.775156	-0.018427
2.519687	26.086378	0.620117	-0.631500	-0.775156	-0.018427
-2.519687	-26.086378	0.620117	0.631500	0.775156	-0.018427
-2.519687	26.086378	0.620117	0.631500	-0.775156	-0.018427
2.412509	-26.170641	0.622120	-0.604639	0.796275	-0.018929
2.412509	26.170641	0.622120	-0.604639	-0.796275	-0.018929
-2.412509	-26.170641	0.622120	0.604639	0.796275	-0.018929
-2.412509	26.170641	0.622120	0.604639	-0.796275	-0.018929
2.302515	-26.251192	0.624035	-0.577071	0.816463	-0.019409
2.302515	26.251192	0.624035	-0.577071	-0.816463	-0.019409
-2.302515	-26.251192	0.624035	0.577071	0.816463	-0.019409
-2.302515	26.251192	0.624035	0.577071	-0.816463	-0.019409
2.189831	-26.327940	0.625859	-0.548830	0.835698	-0.019866
2.189831	26.327940	0.625859	-0.548830	-0.835698	-0.019866
-2.189831	-26.327940	0.625859	0.548830	0.835698	-0.019866
-2.189831	26.327940	0.625859	0.548830	-0.835698	-0.019866
2.074590	-26.400793	0.627591	-0.519947	0.853957	-0.020300
2.074590	26.400793	0.627591	-0.519947	-0.853957	-0.020300
-2.074590	-26.400793	0.627591	0.519947	0.853957	-0.020300
-2.074590	26.400793	0.627591	0.519947	-0.853957	-0.020300
1.956927	-26.469667	0.629229	-0.490458	0.871219	-0.020710
1.956927	26.469667	0.629229	-0.490458	-0.871219	-0.020710
-1.956927	-26.469667	0.629229	0.490458	0.871219	-0.020710
-1.956927	26.469667	0.629229	0.490458	-0.871219	-0.020710
1.836978	-26.534483	0.630769	-0.460396	0.887463	-0.021096
1.836978	26.534483	0.630769	-0.460396	-0.887463	-0.021096
-1.836978	-26.534483	0.630769	0.460396	0.887463	-0.021096
-1.836978	26.534483	0.630769	0.460396	-0.887463	-0.021096
1.714885	-26.595161	0.632212	-0.429796	0.902671	-0.021458
1.714885	26.595161	0.632212	-0.429796	-0.902671	-0.021458
-1.714885	-26.595161	0.632212	0.429796	0.902671	-0.021458
-1.714885	26.595161	0.632212	0.429796	-0.902671	-0.021458
1.590788	-26.651636	0.633554	-0.398694	0.916825	-0.021794
1.590788	26.651636	0.633554	-0.398694	-0.916825	-0.021794
-1.590788	-26.651636	0.633554	0.398694	0.916825	-0.021794
-1.590788	26.651636	0.633554	0.398694	-0.916825	-0.021794
1.464834	-26.703838	0.634795	-0.367126	0.929908	-0.022105
1.464834	26.703838	0.634795	-0.367126	-0.929908	-0.022105
-1.464834	-26.703838	0.634795	0.367126	0.929908	-0.022105
-1.464834	26.703838	0.634795	0.367126	-0.929908	-0.022105
1.337170	-26.751709	0.635933	-0.335130	0.941906	-0.022391
1.337170	26.751709	0.635933	-0.335130	-0.941906	-0.022391
-1.337170	-26.751709	0.635933	0.335130	0.941906	-0.022391
-1.337170	26.751709	0.635933	0.335130	-0.941906	-0.022391
1.207943	-26.795189	0.636967	-0.302743	0.952803	-0.022650
1.207943	26.795189	0.636967	-0.302743	-0.952803	-0.022650
-1.207943	-26.795189	0.636967	0.302743	0.952803	-0.022650
-1.207943	26.795189	0.636967	0.302743	-0.952803	-0.022650
1.077307	-26.834230	0.637895	-0.270002	0.962588	-0.022882
1.077307	26.834230	0.637895	-0.270002	-0.962588	-0.022882
-1.077307	-26.834230	0.637895	0.270002	0.962588	-0.022882
-1.077307	26.834230	0.637895	0.270002	-0.962588	-0.022882
0.945412	-26.868786	0.638716	-0.236945	0.971249	-0.023088
0.945412	26.868786	0.638716	-0.236945	-0.971249	-0.023088
-0.945412	-26.868786	0.638716	0.236945	0.971249	-0.023088
-0.945412	26.868786	0.638716	0.236945	-0.971249	-0.023088
0.812413	-26.898817	0.639430	-0.203612	0.978775	-0.023267
0.812413	26.898817	0.639430	-0.203612	-0.978775	-0.023267
-0.812413	-26.898817	0.639430	0.203612	0.978775	-0.023267
-0.812413	26.898817	0.639430	0.203612	-0.978775	-0.023267
0.678465	-26.924288	0.640036	-0.170041	0.985159	-0.023419
-0.678465	-26.924288	0.640036	0.170041	0.985159	-0.023419
0.678465	26.924288	0.640036	-0.170041	-0.985159	-0.023419
-0.678465	26.924288	0.640036	0.170041	-0.985159	-0.023419
0.543725	-26.945168	0.640532	-0.136272	0.990392	-0.023543
-0.543725	-26.945168	0.640532	0.136272	0.990392	-0.023543
0.543725	26.945168	0.640532	-0.136272	-0.990392	-0.023543
-0.543725	26.945168	0.640532	0.136272	-0.990392	-0.023543
0.408351	-26.961432	0.640919	-0.102344	0.994468	-0.023640
-0.408351	-26.961432	0.640919	0.102344	0.994468	-0.023640
0.408351	26.961432	0.640919	-0.102344	-0.994468	-0.023640
-0.408351	26.961432	0.640919	0.102344	-0.994468	-0.023640
0.272499	-26.973064	0.641195	-0.068295	0.997383	-0.023709
-0.272499	-26.973064	0.641195	0.068295	0.997383	-0.023709
0.272499	26.973064	0.641195	-0.068295	-0.997383	-0.023709
-0.272499	26.973064	0.641195	0.068295	-0.997383	-0.023709
0.136329	-26.980049	0.641361	-0.034168	0.999134	-0.023751
-0.136329	-26.980049	0.641361	0.034168	0.999134	-0.023751
0.136329	26.980049	0.641361	-0.034168	-0.999134	-0.023751
-0.136329	26.980049	0.641361	0.034168	-0.999134	-0.023751
0.000000	-26.982378	0.641417	-0.000000	0.999718	-0.023765
0.000000	26.982378	0.641417	-0.000000	-0.999718	-0.023765
2.967994	25.653189	0.831707	-0.743858	-0.667987	-0.021657
-2.967994	25.653189	0.831707	0.743858	-0.667987	-0.021657
2.967994	-25.653189	0.831707	-0.743858	0.667987	-0.021657
-2.967994	-25.653189	0.831707	0.743858	0.667987	-0.021657
2.917773	-25.708017	0.833484	-0.731272	0.681728	-0.022102
2.917773	25.708017	0.833484	-0.731272	-0.681728	-0.022102
-2.917773	-25.708017	0.833484	0.731272	0.681728	-0.022102
-2.917773	25.708017	0.833484	0.731272	-0.681728	-0.022102
2.823081	-25.806070	0.836663	-0.707539	0.706303	-0.022899
2.823081	25.806070	0.836663	-0.707539	-0.706303	-0.022899
-2.823081	-25.806070	0.836663	0.707539	0.706303	-0.022899
-2.823081	25.806070	0.836663	0.707539	-0.706303	-0.022899
2.725093	-25.900833	0.839736	-0.682981	0.730053	-0.023669
2.725093	25.900833	0.839736	-0.682981	-0.730053	-0.023669
-2.725093	-25.900833	0.839736	0.682981	0.730053	-0.023669
-2.725093	25.900833	0.839736	0.682981	-0.730053	-0.023669
2.623922	-25.992193	0.842698	-0.657625	0.752950	-0.024412
2.623922	25.992193	0.842698	-0.657625	-0.752950	-0.024412
-2.623922	-25.992193	0.842698	0.657625	0.752950	-0.024412
-2.623922	25.992193	0.842698	0.657625	-0.752950	-0.024412
2.519687	-26.080046	0.845546	-0.631500	0.774968	-0.025125
2.519687	26.080046	0.845546	-0.631500	-0.774968	-0.025125
-2.519687	-26.080046	0.845546	0.631500	0.774968	-0.025125
-2.519687	26.080046	0.845546	0.631500	-0.774968	-0.025125
2.412509	-26.164286	0.848277	-0.604639	0.796081	-0.025810
2.412509	26.164286	0.848277	-0.604639	-0.796081	-0.025810
-2.412509	-26.164286	0.848277	0.604639	0.796081	-0.025810
-2.412509	26.164286	0.848277	0.604639	-0.796081	-0.025810
2.302515	-26.244818	0.850888	-0.577071	0.816265	-0.026464
2.302515	26.244818	0.850888	-0.577071	-0.816265	-0.026464
-2.302515	-26.244818	0.850888	0.577071	0.816265	-0.026464
-2.302515	26.244818	0.850888	0.577071	-0.816265	-0.026464
2.189831	-26.321547	0.853376	-0.548830	0.835495	-0.027088
2.189831	26.321547	0.853376	-0.548830	-0.835495	-0.027088
-2.189831	-26.321547	0.853376	0.548830	0.835495	-0.027088
-2.189831	26.321547	0.853376	0.548830	-0.835495	-0.027088
2.074590	-26.394382	0.855737	-0.519947	0.853750	-0.027680
2.074590	26.394382	0.855737	-0.519947	-0.853750	-0.027680
-2.074590	-26.394382	0.855737	0.519947	0.853750	-0.027680
-2.074590	26.394382	0.855737	0.519947	-0.853750	-0.027680
1.956927	-26.463240	0.857969	-0.490458	0.871007	-0.028239
1.956927	26.463240	0.857969	-0.490458	-0.871007	-0.028239
-1.956927	-26.463240	0.857969	0.490458	0.871007	-0.028239
-1.956927	26.463240	0.857969	0.490458	-0.871007	-0.028239
1.836978	-26.528040	0.860070	-0.460396	0.887248	-0.028766
1.836978	26.528040	0.860070	-0.460396	-0.887248	-0.028766
-1.836978	-26.528040	0.860070	0.460396	0.887248	-0.028766
-1.836978	26.528040	0.860070	0.460396	-0.887248	-0.028766
1.714885	-26.588705	0.862037	-0.429796	0.902452	-0.029259
1.714885	26.588705	0.862037	-0.429796	-0.902452	-0.029259
-1.714885	-26.588705	0.862037	0.429796	0.902452	-0.029259
-1.714885	26.588705	0.862037	0.429796	-0.902452	-0.029259
1.590788	-26.645166	0.863868	-0.398694	0.916602	-0.029717
1.590788	26.645166	0.863868	-0.398694	-0.916602	-0.029717
-1.590788	-26.645166	0.863868	0.398694	0.916602	-0.029717
-1.590788	26.645166	0.863868	0.398694	-0.916602	-0.029717
1.464834	-26.697355	0.865560	-0.367126	0.929683	-0.030141
1.464834	26.697355	0.865560	-0.367126	-0.929683	-0.030141
-1.464834	-26.697355	0.865560	0.367126	0.929683	-0.030141
-1.464834	26.697355	0.865560	0.367126	-0.929683	-0.030141
1.337170	-26.745213	0.867111	-0.335130	0.941677	-0.030530
1.337170	26.745213	0.867111	-0.335130	-0.941677	-0.030530
-1.337170	-26.745213	0.867111	0.335130	0.941677	-0.030530
-1.337170	26.745213	0.867111	0.335130	-0.941677	-0.030530
1.207943	-26.788683	0.868521	-0.302743	0.952572	-0.030884
1.207943	26.788683	0.868521	-0.302743	-0.952572	-0.030884
-1.207943	-26.788683	0.868521	0.302743	0.952572	-0.030884
-1.207943	26.788683	0.868521	0.302743	-0.952572	-0.030884
1.077307	-26.827715	0.869786	-0.270002	0.962354	-0.031201
1.077307	26.827715	0.869786	-0.270002	-0.962354	-0.031201
-1.077307	-26.827715	0.869786	0.270002	0.962354	-0.031201
-1.077307	26.827715	0.869786	0.270002	-0.962354	-0.031201
0.945412	-26.862263	0.870906	-0.236945	0.971013	-0.031481
0.945412	26.862263	0.870906	-0.236945	-0.971013	-0.031481
-0.945412	-26.862263	0.870906	0.236945	0.971013	-0.031481
-0.945412	26.862263	0.870906	0.236945	-0.971013	-0.031481
0.812413	-26.892286	0.871880	-0.203612	0.978537	-0.031725
0.812413	26.892286	0.871880	-0.203612	-0.978537	-0.031725
-0.812413	-26.892286	0.871880	0.203612	0.978537	-0.031725
-0.812413	26.892286	0.871880	0.203612	-0.978537	-0.031725
0.678465	-26.917749	0.872705	-0.170041	0.984919	-0.031932
0.678465	26.917749	0.872705	-0.170041	-0.984919	-0.031932
-0.678465	-26.917749	0.872705	0.170041	0.984919	-0.031932
-0.678465	26.917749	0.872705	0.170041	-0.984919	-0.031932
0.543725	-26.938625	0.873382	-0.136272	0.990151	-0.032102
0.543725	26.938625	0.873382	-0.136272	-0.990151	-0.032102
-0.543725	-26.938625	0.873382	0.136272	0.990151	-0.032102
-0.543725	26.938625	0.873382	0.136272	-0.990151	-0.032102
0.408351	-26.954885	0.873909	-0.102344	0.994227	-0.032234
0.408351	26.954885	0.873909	-0.102344	-0.994227	-0.032234
-0.408351	-26.954885	0.873909	0.102344	0.994227	-0.032234
-0.408351	26.954885	0.873909	0.102344	-0.994227	-0.032234
0.272499	-26.966515	0.874286	-0.068295	0.997141	-0.032328
-0.272499	-26.966515	0.874286	0.068295	0.997141	-0.032328
0.272499	26.966515	0.874286	-0.068295	-0.997141	-0.032328
-0.272499	26.966515	0.874286	0.068295	-0.997141	-0.032328
0.136329	-26.973497	0.874513	-0.034168	0.998891	-0.032385
-0.136329	-26.973497	0.874513	0.034168	0.998891	-0.032385
0.136329	26.973497	0.874513	-0.034168	-0.998891	-0.032385
-0.136329	26.973497	0.874513	0.034168	-0.998891	-0.032385
0.000000	-26.975826	0.874588	-0.000000	0.999475	-0.032404
0.000000	26.975826	0.874588	-0.000000	-0.999475	-0.032404
2.967994	-25.645042	1.053384	-0.743858	0.667774	-0.027429
-2.967994	-25.645042	1.053384	0.743858	0.667774	-0.027429
2.967994	25.645042	1.053384	-0.743858	-0.667774	-0.027429
-2.967994	25.645042	1.053384	0.743858	-0.667774	-0.027429
2.917773	-25.699854	1.055635	-0.731272	0.681512	-0.027993
2.917773	25.699854	1.055635	-0.731272	-0.681512	-0.027993
-2.917773	-25.699854	1.055635	0.731272	0.681512	-0.027993
-2.917773	25.699854	1.055635	0.731272	-0.681512	-0.027993
2.823081	-25.797876	1.059661	-0.707539	0.706079	-0.029003
2.823081	25.797876	1.059661	-0.707539	-0.706079	-0.029003
-2.823081	-25.797876	1.059661	0.707539	0.706079	-0.029003
-2.823081	25.797876	1.059661	0.707539	-0.706079	-0.029003
2.725093	-25.892609	1.063552	-0.682981	0.729821	-0.029978
2.725093	25.892609	1.063552	-0.682981	-0.729821	-0.029978
-2.725093	-25.892609	1.063552	0.682981	0.729821	-0.029978
-2.725093	25.892609	1.063552	0.682981	-0.729821	-0.029978
2.623922	-25.983940	1.067304	-0.657625	0.752711	-0.030918
2.623922	25.983940	1.067304	-0.657625	-0.752711	-0.030918
-2.623922	-25.983940	1.067304	0.657625	0.752711	-0.030918
-2.623922	25.983940	1.067304	0.657625	-0.752711	-0.030918
2.519687	-26.071764	1.070911	-0.631500	0.774722	-0.031822
2.519687	26.071764	1.070911	-0.631500	-0.774722	-0.031822
-2.519687	-26.071764	1.070911	0.631500	0.774722	-0.031822
-2.519687	26.071764	1.070911	0.631500	-0.774722	-0.031822
2.412509	-26.155977	1.074371	-0.604639	0.795829	-0.032689
2.412509	26.155977	1.074371	-0.604639	-0.795829	-0.032689
-2.412509	-26.155977	1.074371	0.604639	0.795829	-0.032689
-2.412509	26.155977	1.074371	0.604639	-0.795829	-0.032689
2.302515	-26.236485	1.077677	-0.577071	0.816006	-0.033518
2.302515	26.236485	1.077677	-0.577071	-0.816006	-0.033518
-2.302515	-26.236485	1.077677	0.577071	0.816006	-0.033518
-2.302515	26.236485	1.077677	0.577071	-0.816006	-0.033518
2.189831	-26.313189	1.080828	-0.548830	0.835230	-0.034308
2.189831	26.313189	1.080828	-0.548830	-0.835230	-0.034308
-2.189831	-26.313189	1.080828	0.548830	0.835230	-0.034308
-2.189831	26.313189	1.080828	0.548830	-0.835230	-0.034308
2.074590	-26.386002	1.083819	-0.519947	0.853479	-0.035057
2.074590	26.386002	1.083819	-0.519947	-0.853479	-0.035057
-2.074590	-26.386002	1.083819	0.519947	0.853479	-0.035057
-2.074590	26.386002	1.083819	0.519947	-0.853479	-0.035057
1.956927	-26.454838	1.086646	-0.490458	0.870731	-0.035766
1.956927	26.454838	1.086646	-0.490458	-0.870731	-0.035766
-1.956927	-26.454838	1.086646	0.490458	0.870731	-0.035766
-1.956927	26.454838	1.086646	0.490458	-0.870731	-0.035766
1.836978	-26.519615	1.089307	-0.460396	0.886966	-0.036433
1.836978	26.519615	1.089307	-0.460396	-0.886966	-0.036433
-1.836978	-26.519615	1.089307	0.460396	0.886966	-0.036433
-1.836978	26.519615	1.089307	0.460396	-0.886966	-0.036433
1.714885	-26.580261	1.091798	-0.429796	0.902165	-0.037057
1.714885	26.580261	1.091798	-0.429796	-0.902165	-0.037057
-1.714885	-26.580261	1.091798	0.429796	0.902165	-0.037057
-1.714885	26.580261	1.091798	0.429796	-0.902165	-0.037057
1.590788	-26.636703	1.094117	-0.398694	0.916311	-0.037638
1.590788	26.636703	1.094117	-0.398694	-0.916311	-0.037638
-1.590788	-26.636703	1.094117	0.398694	0.916311	-0.037638
-1.590788	26.636703	1.094117	0.398694	-0.916311	-0.037638
1.464834	-26.688877	1.096260	-0.367126	0.929387	-0.038175
1.464834	26.688877	1.096260	-0.367126	-0.929387	-0.038175
-1.464834	-26.688877	1.096260	0.367126	0.929387	-0.038175
-1.464834	26.688877	1.096260	0.367126	-0.929387	-0.038175
1.337170	-26.736719	1.098225	-0.335130	0.941378	-0.038668
1.337170	26.736719	1.098225	-0.335130	-0.941378	-0.038668
-1.337170	-26.736719	1.098225	0.335130	0.941378	-0.038668
-1.337170	26.736719	1.098225	0.335130	-0.941378	-0.038668
1.207943	-26.780176	1.100010	-0.302743	0.952269	-0.039115
1.207943	26.780176	1.100010	-0.302743	-0.952269	-0.039115
-1.207943	-26.780176	1.100010	0.302743	0.952269	-0.039115
-1.207943	26.780176	1.100010	0.302743	-0.952269	-0.039115
1.077307	-26.819195	1.101613	-0.270002	0.962049	-0.039517
1.077307	26.819195	1.101613	-0.270002	-0.962049	-0.039517
-1.077307	-26.819195	1.101613	0.270002	0.962049	-0.039517
-1.077307	26.819195	1.101613	0.270002	-0.962049	-0.039517
0.945412	-26.853733	1.103031	-0.236945	0.970704	-0.039872
0.945412	26.853733	1.103031	-0.236945	-0.970704	-0.039872
-0.945412	-26.853733	1.103031	0.236945	0.970704	-0.039872
-0.945412	26.853733	1.103031	0.236945	-0.970704	-0.039872
0.812413	-26.883747	1.104264	-0.203612	0.978227	-0.040181
0.812413	26.883747	1.104264	-0.203612	-0.978227	-0.040181
-0.812413	-26.883747	1.104264	0.203612	0.978227	-0.040181
-0.812413	26.883747	1.104264	0.203612	-0.978227	-0.040181
0.678465	-26.909203	1.105310	-0.170041	0.984607	-0.040443
0.678465	26.909203	1.105310	-0.170041	-0.984607	-0.040443
-0.678465	-26.909203	1.105310	0.170041	0.984607	-0.040443
-0.678465	26.909203	1.105310	0.170041	-0.984607	-0.040443
0.543725	-26.930071	1.106167	-0.136272	0.989837	-0.040658
0.543725	26.930071	1.106167	-0.136272	-0.989837	-0.040658
-0.543725	-26.930071	1.106167	0.136272	0.989837	-0.040658
-0.543725	26.930071	1.106167	0.136272	-0.989837	-0.040658
0.408351	-26.946327	1.106835	-0.102344	0.993911	-0.040825
0.408351	26.946327	1.106835	-0.102344	-0.993911	-0.040825
-0.408351	-26.946327	1.106835	0.102344	0.993911	-0.040825
-0.408351	26.946327	1.106835	0.102344	-0.993911	-0.040825
0.272499	-26.957952	1.107312	-0.068295	0.996825	-0.040945
0.272499	26.957952	1.107312	-0.068295	-0.996825	-0.040945
-0.272499	-26.957952	1.107312	0.068295	0.996825	-0.040945
-0.272499	26.957952	1.107312	0.068295	-0.996825	-0.040945
0.136329	-26.964931	1.107599	-0.034168	0.998574	-0.041017
-0.136329	-26.964931	1.107599	0.034168	0.998574	-0.041017
0.136329	26.964931	1.107599	-0.034168	-0.998574	-0.041017
-0.136329	26.964931	1.107599	0.034168	-0.998574	-0.041017
0.000000	-26.967260	1.107694	-0.000000	0.999157	-0.041041
0.000000	26.967260	1.107694	-0.000000	-0.999157	-0.041041
2.967994	-25.634979	1.274982	-0.743858	0.667512	-0.033199
-2.967994	-25.634979	1.274982	0.743858	0.667512	-0.033199
2.967994	25.634979	1.274982	-0.743858	-0.667512	-0.033199
-2.967994	25.634979	1.274982	0.743858	-0.667512	-0.033199
2.917773	-25.689772	1.277707	-0.731272	0.681244	-0.033882
2.917773	25.689772	1.277707	-0.731272	-0.681244	-0.033882
-2.917773	-25.689772	1.277707	0.731272	0.681244	-0.033882
-2.917773	25.689772	1.277707	0.731272	-0.681244	-0.033882
2.823081	-25.787754	1.282580	-0.707539	0.705802	-0.035104
2.823081	25.787754	1.282580	-0.707539	-0.705802	-0.035104
-2.823081	-25.787754	1.282580	0.707539	0.705802	-0.035104
-2.823081	25.787754	1.282580	0.707539	-0.705802	-0.035104
2.725093	-25.882448	1.287290	-0.682981	0.729535	-0.036284
2.725093	25.882448	1.287290	-0.682981	-0.729535	-0.036284
-2.725093	-25.882448	1.287290	0.682981	0.729535	-0.036284
-2.725093	25.882448	1.287290	0.682981	-0.729535	-0.036284
2.623922	-25.973745	1.291831	-0.657625	0.752416	-0.037422
2.623922	25.973745	1.291831	-0.657625	-0.752416	-0.037422
-2.623922	-25.973745	1.291831	0.657625	0.752416	-0.037422
-2.623922	25.973745	1.291831	0.657625	-0.752416	-0.037422
2.519687	-26.061535	1.296197	-0.631500	0.774418	-0.038516
2.519687	26.061535	1.296197	-0.631500	-0.774418	-0.038516
-2.519687	-26.061535	1.296197	0.631500	0.774418	-0.038516
-2.519687	26.061535	1.296197	0.631500	-0.774418	-0.038516
2.412509	-26.145716	1.300384	-0.604639	0.795516	-0.039566
2.412509	26.145716	1.300384	-0.604639	-0.795516	-0.039566
-2.412509	-26.145716	1.300384	0.604639	0.795516	-0.039566
-2.412509	26.145716	1.300384	0.604639	-0.795516	-0.039566
2.302515	-26.226191	1.304386	-0.577071	0.815686	-0.040569
2.302515	26.226191	1.304386	-0.577071	-0.815686	-0.040569
-2.302515	-26.226191	1.304386	0.577071	0.815686	-0.040569
-2.302515	26.226191	1.304386	0.577071	-0.815686	-0.040569
2.189831	-26.302864	1.308200	-0.548830	0.834902	-0.041525
2.189831	26.302864	1.308200	-0.548830	-0.834902	-0.041525
-2.189831	-26.302864	1.308200	0.548830	0.834902	-0.041525
-2.189831	26.302864	1.308200	0.548830	-0.834902	-0.041525
2.074590	-26.375648	1.311820	-0.519947	0.853144	-0.042432
2.074590	26.375648	1.311820	-0.519947	-0.853144	-0.042432
-2.074590	-26.375648	1.311820	0.519947	0.853144	-0.042432
-2.074590	26.375648	1.311820	0.519947	-0.853144	-0.042432
1.956927	-26.444458	1.315242	-0.490458	0.870389	-0.043290
1.956927	26.444458	1.315242	-0.490458	-0.870389	-0.043290
-1.956927	-26.444458	1.315242	0.490458	0.870389	-0.043290
-1.956927	26.444458	1.315242	0.490458	-0.870389	-0.043290
1.836978	-26.509211	1.318463	-0.460396	0.886618	-0.044097
1.836978	26.509211	1.318463	-0.460396	-0.886618	-0.044097
-1.836978	-26.509211	1.318463	0.460396	0.886618	-0.044097
-1.836978	26.509211	1.318463	0.460396	-0.886618	-0.044097
1.714885	-26.569834	1.321478	-0.429796	0.901811	-0.044853
1.714885	26.569834	1.321478	-0.429796	-0.901811	-0.044853
-1.714885	-26.569834	1.321478	0.429796	0.901811	-0.044853
-1.714885	26.569834	1.321478	0.429796	-0.901811	-0.044853
1.590788	-26.626253	1.324284	-0.398694	0.915952	-0.045556
1.590788	26.626253	1.324284	-0.398694	-0.915952	-0.045556
-1.590788	-26.626253	1.324284	0.398694	0.915952	-0.045556
-1.590788	26.626253	1.324284	0.398694	-0.915952	-0.045556
1.464834	-26.678406	1.326878	-0.367126	0.929023	-0.046206
1.464834	26.678406	1.326878	-0.367126	-0.929023	-0.046206
-1.464834	-26.678406	1.326878	0.367126	0.929023	-0.046206
-1.464834	26.678406	1.326878	0.367126	-0.929023	-0.046206
1.337170	-26.726231	1.329256	-0.335130	0.941009	-0.046802
1.337170	26.726231	1.329256	-0.335130	-0.941009	-0.046802
-1.337170	-26.726231	1.329256	0.335130	0.941009	-0.046802
-1.337170	26.726231	1.329256	0.335130	-0.941009	-0.046802
1.207943	-26.769669	1.331417	-0.302743	0.951896	-0.047344
1.207943	26.769669	1.331417	-0.302743	-0.951896	-0.047344
-1.207943	-26.769669	1.331417	0.302743	0.951896	-0.047344
-1.207943	26.769669	1.331417	0.302743	-0.951896	-0.047344
1.077307	-26.808674	1.333357	-0.270002	0.961671	-0.047830
1.077307	26.808674	1.333357	-0.270002	-0.961671	-0.047830
-1.077307	-26.808674	1.333357	0.270002	0.961671	-0.047830
-1.077307	26.808674	1.333357	0.270002	-0.961671	-0.047830
0.945412	-26.843197	1.335074	-0.236945	0.970324	-0.048260
0.945412	26.843197	1.335074	-0.236945	-0.970324	-0.048260
-0.945412	-26.843197	1.335074	0.236945	0.970324	-0.048260
-0.945412	26.843197	1.335074	0.236945	-0.970324	-0.048260
0.812413	-26.873199	1.336566	-0.203612	0.977843	-0.048634
0.812413	26.873199	1.336566	-0.203612	-0.977843	-0.048634
-0.812413	-26.873199	1.336566	0.203612	0.977843	-0.048634
-0.812413	26.873199	1.336566	0.203612	-0.977843	-0.048634
0.678465	-26.898645	1.337831	-0.170041	0.984220	-0.048951
0.678465	26.898645	1.337831	-0.170041	-0.984220	-0.048951
-0.678465	-26.898645	1.337831	0.170041	0.984220	-0.048951
-0.678465	26.898645	1.337831	0.170041	-0.984220	-0.048951
0.543725	-26.919504	1.338869	-0.136272	0.989448	-0.049211
0.543725	26.919504	1.338869	-0.136272	-0.989448	-0.049211
-0.543725	-26.919504	1.338869	0.136272	0.989448	-0.049211
-0.543725	26.919504	1.338869	0.136272	-0.989448	-0.049211
0.408351	-26.935755	1.339677	-0.102344	0.993521	-0.049414
0.408351	26.935755	1.339677	-0.102344	-0.993521	-0.049414
-0.408351	-26.935755	1.339677	0.102344	0.993521	-0.049414
-0.408351	26.935755	1.339677	0.102344	-0.993521	-0.049414
0.272499	-26.947374	1.340255	-0.068295	0.996433	-0.049559
0.272499	26.947374	1.340255	-0.068295	-0.996433	-0.049559
-0.272499	-26.947374	1.340255	0.068295	0.996433	-0.049559
-0.272499	26.947374	1.340255	0.068295	-0.996433	-0.049559
0.136329	-26.954353	1.340602	-0.034168	0.998182	-0.049646
0.136329	26.954353	1.340602	-0.034168	-0.998182	-0.049646
-0.136329	-26.954353	1.340602	0.034168	0.998182	-0.049646
-0.136329	26.954353	1.340602	0.034168	-0.998182	-0.049646
0.000000	-26.956680	1.340718	-0.000000	0.998765	-0.049675
0.000000	26.956680	1.340718	-0.000000	-0.998765	-0.049675
2.967994	-25.623003	1.496485	-0.743858	0.667201	-0.038967
-2.967994	-25.623003	1.496485	0.743858	0.667201	-0.038967
2.967994	25.623003	1.496485	-0.743858	-0.667201	-0.038967
-2.967994	25.623003	1.496485	0.743858	-0.667201	-0.038967
2.917773	25.677769	1.499683	-0.731272	-0.680926	-0.039769
2.917773	-25.677769	1.499683	-0.731272	0.680926	-0.039769
-2.917773	25.677769	1.499683	0.731272	-0.680926	-0.039769
-2.917773	-25.677769	1.499683	0.731272	0.680926	-0.039769
2.823081	25.775707	1.505403	-0.707539	-0.705472	-0.041202
2.823081	-25.775707	1.505403	-0.707539	0.705472	-0.041202
-2.823081	25.775707	1.505403	0.707539	-0.705472	-0.041202
-2.823081	-25.775707	1.505403	0.707539	0.705472	-0.041202
2.725093	25.870358	1.510931	-0.682981	-0.729194	-0.042588
2.725093	-25.870358	1.510931	-0.682981	0.729194	-0.042588
-2.725093	25.870358	1.510931	0.682981	-0.729194	-0.042588
-2.725093	-25.870358	1.510931	0.682981	0.729194	-0.042588
2.623922	25.961611	1.516261	-0.657625	-0.752064	-0.043924
2.623922	-25.961611	1.516261	-0.657625	0.752064	-0.043924
-2.623922	25.961611	1.516261	0.657625	-0.752064	-0.043924
-2.623922	-25.961611	1.516261	0.657625	0.752064	-0.043924
2.519687	26.049358	1.521386	-0.631500	-0.774056	-0.045208
2.519687	-26.049358	1.521386	-0.631500	0.774056	-0.045208
-2.519687	26.049358	1.521386	0.631500	-0.774056	-0.045208
-2.519687	-26.049358	1.521386	0.631500	0.774056	-0.045208
2.412509	26.133501	1.526300	-0.604639	-0.795145	-0.046440
2.412509	-26.133501	1.526300	-0.604639	0.795145	-0.046440
-2.412509	26.133501	1.526300	0.604639	-0.795145	-0.046440
-2.412509	-26.133501	1.526300	0.604639	0.795145	-0.046440
2.302515	26.213938	1.530998	-0.577071	-0.815304	-0.047617
2.302515	-26.213938	1.530998	-0.577071	0.815304	-0.047617
-2.302515	26.213938	1.530998	0.577071	-0.815304	-0.047617
-2.302515	-26.213938	1.530998	0.577071	0.815304	-0.047617
2.189831	26.290577	1.535474	-0.548830	-0.834512	-0.048739
2.189831	-26.290577	1.535474	-0.548830	0.834512	-0.048739
-2.189831	26.290577	1.535474	0.548830	-0.834512	-0.048739
-2.189831	-26.290577	1.535474	0.548830	0.834512	-0.048739
2.074590	26.363327	1.539723	-0.519947	-0.852745	-0.049804
2.074590	-26.363327	1.539723	-0.519947	0.852745	-0.049804
-2.074590	26.363327	1.539723	0.519947	-0.852745	-0.049804
-2.074590	-26.363327	1.539723	0.519947	0.852745	-0.049804
1.956927	26.432102	1.543740	-0.490458	-0.869982	-0.050810
1.956927	-26.432102	1.543740	-0.490458	0.869982	-0.050810
-1.956927	26.432102	1.543740	0.490458	-0.869982	-0.050810
-1.956927	-26.432102	1.543740	0.490458	0.869982	-0.050810
1.836978	26.496826	1.547520	-0.460396	-0.886204	-0.051758
1.836978	-26.496826	1.547520	-0.460396	0.886204	-0.051758
-1.836978	26.496826	1.547520	0.460396	-0.886204	-0.051758
-1.836978	-26.496826	1.547520	0.460396	0.886204	-0.051758
1.714885	26.557421	1.551059	-0.429796	-0.901390	-0.052645
1.714885	-26.557421	1.551059	-0.429796	0.901390	-0.052645
-1.714885	26.557421	1.551059	0.429796	-0.901390	-0.052645
-1.714885	-26.557421	1.551059	0.429796	0.901390	-0.052645
1.590788	26.613813	1.554352	-0.398694	-0.915524	-0.053470
1.590788	-26.613813	1.554352	-0.398694	0.915524	-0.053470
-1.590788	26.613813	1.554352	0.398694	-0.915524	-0.053470
-1.590788	-26.613813	1.554352	0.398694	0.915524	-0.053470
1.464834	26.665943	1.557397	-0.367126	-0.928589	-0.054233
1.464834	-26.665943	1.557397	-0.367126	0.928589	-0.054233
-1.464834	26.665943	1.557397	0.367126	-0.928589	-0.054233
-1.464834	-26.665943	1.557397	0.367126	0.928589	-0.054233
1.337170	26.713743	1.560188	-0.335130	-0.940569	-0.054933
1.337170	-26.713743	1.560188	-0.335130	0.940569	-0.054933
-1.337170	26.713743	1.560188	0.335130	-0.940569	-0.054933
-1.337170	-26.713743	1.560188	0.335130	0.940569	-0.054933
1.207943	26.757162	1.562724	-0.302743	-0.951451	-0.055569
1.207943	-26.757162	1.562724	-0.302743	0.951451	-0.055569
-1.207943	26.757162	1.562724	0.302743	-0.951451	-0.055569
-1.207943	-26.757162	1.562724	0.302743	0.951451	-0.055569
1.077307	26.796148	1.565001	-0.270002	-0.961222	-0.056139
1.077307	-26.796148	1.565001	-0.270002	0.961222	-0.056139
-1.077307	26.796148	1.565001	0.270002	-0.961222	-0.056139
-1.077307	-26.796148	1.565001	0.270002	0.961222	-0.056139
0.945412	26.830656	1.567017	-0.236945	-0.969870	-0.056644
0.945412	-26.830656	1.567017	-0.236945	0.969870	-0.056644
-0.945412	26.830656	1.567017	0.236945	-0.969870	-0.056644
-0.945412	-26.830656	1.567017	0.236945	0.969870	-0.056644
0.812413	26.860643	1.568768	-0.203612	-0.977386	-0.057083
0.812413	-26.860643	1.568768	-0.203612	0.977386	-0.057083
-0.812413	26.860643	1.568768	0.203612	-0.977386	-0.057083
-0.812413	-26.860643	1.568768	0.203612	0.977386	-0.057083
0.678465	26.886078	1.570253	-0.170041	-0.983761	-0.057456
0.678465	-26.886078	1.570253	-0.170041	0.983761	-0.057456
-0.678465	26.886078	1.570253	0.170041	-0.983761	-0.057456
-0.678465	-26.886078	1.570253	0.170041	0.983761	-0.057456
0.543725	26.906929	1.571471	-0.136272	-0.988986	-0.057761
0.543725	-26.906929	1.571471	-0.136272	0.988986	-0.057761
-0.543725	26.906929	1.571471	0.136272	-0.988986	-0.057761
-0.543725	-26.906929	1.571471	0.136272	0.988986	-0.057761
0.408351	26.923170	1.572420	-0.102344	-0.993057	-0.057998
0.408351	-26.923170	1.572420	-0.102344	0.993057	-0.057998
-0.408351	26.923170	1.572420	0.102344	-0.993057	-0.057998
-0.408351	-26.923170	1.572420	0.102344	0.993057	-0.057998
0.272499	26.934786	1.573098	-0.068295	-0.995968	-0.058168
0.272499	-26.934786	1.573098	-0.068295	0.995968	-0.058168
-0.272499	26.934786	1.573098	0.068295	-0.995968	-0.058168
-0.272499	-26.934786	1.573098	0.068295	0.995968	-0.058168
0.136329	26.941759	1.573506	-0.034168	-0.997716	-0.058271
0.136329	-26.941759	1.573506	-0.034168	0.997716	-0.058271
-0.136329	26.941759	1.573506	0.034168	-0.997716	-0.058271
-0.136329	-26.941759	1.573506	0.034168	0.997716	-0.058271
0.000000	26.944086	1.573641	-0.000000	-0.998299	-0.058305
0.000000	-26.944086	1.573641	-0.000000	0.998299	-0.058305
2.967994	-25.609114	1.717876	-0.743858	0.666839	-0.044732
-2.967994	-25.609114	1.717876	0.743858	0.666839	-0.044732
2.967994	25.609114	1.717876	-0.743858	-0.666839	-0.044732
-2.967994	25.609114	1.717876	0.743858	-0.666839	-0.044732
2.917773	25.663849	1.721548	-0.731272	-0.680557	-0.045652
2.917773	-25.663849	1.721548	-0.731272	0.680557	-0.045652
-2.917773	25.663849	1.721548	0.731272	-0.680557	-0.045652
-2.917773	-25.663849	1.721548	0.731272	0.680557	-0.045652
2.823081	25.761734	1.728114	-0.707539	-0.705090	-0.047298
2.823081	-25.761734	1.728114	-0.707539	0.705090	-0.047298
-2.823081	25.761734	1.728114	0.707539	-0.705090	-0.047298
-2.823081	-25.761734	1.728114	0.707539	0.705090	-0.047298
2.725093	25.856333	1.734460	-0.682981	-0.728799	-0.048888
2.725093	-25.856333	1.734460	-0.682981	0.728799	-0.048888
-2.725093	25.856333	1.734460	0.682981	-0.728799	-0.048888
-2.725093	-25.856333	1.734460	0.682981	0.728799	-0.048888
2.623922	25.947536	1.740578	-0.657625	-0.751657	-0.050422
2.623922	-25.947536	1.740578	-0.657625	0.751657	-0.050422
-2.623922	25.947536	1.740578	0.657625	-0.751657	-0.050422
-2.623922	-25.947536	1.740578	0.657625	0.751657	-0.050422
2.519687	26.035236	1.746461	-0.631500	-0.773637	-0.051896
2.519687	-26.035236	1.746461	-0.631500	0.773637	-0.051896
-2.519687	26.035236	1.746461	0.631500	-0.773637	-0.051896
-2.519687	-26.035236	1.746461	0.631500	0.773637	-0.051896
2.412509	26.119333	1.752102	-0.604639	-0.794714	-0.053310
2.412509	-26.119333	1.752102	-0.604639	0.794714	-0.053310
-2.412509	26.119333	1.752102	0.604639	-0.794714	-0.053310
-2.412509	-26.119333	1.752102	0.604639	0.794714	-0.053310
2.302515	26.199728	1.757495	-0.577071	-0.814862	-0.054662
2.302515	-26.199728	1.757495	-0.577071	0.814862	-0.054662
-2.302515	26.199728	1.757495	0.577071	-0.814862	-0.054662
-2.302515	-26.199728	1.757495	0.577071	0.814862	-0.054662
2.189831	26.276323	1.762633	-0.548830	-0.834060	-0.055949
2.189831	-26.276323	1.762633	-0.548830	0.834060	-0.055949
-2.189831	26.276323	1.762633	0.548830	-0.834060	-0.055949
-2.189831	-26.276323	1.762633	0.548830	0.834060	-0.055949
2.074590	26.349035	1.767511	-0.519947	-0.852283	-0.057172
2.074590	-26.349035	1.767511	-0.519947	0.852283	-0.057172
-2.074590	26.349035	1.767511	0.519947	-0.852283	-0.057172
-2.074590	-26.349035	1.767511	0.519947	0.852283	-0.057172
1.956927	26.417774	1.772122	-0.490458	-0.869511	-0.058327
1.956927	-26.417774	1.772122	-0.490458	0.869511	-0.058327
-1.956927	26.417774	1.772122	0.490458	-0.869511	-0.058327
-1.956927	-26.417774	1.772122	0.490458	0.869511	-0.058327
1.836978	26.482462	1.776461	-0.460396	-0.885723	-0.059415
1.836978	-26.482462	1.776461	-0.460396	0.885723	-0.059415
-1.836978	26.482462	1.776461	0.460396	-0.885723	-0.059415
-1.836978	-26.482462	1.776461	0.460396	0.885723	-0.059415
1.714885	26.543024	1.780523	-0.429796	-0.900901	-0.060433
1.714885	-26.543024	1.780523	-0.429796	0.900901	-0.060433
-1.714885	26.543024	1.780523	0.429796	-0.900901	-0.060433
-1.714885	-26.543024	1.780523	0.429796	0.900901	-0.060433
1.590788	26.599386	1.784304	-0.398694	-0.915028	-0.061381
1.590788	-26.599386	1.784304	-0.398694	0.915028	-0.061381
-1.590788	26.599386	1.784304	0.398694	-0.915028	-0.061381
-1.590788	-26.599386	1.784304	0.398694	0.915028	-0.061381
1.464834	26.651487	1.787799	-0.367126	-0.928085	-0.062257
1.464834	-26.651487	1.787799	-0.367126	0.928085	-0.062257
-1.464834	26.651487	1.787799	0.367126	-0.928085	-0.062257
-1.464834	-26.651487	1.787799	0.367126	0.928085	-0.062257
1.337170	26.699263	1.791004	-0.335130	-0.940059	-0.063060
1.337170	-26.699263	1.791004	-0.335130	0.940059	-0.063060
-1.337170	26.699263	1.791004	0.335130	-0.940059	-0.063060
-1.337170	-26.699263	1.791004	0.335130	0.940059	-0.063060
1.207943	26.742657	1.793915	-0.302743	-0.950935	-0.063789
1.207943	-26.742657	1.793915	-0.302743	0.950935	-0.063789
-1.207943	26.742657	1.793915	0.302743	-0.950935	-0.063789
-1.207943	-26.742657	1.793915	0.302743	0.950935	-0.063789
1.077307	26.781622	1.796529	-0.270002	-0.960701	-0.064444
1.077307	-26.781622	1.796529	-0.270002	0.960701	-0.064444
-1.077307	26.781622	1.796529	0.270002	-0.960701	-0.064444
-1.077307	-26.781622	1.796529	0.270002	0.960701	-0.064444
0.945412	26.816111	1.798842	-0.236945	-0.969344	-0.065024
0.945412	-26.816111	1.798842	-0.236945	0.969344	-0.065024
-0.945412	26.816111	1.798842	0.236945	-0.969344	-0.065024
-0.945412	-26.816111	1.798842	0.236945	0.969344	-0.065024
0.812413	26.846083	1.800853	-0.203612	-0.976856	-0.065528
0.812413	-26.846083	1.800853	-0.203612	0.976856	-0.065528
-0.812413	26.846083	1.800853	0.203612	-0.976856	-0.065528
-0.812413	-26.846083	1.800853	0.203612	0.976856	-0.065528
0.678465	26.871502	1.802558	-0.170041	-0.983227	-0.065956
0.678465	-26.871502	1.802558	-0.170041	0.983227	-0.065956
-0.678465	26.871502	1.802558	0.170041	-0.983227	-0.065956
-0.678465	-26.871502	1.802558	0.170041	0.983227	-0.065956
0.543725	26.892342	1.803956	-0.136272	-0.988450	-0.066306
0.543725	-26.892342	1.803956	-0.136272	0.988450	-0.066306
-0.543725	26.892342	1.803956	0.136272	-0.988450	-0.066306
-0.543725	-26.892342	1.803956	0.136272	0.988450	-0.066306
0.408351	26.908575	1.805045	-0.102344	-0.992519	-0.066579
0.408351	-26.908575	1.805045	-0.102344	0.992519	-0.066579
-0.408351	26.908575	1.805045	0.102344	-0.992519	-0.066579
-0.408351	-26.908575	1.805045	0.102344	0.992519	-0.066579
0.272499	26.920183	1.805824	-0.068295	-0.995428	-0.066774
0.272499	-26.920183	1.805824	-0.068295	0.995428	-0.066774
-0.272499	26.920183	1.805824	0.068295	-0.995428	-0.066774
-0.272499	-26.920183	1.805824	0.068295	0.995428	-0.066774
0.136329	26.927155	1.806291	-0.034168	-0.997175	-0.066891
0.136329	-26.927155	1.806291	-0.034168	0.997175	-0.066891
-0.136329	26.927155	1.806291	0.034168	-0.997175	-0.066891
-0.136329	-26.927155	1.806291	0.034168	0.997175	-0.066891
0.000000	26.929480	1.806447	-0.000000	-0.997758	-0.066930
0.000000	-26.929480	1.806447	-0.000000	0.997758	-0.066930
2.967994	-25.593309	1.939139	-0.743858	0.666427	-0.050493
-2.967994	-25.593309	1.939139	0.743858	0.666427	-0.050493
2.967994	25.593309	1.939139	-0.743858	-0.666427	-0.050493
-2.967994	25.593309	1.939139	0.743858	-0.666427	-0.050493
2.917773	25.648012	1.943284	-0.731272	-0.680137	-0.051532
2.917773	-25.648012	1.943284	-0.731272	0.680137	-0.051532
-2.917773	25.648012	1.943284	0.731272	-0.680137	-0.051532
-2.917773	-25.648012	1.943284	0.731272	0.680137	-0.051532
2.823081	25.745836	1.950696	-0.707539	-0.704654	-0.053390
2.823081	-25.745836	1.950696	-0.707539	0.704654	-0.053390
-2.823081	25.745836	1.950696	0.707539	-0.704654	-0.053390
-2.823081	-25.745836	1.950696	0.707539	0.704654	-0.053390
2.725093	25.840376	1.957859	-0.682981	-0.728349	-0.055185
2.725093	-25.840376	1.957859	-0.682981	0.728349	-0.055185
-2.725093	25.840376	1.957859	0.682981	-0.728349	-0.055185
-2.725093	-25.840376	1.957859	0.682981	0.728349	-0.055185
2.623922	25.931524	1.964765	-0.657625	-0.751193	-0.056916
2.623922	-25.931524	1.964765	-0.657625	0.751193	-0.056916
-2.623922	25.931524	1.964765	0.657625	-0.751193	-0.056916
-2.623922	-25.931524	1.964765	0.657625	0.751193	-0.056916
2.519687	26.019171	1.971406	-0.631500	-0.773159	-0.058580
2.519687	-26.019171	1.971406	-0.631500	0.773159	-0.058580
-2.519687	26.019171	1.971406	0.631500	-0.773159	-0.058580
-2.519687	-26.019171	1.971406	0.631500	0.773159	-0.058580
2.412509	26.103216	1.977773	-0.604639	-0.794223	-0.060176
2.412509	-26.103216	1.977773	-0.604639	0.794223	-0.060176
-2.412509	26.103216	1.977773	0.604639	-0.794223	-0.060176
-2.412509	-26.103216	1.977773	0.604639	0.794223	-0.060176
2.302515	26.183559	1.983861	-0.577071	-0.814360	-0.061702
2.302515	-26.183559	1.983861	-0.577071	0.814360	-0.061702
-2.302515	26.183559	1.983861	0.577071	-0.814360	-0.061702
-2.302515	-26.183559	1.983861	0.577071	0.814360	-0.061702
2.189831	26.260109	1.989661	-0.548830	-0.833545	-0.063156
