-0.390665 0.089724 0.361068
-0.652441 -0.350219 -0.491636
-0.569967 0.398705 -0.030595
0.656437 -0.338221 0.341923
-0.333967 -0.270415 -0.661136
-0.593449 0.136929 -0.246545
0.123974 -0.386622 -0.055217
0.047702 0.017461 0.647742
-0.123610 -0.386622 0.222540
0.394661 0.082692 -0.008618
0.221269 0.398705 0.207273
-0.537103 -0.386622 -0.069311
0.279219 -0.386622 0.086130
-0.390665 0.008506 0.157799
-0.568600 -0.212105 0.298260
-0.421713 0.136929 -0.240029
-0.620193 0.398705 -0.630276
0.394661 -0.113712 -0.018677
-0.614709 -0.386622 0.632922
-0.494630 0.398705 -0.312114
0.443137 0.398705 -0.262863
0.173521 -0.386622 -0.069865
0.394661 -0.187230 0.022713
0.193498 0.398705 0.512885
-0.092396 -0.386622 0.087718
0.191079 -0.318398 -0.661136
-0.652441 0.225377 -0.104012
0.131627 0.398705 0.550207
-0.259584 -0.386622 -0.569238
0.064834 0.221243 -0.661136
0.594206 0.136929 0.196510
0.647720 0.203915 0.647742
0.203425 -0.386622 0.466095
-0.566718 -0.212105 0.490755
-0.445811 0.136929 -0.245607
-0.144985 -0.386622 -0.579293
0.488443 -0.212105 -0.185128
-0.067394 -0.007602 0.647742
0.345419 0.298498 -0.661136
0.656437 0.199337 0.315486
-0.577686 0.398705 -0.424457
0.553093 -0.212105 0.190889
0.318501 0.099076 0.647742
-0.094022 0.398705 -0.107127
-0.652441 0.262262 -0.358626
0.618226 0.160343 0.647742
0.189926 -0.386622 0.146211
0.656437 0.290018 -0.437786
-0.001887 0.398705 -0.014884
-0.651976 0.264096 0.647742
-0.011462 0.398705 0.501823
-0.577128 -0.212105 -0.191197
-0.119944 -0.386622 -0.512518
-0.497851 0.398705 0.076105
-0.048145 0.093819 0.647742
0.040042 0.398705 -0.337924
-0.127620 0.398705 -0.525200
0.399530 -0.212105 -0.187213
-0.122105 -0.386622 -0.230269
0.394661 -0.178204 0.344599
-0.652441 0.254258 -0.175749
-0.483450 0.189608 -0.661136
-0.407018 0.136929 0.306443
0.613820 0.142598 0.647742
0.394661 -0.066166 0.454966
-0.390225 0.398705 -0.395354
0.394661 -0.174766 0.128436
-0.390665 0.016464 0.499798
-0.527584 -0.212105 -0.193586
0.656437 -0.372424 0.147376
0.235958 -0.131134 0.647742
0.271087 0.398705 0.534666
-0.357776 -0.386622 0.565390
-0.652441 0.363802 -0.137472
0.394661 -0.081972 -0.209619
0.307926 -0.386622 0.462032
0.656437 -0.263921 -0.099558
0.425416 -0.212105 -0.654485
-0.644847 0.136929 0.153571
0.516266 0.363371 0.647742
-0.191814 0.398705 -0.265363
0.171755 -0.187951 -0.661136
0.656437 -0.218004 0.256214
0.641890 -0.212105 -0.105842
0.323408 0.398705 0.005366
0.656437 0.165329 0.480433
-0.102769 0.151331 0.647742
0.589977 0.136929 -0.488111
0.394661 -0.206853 -0.200787
-0.083070 0.398705 0.555935
0.276434 0.398705 -0.135781
-0.414784 0.398705 0.429686
0.140045 0.398705 0.137536
0.308335 -0.082889 0.647742
0.218374 -0.144253 -0.661136
-0.401017 0.326193 -0.661136
0.465994 0.398705 -0.470679
0.128096 0.398705 -0.102827
0.394661 0.116757 0.154192
-0.338644 0.398705 0.186280
0.656437 -0.359385 0.224362
-0.487177 0.373095 0.647742
0.449890 0.249416 0.647742
0.656437 0.225562 -0.451841
-0.590561 0.398705 0.386152
-0.652441 -0.380717 -0.035415
0.485085 0.136929 -0.645503
-0.141979 0.188106 -0.661136
0.192663 0.340971 0.647742
-0.390665 -0.117309 -0.379233
0.656437 0.146995 -0.064088
0.548731 0.398705 0.102733
0.461727 -0.212105 0.314608
-0.652441 0.381491 -0.521446
-0.415753 0.398705 0.252174
0.497429 -0.386622 0.466394
-0.652441 0.164157 -0.021637
0.394661 -0.068011 -0.181998
0.656437 0.194647 0.185970
0.063975 -0.386622 -0.530962
-0.537258 -0.212105 0.443322
-0.393022 0.136929 0.160579
0.074430 -0.386622 0.021563
0.310116 -0.273212 -0.661136
-0.501280 0.398705 -0.125936
0.038780 0.398705 -0.395835
0.394661 0.124652 -0.632161
0.276589 0.398705 0.557751
-0.652441 0.349871 0.369674
-0.029610 0.070402 -0.661136
-0.442808 0.136929 -0.203369
0.394661 0.136148 0.445776
0.511375 -0.386622 0.445141
-0.045166 -0.386135 -0.661136
0.229028 -0.386622 -0.187451
-0.445939 -0.212105 0.249931
-0.652441 0.336283 -0.650321
-0.298416 0.225495 0.647742
0.349749 0.398705 -0.214348
-0.652441 0.221370 0.358068
-0.184638 -0.386622 0.423802
0.394661 0.009614 0.478589
0.656437 0.364234 -0.099832
0.462233 -0.315756 -0.661136
0.132316 -0.324409 -0.661136
-0.376079 -0.386622 -0.567632
-0.556612 -0.212105 0.509933
0.224708 0.210077 0.647742
0.261979 0.394829 -0.661136
-0.390665 -0.007831 -0.609208
-0.225153 0.398705 -0.605852
-0.390665 -0.207963 0.238490
0.516400 0.136929 0.568231
-0.460192 0.398705 0.064007
0.623565 -0.386622 -0.323038
0.578723 -0.386622 0.195273
-0.174490 -0.091292 0.647742
0.656437 0.157345 -0.483127
-0.164827 -0.235946 -0.661136
0.258628 -0.386622 0.068508
-0.396256 0.136929 -0.506424
0.111858 -0.386622 -0.241415
0.219931 0.398705 0.469848
-0.652441 -0.373762 -0.451757
-0.562819 0.398705 -0.213026
0.067031 0.368451 0.647742
-0.206714 0.398705 0.609926
-0.051554 0.341932 -0.661136
0.236894 0.398705 -0.174281
0.569057 -0.212105 0.091404
-0.652441 0.385181 0.383345
0.352317 -0.386622 -0.020201
-0.014092 -0.386622 0.464346
0.394661 -0.121121 0.143537
-0.131063 -0.386622 -0.142588
-0.390665 -0.187171 -0.100084
-0.385833 0.398705 -0.480336
-0.353213 -0.386622 0.055757
0.561216 -0.386622 0.005060
-0.241451 0.398705 0.008675
-0.277108 -0.386622 -0.140920
-0.063725 0.398705 0.070367
0.235789 -0.386622 -0.061275
-0.321289 -0.315896 -0.661136
0.394661 -0.074063 -0.026318
0.017674 0.085992 -0.661136
-0.652441 0.156305 -0.578410
0.394661 -0.207137 0.221586
0.656437 -0.369055 0.205649
0.648553 -0.354206 -0.661136
-0.611820 0.136929 -0.309182
-0.416441 -0.350921 0.647742
0.394661 0.011133 0.110988
0.167249 -0.256092 -0.661136
-0.390665 -0.137167 -0.308238
-0.631903 0.398705 -0.112364
-0.390665 0.092227 0.437114
0.656437 0.350628 0.414041
-0.652441 -0.374948 -0.427229
-0.507057 -0.212105 0.275800
0.402543 0.136929 -0.263792
-0.604910 -0.212105 -0.296724
-0.390665 -0.040889 0.363475
-0.099335 0.132273 -0.661136
0.100223 0.398705 -0.468384
0.394661 -0.122311 -0.502962
-0.136395 -0.386622 -0.071669
0.656437 0.287043 -0.360016
-0.475651 0.398705 0.376788
-0.418120 0.136929 -0.479994
0.017079 -0.386622 -0.271767
-0.578903 -0.386622 -0.097613
-0.049710 0.183491 -0.661136
-0.608528 -0.241862 0.647742
0.353442 -0.386622 0.490265
0.656437 -0.291266 -0.046190
-0.568897 0.136929 0.578930
-0.361245 0.398705 -0.212709
-0.652441 -0.292338 -0.325824
0.394661 0.072786 -0.269889
0.459094 -0.344344 -0.661136
-0.276085 0.118616 0.647742
0.498451 -0.212105 -0.521884
-0.576030 0.136929 0.095489
-0.013325 0.042310 0.647742
-0.652441 0.243272 0.160474
-0.166625 0.064482 0.647742
0.394661 -0.079098 0.049802
0.656437 0.267267 0.641523
0.399371 -0.386622 0.219359
0.043926 0.330587 0.647742
0.656437 -0.342821 -0.516779
-0.330268 -0.386622 0.310732
0.596806 0.398705 -0.606885
0.656437 -0.220240 -0.519855
-0.157578 0.398705 0.348103
-0.390665 -0.107613 0.416981
0.656437 0.332904 -0.219543
-0.390665 -0.043980 -0.542142
-0.453348 -0.212105 0.483887
-0.119676 0.398705 0.029770
-0.037194 -0.386622 0.253565
0.656437 0.386118 -0.438189
-0.072874 0.043553 0.647742
0.054832 -0.046867 0.647742
0.374534 0.398705 0.298937
-0.564983 -0.212105 -0.354101
0.123350 0.398705 -0.422721
0.140722 -0.383111 0.647742
-0.305951 0.398705 0.510562
-0.083870 -0.316412 0.647742
-0.390665 -0.118894 -0.416483
-0.390665 -0.003924 -0.496291
0.367933 -0.386622 0.165617
-0.390665 -0.199051 0.458657
0.429839 -0.386622 0.439478
0.338041 0.394763 -0.661136
-0.211440 -0.269436 -0.661136
-0.400034 -0.386622 0.588066
0.140963 0.398705 0.223805
0.656437 0.394971 -0.022344
0.101113 -0.291480 0.647742
0.655345 -0.386622 0.250028
0.043079 -0.386622 -0.568773
0.289343 -0.386622 -0.389429
-0.299524 -0.168200 -0.661136
-0.512911 0.398705 0.027727
-0.652441 0.265308 0.170921
0.159502 -0.386622 0.310243
0.180577 -0.386622 -0.608583
0.555318 0.398705 -0.335973
-0.617351 -0.386622 0.184536
0.656437 0.339132 0.270225
-0.417688 -0.386622 -0.099846
0.435103 -0.386622 0.558505
0.107116 0.351963 0.647742
-0.390665 -0.081961 -0.040297
-0.450756 -0.386622 0.490184
0.656437 0.137756 0.140894
-0.652441 -0.329470 0.144833
-0.326443 -0.371740 -0.661136
-0.652441 -0.242064 -0.283771
-0.037724 -0.386622 0.504007
-0.415844 -0.212105 -0.405253
0.656437 -0.342962 0.255899
0.394661 -0.086643 0.628184
-0.211671 -0.166009 0.647742
-0.391401 0.398705 0.465641
-0.453663 -0.212105 -0.191147
-0.471551 0.136929 0.353262
0.570501 0.373148 0.647742
0.299498 -0.386622 0.585666
0.102953 -0.386622 -0.032836
0.426217 -0.386622 0.048521
-0.652441 -0.334275 0.388383
0.394661 0.093772 0.575953
-0.015070 0.154664 0.647742
0.160477 0.374638 -0.661136
0.656437 0.353170 0.432339
0.394661 0.049210 0.617242
0.656437 -0.300553 0.184754
0.656437 -0.278146 -0.427008
0.394661 0.119787 -0.222144
-0.390665 -0.154890 -0.154251
-0.356731 0.038634 -0.661136
-0.161699 -0.386622 0.215924
0.190802 0.312384 0.647742
0.311051 -0.386622 -0.038160
-0.652441 -0.265912 0.576666
0.612266 0.136929 -0.440736
0.055386 -0.327720 -0.661136
0.269251 -0.119966 0.647742
0.394661 -0.079390 -0.136083
0.332708 0.398705 -0.552437
0.656437 -0.318943 0.283703
0.646150 0.136929 -0.489740
-0.431375 -0.386622 0.541768
-0.003073 -0.130241 -0.661136
-0.652441 -0.248886 -0.167530
0.605987 0.398705 0.005224
-0.546815 -0.212105 0.078352
0.394661 0.100204 0.060197
-0.652441 0.368363 -0.420306
-0.068908 -0.313442 0.647742
-0.290970 -0.386622 -0.361101
0.490555 -0.212105 -0.025820
-0.624213 0.398705 -0.283659
0.290756 -0.386622 -0.339908
0.221944 0.398705 -0.100515
-0.114744 -0.338311 -0.661136
0.546280 -0.212105 -0.307852
-0.390665 -0.042626 0.014723
0.376796 0.242499 0.647742
0.270300 -0.386622 -0.579418
-0.614175 0.136929 0.508095
0.285168 -0.286895 0.647742
-0.580359 -0.386622 0.292069
0.394661 0.135051 0.113561
-0.652441 0.172531 -0.074420
0.394661 0.098111 -0.657947
0.156079 0.398705 0.195224
-0.390665 -0.070172 -0.070673
-0.628357 0.398705 0.585198
-0.578279 0.136929 -0.470320
-0.390665 -0.205720 -0.010609
-0.390665 -0.015293 -0.180632
0.308020 0.114792 -0.661136
-0.652441 0.245189 -0.022915
0.228448 0.398705 -0.639103
-0.652441 0.395463 0.029487
-0.390007 -0.386622 0.283811
-0.390665 -0.174627 -0.634003
-0.282122 0.242161 0.647742
-0.548410 0.136929 0.350771
0.448903 -0.212105 -0.643806
-0.074621 0.284729 0.647742
-0.652441 0.392812 -0.191673
0.533415 0.398705 -0.282615
0.026621 -0.386622 -0.608056
0.643272 -0.212105 0.059882
0.344209 0.300645 0.647742
0.261933 -0.017623 -0.661136
0.656437 0.387259 -0.111650
-0.255555 -0.386622 -0.117713
0.300728 -0.386622 0.209384
-0.531965 -0.300233 0.647742
0.405635 -0.212105 -0.244468
0.072973 -0.386622 -0.643204
0.210676 0.398705 0.469512
-0.266995 -0.313395 0.647742
-0.443771 0.136929 -0.155068
-0.390665 -0.011944 -0.074914
0.084339 0.398705 0.220857
-0.101664 0.398705 -0.501584
-0.070621 -0.059584 0.647742
0.394661 -0.032023 -0.419304
0.656437 -0.235145 -0.181674
0.423791 0.136929 -0.468581
0.367217 0.398705 -0.561143
0.084332 -0.386622 -0.488673
-0.460043 0.136929 -0.579363
0.246169 0.398705 0.264330
-0.289154 -0.314729 -0.661136
-0.102614 -0.386622 -0.622789
-0.026101 -0.386622 -0.492137
0.492923 0.136929 0.387720
-0.390665 -0.152180 0.171345
-0.258292 -0.386622 -0.148213
0.285869 -0.087715 -0.661136
-0.289922 -0.386622 -0.235376
-0.630186 0.136929 0.625514
0.656437 0.362715 0.236971
-0.147761 -0.027081 0.647742
-0.652441 -0.298865 0.237507
-0.017534 -0.179877 0.647742
0.656437 -0.332493 -0.657062
-0.652441 0.157110 0.290275
-0.652441 0.324034 0.021547
-0.416354 -0.386622 -0.325142
0.467642 0.398705 0.331673
0.394661 0.095829 -0.083536
-0.402927 0.136929 -0.592813
0.221987 -0.104643 0.647742
0.537206 0.136929 -0.082224
-0.130568 -0.386622 0.473570
0.471176 0.185936 0.647742
-0.199094 -0.386622 -0.524237
-0.132545 0.157703 0.647742
-0.213742 -0.386622 -0.010780
0.298156 0.306869 -0.661136
0.436490 0.398705 0.265232
-0.377941 -0.378776 0.647742
0.451663 -0.386622 -0.470021
-0.423830 0.398705 0.056551
0.635305 -0.294684 -0.661136
0.394661 -0.204385 -0.148722
-0.490886 -0.212105 -0.092120
-0.633898 -0.254380 -0.661136
-0.648163 0.136929 0.218560
-0.390665 0.039920 0.373089
-0.544694 0.398705 0.097150
-0.164405 0.398705 -0.289929
0.567799 -0.386622 -0.373338
-0.109399 -0.386622 -0.498749
-0.390665 -0.004824 -0.413833
0.070074 0.309538 0.647742
0.549681 0.136929 -0.495886
0.394661 0.108910 -0.627890
0.360282 -0.054578 0.647742
-0.443096 -0.342120 0.647742
0.235016 0.398705 -0.233165
-0.390665 -0.041974 0.499154
0.160453 -0.386622 -0.487041
0.117287 0.127608 -0.661136
-0.594383 0.226239 0.647742
0.656437 0.324978 -0.065637
-0.235337 -0.386622 -0.393035
-0.172358 0.398705 -0.460430
-0.311867 0.398705 -0.639733
0.244249 -0.386622 -0.277137
-0.583974 -0.232167 0.647742
0.394661 -0.022926 0.096046
0.163704 0.398705 0.036930
-0.132601 0.398705 -0.488476
-0.566247 0.203575 -0.661136
0.183037 -0.386622 0.412516
-0.390665 -0.090037 -0.333580
0.049701 -0.386622 0.221303
-0.419797 -0.386622 0.209276
-0.555463 -0.212105 0.204934
0.656437 -0.330658 0.156775
0.496318 0.398705 -0.512782
-0.390665 -0.168640 -0.593964
0.431895 0.398705 -0.580180
-0.442538 -0.212105 -0.423495
-0.358665 0.322269 -0.661136
0.645130 -0.212105 0.265475
0.419333 -0.386622 0.233529
0.586731 -0.238372 -0.661136
-0.460852 0.222219 -0.661136
0.656437 0.370919 -0.215739
-0.402779 -0.245185 0.647742
-0.518246 -0.365279 0.647742
-0.541715 -0.386622 -0.595993
-0.505677 -0.212105 0.281198
-0.652441 -0.327590 0.471986
-0.280923 0.398705 0.346873
0.231294 -0.342271 0.647742
0.133302 0.057536 -0.661136
0.394661 -0.109935 0.638469
-0.246585 0.338659 0.647742
-0.312535 0.398705 -0.478590
0.597946 -0.386622 -0.496151
-0.390665 -0.203534 0.469438
-0.652441 0.158666 0.058304
-0.140266 0.398705 -0.125755
-0.652441 0.223308 0.018227
0.656437 0.185259 -0.555348
0.313603 0.398705 -0.035824
-0.608269 -0.386622 -0.186629
-0.348092 0.398705 -0.410744
0.513079 -0.386622 0.514487
-0.445543 0.136929 -0.098664
-0.652441 -0.238289 0.447029
-0.366244 -0.031434 -0.661136
0.656437 0.238833 0.090417
0.656437 0.209126 0.184019
-0.296392 -0.362506 -0.661136
0.656437 0.209296 -0.655994
-0.418719 0.398705 -0.023766
0.394661 -0.014831 -0.659611
-0.447451 0.398705 -0.020203
0.265576 -0.386622 -0.659077
-0.095867 -0.386622 0.401375
0.566686 -0.212105 0.080703
-0.390665 -0.205477 -0.372657
0.489774 -0.386622 0.458862
0.656437 0.366543 0.208051
-0.187481 -0.386622 0.021390
-0.210190 0.142859 0.647742
-0.021882 0.259815 0.647742
0.231449 0.084249 -0.661136
-0.390665 0.120233 -0.129436
0.524358 0.136929 0.112618
0.394661 -0.073722 0.483283
0.584714 -0.386622 0.403006
-0.390665 0.087806 -0.438103
-0.284138 0.398705 -0.473975
-0.600264 -0.386622 -0.113487
-0.267812 -0.386622 0.201195
-0.402495 -0.386622 -0.557883
-0.652196 -0.212105 0.148809
0.634923 -0.212105 0.616546
-0.043624 0.398705 0.247516
0.477689 -0.212105 -0.177043
-0.441919 -0.212105 -0.392922
0.394661 -0.211943 0.182294
-0.043052 -0.296776 -0.661136
-0.302810 -0.386622 0.521545
-0.407841 -0.386622 -0.037891
0.114000 -0.386622 -0.139807
-0.574681 0.398705 -0.090018
0.553771 -0.281291 0.647742
-0.140876 -0.159427 0.647742
-0.325669 0.398705 -0.656485
-0.384282 -0.085123 -0.661136
0.436185 -0.386622 -0.204199
0.497886 0.136929 -0.273409
0.500235 0.260165 -0.661136
0.206819 -0.386622 0.545856
0.656437 -0.235734 0.548763
-0.652441 -0.261989 0.373414
-0.652441 0.334444 -0.237271
-0.493217 -0.386622 -0.061770
0.350245 0.398705 -0.169082
-0.120230 -0.386622 -0.516463
-0.468876 -0.317199 0.647742
-0.652441 -0.329015 -0.220532
0.445996 -0.212105 0.044746
-0.652441 0.307967 -0.383517
0.347364 0.398705 -0.574347
-0.390665 -0.143464 -0.480712
0.029570 -0.386622 -0.281964
-0.082312 -0.386622 0.187234
-0.151348 0.398705 0.459696
0.559998 -0.212105 0.597875
0.623829 0.398705 0.364706
0.373338 -0.163937 0.647742
-0.469801 0.136929 -0.319569
-0.604341 0.398705 0.269410
0.656437 0.369966 -0.397626
0.229971 -0.335688 -0.661136
0.394661 -0.004116 0.082295
-0.328560 -0.275558 0.647742
-0.478577 -0.212105 -0.354271
-0.273522 0.398705 0.211550
0.465651 0.219775 0.647742
-0.652441 -0.373488 -0.397275
0.244811 -0.386622 -0.396718
0.656437 0.305853 -0.506690
0.656437 0.358830 -0.226401
-0.003213 -0.386622 0.250269
-0.292178 0.398705 -0.452826
0.125313 -0.386622 0.114049
0.057986 0.301523 -0.661136
0.281507 -0.386622 -0.009853
-0.440288 0.398705 -0.480009
0.500569 -0.386622 -0.316850
-0.064036 -0.386622 -0.357971
0.394661 0.127263 0.504647
-0.515600 0.398705 -0.591362
-0.390665 0.072336 -0.153453
-0.197280 -0.386622 0.582443
-0.628641 -0.226430 -0.661136
0.618623 -0.386622 0.030143
0.656437 0.363014 0.282468
0.656437 -0.215334 0.141967
-0.106157 0.340408 -0.661136
-0.652441 0.226184 -0.602542
-0.617758 0.136929 0.422885
-0.469011 -0.386622 -0.061796
0.458872 0.164424 -0.661136
-0.637776 0.398705 -0.442407
0.393823 -0.386622 -0.409164
0.656437 0.199452 0.396569
0.574442 -0.358411 0.647742
-0.188463 -0.386622 -0.228833
0.641615 -0.212105 0.619222
0.394661 0.082219 -0.228648
0.469124 -0.212105 -0.027202
0.038181 0.398705 -0.645250
0.440019 -0.386622 -0.150055
0.072683 0.398705 0.413204
-0.499215 0.398705 -0.294537
0.380958 0.398705 -0.197927
0.656437 -0.298646 -0.402498
0.419423 -0.212105 -0.160233
0.267452 0.398705 -0.657438
-0.652441 0.284941 -0.146325
0.443504 0.136929 -0.165241
-0.652441 0.320608 0.112089
0.348220 0.398705 0.443154
-0.211598 0.319420 0.647742
-0.652441 -0.379403 0.341663
-0.442426 -0.212105 -0.189123
0.440472 -0.212105 0.062508
0.041893 -0.386622 -0.126386
-0.462477 -0.212105 0.251780
0.531433 -0.212105 0.093463
-0.652441 0.375246 0.564661
0.001277 -0.386622 0.623359
0.394661 0.080353 -0.655223
-0.652441 -0.291834 -0.197678
0.532522 -0.386622 0.211769
-0.234891 0.180439 -0.661136
-0.504881 -0.353626 0.647742
-0.629070 0.209290 0.647742
-0.390665 0.112151 0.326866
-0.390665 0.088717 0.160413
0.623494 0.136929 0.088621
-0.474199 0.398705 0.643404
0.604105 -0.212105 0.464781
-0.056484 -0.386622 0.360580
-0.652441 0.190465 -0.016838
-0.147763 -0.098003 -0.661136
-0.390665 -0.198112 -0.208931
-0.235665 0.398705 0.048210
0.452051 -0.386622 0.372573
0.021709 0.398705 0.583029
-0.390665 0.036307 -0.566545
-0.498034 -0.212105 0.540215
0.451776 -0.366860 0.647742
-0.332473 -0.386622 -0.407277
-0.390665 -0.196743 0.215770
-0.455434 -0.212105 0.637933
-0.065397 0.398705 -0.427543
-0.148809 0.215650 0.647742
0.458196 -0.317638 0.647742
-0.390665 -0.191012 -0.225877
-0.515566 0.398705 0.161949
-0.502834 -0.212105 -0.134834
-0.614897 -0.212105 0.248339
0.445896 0.136929 0.550362
0.295083 -0.062084 -0.661136
-0.652441 0.382527 0.296891
-0.433392 0.398705 0.637568
0.654659 0.311616 -0.661136
0.394661 0.062528 0.232174
0.185455 0.398705 -0.133586
-0.188640 0.398705 -0.105002
0.388040 0.398705 -0.655787
-0.420106 -0.212105 0.033779
-0.652441 -0.326767 -0.572419
0.656437 0.383878 -0.433628
0.656437 0.256108 -0.492668
0.378388 0.398705 0.487033
0.131002 -0.386622 0.394016
0.394661 0.020589 -0.506765
0.193227 -0.386622 0.195439
0.656437 0.238010 -0.024847
0.609391 0.398705 -0.519051
-0.177625 -0.386622 -0.470009
-0.652441 0.397935 0.325343
-0.282126 -0.386622 0.070892
-0.477275 -0.212105 0.638108
-0.233901 -0.114147 -0.661136
0.136121 -0.386622 -0.508369
-0.039942 -0.295618 -0.661136
0.267021 0.398705 -0.295759
-0.256338 -0.386622 0.226288
-0.475246 0.372264 0.647742
0.205423 -0.386622 0.440241
0.609994 0.388192 0.647742
0.433355 -0.212105 -0.079244
0.566952 0.393436 -0.661136
-0.513882 -0.212105 -0.428657
-0.652441 -0.240987 -0.503323
0.057745 -0.386622 0.635586
-0.477087 -0.212105 -0.237634
0.394661 -0.063844 -0.586214
0.394661 -0.112382 0.239352
0.106493 0.398705 0.302939
-0.441719 0.136929 0.050095
-0.302347 0.394776 -0.661136
0.360541 -0.114476 0.647742
-0.533024 0.366627 0.647742
-0.575694 -0.386622 0.210409
0.143229 -0.386622 -0.080212
0.177095 0.398705 -0.125562
0.186405 -0.063637 0.647742
0.217482 0.398705 -0.023652
-0.332765 0.398705 0.086436
-0.527192 0.398705 -0.464558
0.656437 0.388562 0.605400
0.558095 0.396994 -0.661136
0.394661 -0.206920 0.522432
0.000180 -0.191919 -0.661136
0.147618 -0.275256 0.647742
-0.186537 -0.386622 -0.374574
0.356693 -0.386622 -0.444147
-0.577954 -0.386622 0.026539
-0.069002 0.398705 0.414950
0.024802 0.398705 0.029979
-0.415844 -0.386622 0.375564
0.626105 -0.293907 0.647742
-0.251662 0.398705 -0.025189
0.656437 0.247995 0.584705
-0.635618 0.136929 0.081362
0.324296 -0.386622 -0.218710
0.341235 -0.165100 -0.661136
0.293694 0.195947 -0.661136
-0.204870 0.398705 -0.593062
0.322400 0.161029 0.647742
-0.283998 0.065557 -0.661136
-0.290434 0.101690 -0.661136
0.656437 0.368343 0.168242
0.158021 -0.386622 -0.067404
-0.311142 -0.386622 0.248112
0.394661 -0.128265 0.251850
0.394661 -0.196804 0.620856
0.656437 0.385075 -0.370587
0.394661 -0.128780 -0.252951
-0.652441 -0.236881 0.103462
0.248583 0.398705 -0.378950
0.588056 0.136929 0.129723
-0.473267 0.398705 0.144645
-0.035328 0.071931 -0.661136
-0.652441 -0.268159 -0.319382
-0.390665 -0.030482 -0.052791
0.254816 0.398705 -0.599763
0.656437 -0.354193 0.348646
0.656437 0.325257 0.598232
0.319007 -0.386622 0.372683
0.596869 0.136929 -0.329297
0.295096 0.311225 -0.661136
-0.185646 -0.386622 -0.466750
-0.038222 0.362603 -0.661136
0.394661 -0.194508 -0.544648
-0.350583 0.398705 -0.173375
-0.169642 0.398705 0.173330
0.313965 0.398705 -0.432013
-0.652441 0.295256 -0.382756
-0.199225 0.369048 0.647742
-0.028191 -0.386622 -0.113873
0.656437 0.350068 -0.042207
-0.170336 -0.110749 0.647742
-0.017463 -0.195743 0.647742
-0.301423 0.214401 0.647742
-0.171137 0.398705 -0.278774
0.461012 -0.386622 -0.555908
0.604150 -0.212105 0.498537
0.525132 0.398705 0.106543
-0.390665 -0.185885 -0.404721
0.327883 0.169332 0.647742
-0.390850 -0.386622 0.318599
-0.028607 -0.386622 0.417537
0.491510 0.398705 0.291441
-0.565871 0.136929 -0.417399
0.394661 0.135693 0.234357
0.440874 -0.386622 0.568650
-0.476980 0.136929 -0.492508
-0.359096 0.215405 0.647742
0.355444 -0.055631 0.647742
0.036269 0.398705 0.304176
0.465809 -0.386622 -0.564924
-0.560351 0.184414 0.647742
0.306461 0.072994 0.647742
0.456447 -0.386622 0.192682
-0.652441 -0.267875 0.600502
-0.305384 0.260217 -0.661136
-0.293198 0.398705 0.521247
0.394661 0.083773 0.535629
-0.390665 0.136768 -0.295451
-0.390665 -0.074718 0.596843
0.158757 -0.239835 -0.661136
-0.077908 0.398705 -0.208704
0.343821 -0.386622 0.045996
-0.482186 -0.359260 -0.661136
0.394661 -0.121330 -0.258823
-0.491413 -0.212105 0.634019
-0.652441 -0.355811 -0.399747
-0.390665 0.046366 -0.647617
0.548085 -0.212105 -0.552044
-0.390665 0.134389 0.118976
-0.038359 -0.006370 -0.661136
-0.390665 0.006909 0.019433
-0.390665 0.060911 -0.512235
-0.480427 -0.386622 -0.127840
-0.395008 0.398705 -0.161818
0.372319 -0.386622 -0.241765
0.132885 -0.125523 -0.661136
-0.190342 -0.200858 0.647742
0.394661 -0.051365 -0.400574
-0.519289 -0.386622 -0.643187
0.604241 -0.212105 -0.167062
0.656437 0.192546 -0.450206
0.267106 -0.386622 0.072298
-0.128640 -0.386622 0.383163
0.017128 0.284964 -0.661136
0.304626 -0.133064 -0.661136
-0.184964 0.070860 -0.661136
0.349280 -0.386622 -0.266828
0.656437 -0.238521 -0.434578
0.121484 0.215794 -0.661136
-0.592173 -0.386622 0.250163
0.110880 0.398705 0.111545
-0.305881 -0.386622 0.483571
0.599501 -0.212105 0.212579
-0.005648 -0.297173 0.647742
0.394661 -0.205467 -0.109060
-0.128498 0.111393 -0.661136
-0.390665 0.134114 0.318661
-0.356500 -0.386622 0.043645
0.183638 -0.386622 0.240624
0.488625 0.136929 0.030351
0.656437 0.291929 -0.155417
-0.390665 0.054450 0.579058
0.656437 0.139295 -0.354406
-0.390665 -0.141797 0.342659
-0.610220 -0.386622 0.093379
-0.189469 0.254873 0.647742
0.052488 0.398705 -0.388598
0.024053 0.398705 -0.593718
0.278106 0.310518 0.647742
0.549400 0.398705 0.308548
-0.490342 -0.212105 0.380899
0.394661 0.027764 -0.631661
-0.390665 -0.109135 -0.389445
0.163622 -0.188721 -0.661136
-0.482941 0.398705 0.279025
-0.507963 -0.212105 -0.128613
-0.515009 0.164232 0.647742
0.503681 -0.235940 0.647742
0.087742 -0.344508 0.647742
-0.390665 -0.207402 0.436739
0.262435 0.134132 0.647742
0.166377 0.398705 0.455781
0.394661 -0.060733 -0.543289
-0.137299 0.107482 -0.661136
-0.100439 -0.114791 0.647742
-0.390665 -0.026983 0.647303
0.347496 0.005323 -0.661136
0.656437 0.283960 0.640189
-0.304024 0.311831 -0.661136
-0.184400 -0.386622 -0.559785
-0.560459 -0.212105 0.041251
-0.184418 -0.386622 0.365742
0.394661 -0.135623 0.323095
-0.501649 -0.386622 -0.600675
-0.516821 0.398705 -0.500452
-0.058992 0.398705 0.566873
-0.260860 -0.114714 -0.661136
0.394661 0.059639 0.233900
0.082983 0.150212 0.647742
0.463990 -0.386622 -0.394617
0.656437 -0.343405 0.281838
-0.048453 0.398705 0.117002
0.394661 -0.111216 0.638709
0.610313 -0.386622 -0.401032
-0.531571 0.136929 -0.500182
0.656437 0.269791 -0.527498
0.542549 -0.288215 0.647742
-0.184045 -0.386622 0.424938
0.084597 -0.386622 -0.427509
0.112362 -0.014307 -0.661136
0.439203 -0.386622 0.366463
0.656437 0.353424 -0.219268
0.233084 0.369080 -0.661136
-0.544049 0.136929 -0.252352
0.480596 0.136929 0.038165
0.394661 -0.193602 -0.004112
0.004711 -0.043815 -0.661136
-0.652441 0.297524 -0.654906
-0.586184 0.136929 0.624885
0.656437 -0.216789 0.426857
-0.010460 0.398705 0.575678
0.476299 -0.212105 -0.153033
-0.086785 0.398705 0.084221
0.394661 -0.029815 0.011216
-0.390665 0.135552 0.308922
0.656437 0.312710 -0.331875
-0.652441 0.353305 -0.266479
-0.009732 -0.386622 0.045853
-0.552534 0.398705 0.337402
-0.134046 -0.059913 0.647742
0.270707 0.398705 -0.504484
0.109040 -0.319626 0.647742
0.656437 0.326434 0.040289
-0.017134 -0.149532 0.647742
0.656437 -0.308629 -0.449610
-0.308508 -0.275730 0.647742
0.022256 -0.386622 0.187448
-0.542357 0.398705 -0.063315
-0.378342 -0.386622 0.217821
0.282512 -0.386622 0.124469
0.145899 0.398705 -0.440343
-0.547377 0.136929 0.434339
0.107486 0.398705 0.640463
0.394661 -0.018308 -0.543525
-0.084294 0.311921 -0.661136
0.394661 0.002966 0.427139
-0.160099 0.398705 -0.095373
0.288097 -0.338462 0.647742
-0.652441 -0.232132 -0.432232
-0.023469 -0.386622 0.042463
-0.595205 0.398705 0.165992
0.394661 -0.137784 0.264678
-0.652441 -0.361348 0.308472
0.530382 -0.212105 0.088386
-0.137506 0.398705 -0.535373
-0.259095 0.000084 0.647742
-0.390665 0.057150 -0.293779
0.230050 0.398705 0.221046
-0.499803 -0.212105 -0.097495
-0.390665 -0.190402 0.162759
-0.513116 -0.212105 0.519898
-0.348997 0.398705 -0.545216
-0.614638 -0.292445 -0.661136
0.656437 -0.300572 -0.593925
0.552577 -0.386622 0.084783
0.591011 0.136929 0.612788
-0.342988 -0.386622 0.007922
0.144328 -0.386622 -0.461934
0.036851 0.290208 -0.661136
0.449353 0.136929 0.610801
0.656437 -0.352234 0.636921
0.394661 -0.190816 -0.345345
-0.652441 0.181896 -0.254299
0.656437 -0.234510 0.140282
-0.287763 0.398705 -0.258248
0.656437 0.286873 0.326150
0.394661 0.014176 -0.647388
0.321519 0.398705 -0.240203
-0.591674 -0.386622 0.107230
0.052043 0.143831 0.647742
0.252060 -0.290339 -0.661136
0.656437 0.391280 -0.005763
-0.652441 -0.260611 0.446738
-0.453512 -0.233472 0.647742
-0.451777 -0.386622 -0.374394
-0.076933 -0.038855 -0.661136
-0.652441 0.269203 -0.055050
0.394661 0.091120 -0.101933
-0.575002 0.398705 -0.520179
0.002063 0.398705 -0.179362
0.191582 0.398705 -0.426503
-0.467312 -0.212105 0.131906
-0.256484 0.398705 0.025110
0.471710 0.198077 -0.661136
0.144609 -0.386622 0.590415
-0.454341 0.398705 0.101257
0.654158 0.398705 0.503676
0.508933 0.398705 -0.603607
0.434068 0.398705 0.579597
0.501450 -0.212105 0.310182
-0.041717 0.398705 0.371090
-0.004421 0.353361 0.647742
-0.021809 0.195058 -0.661136
-0.652441 0.161661 -0.525536
-0.463026 -0.212105 0.193185
-0.652441 0.199215 0.286067
0.560985 0.136929 0.237427
-0.432894 -0.212105 -0.011036
0.538157 0.398705 -0.026428
-0.565017 0.136929 0.036361
-0.433247 -0.212105 0.585595
0.119722 0.381011 0.647742
0.109533 -0.386622 -0.023255
-0.193359 0.398705 0.287970
-0.390665 0.088863 0.511617
-0.389540 -0.386622 0.552556
0.597137 -0.289504 -0.661136
-0.286317 0.281281 -0.661136
0.288259 -0.386622 -0.029257
-0.534845 0.136929 0.270846
0.305313 -0.386622 -0.229135
0.656437 0.159604 -0.446631
0.502428 0.136929 0.558420
0.656437 0.161934 0.301544
0.394661 -0.010382 -0.461791
0.487475 0.398705 -0.267341
-0.149051 -0.386622 -0.047256
0.656437 -0.350951 0.412357
-0.140491 -0.233070 -0.661136
-0.390665 -0.060947 0.437175
0.420573 -0.386622 -0.623474
-0.052498 0.318342 0.647742
-0.256940 -0.386622 -0.077104
0.286651 0.018035 -0.661136
0.152350 0.398705 0.614199
-0.390665 -0.025065 0.487840
-0.299596 0.398705 0.130978
-0.652441 0.276474 0.322069
-0.132570 0.398705 -0.513161
0.656437 -0.222416 -0.212037
-0.390665 0.084765 0.147469
-0.414647 -0.386622 -0.584332
0.172603 0.398705 -0.348295
0.642410 0.211735 -0.661136
-0.652441 0.218438 0.341327
-0.004485 -0.386622 0.049652
0.217842 -0.002841 0.647742
-0.533026 0.398705 0.642423
0.339470 0.340615 0.647742
0.411774 -0.386622 -0.204334
0.656437 0.137072 -0.277375
-0.514565 0.214304 0.647742
-0.532747 -0.386622 -0.655527
-0.133065 0.263270 -0.661136
0.074653 0.104452 0.647742
-0.080904 -0.386622 -0.165863
-0.489697 0.136929 0.141343
-0.390665 0.084002 0.509626
-0.190562 0.398705 0.241191
-0.208470 0.398705 -0.092011
0.295736 -0.386622 -0.187102
0.656437 0.285603 0.241395
0.119074 0.189350 -0.661136
0.344017 -0.386622 0.618574
-0.652441 0.140793 -0.110857
-0.616774 0.198769 -0.661136
0.628542 -0.365190 0.647742
0.345286 -0.386622 -0.169802
-0.258141 0.202045 -0.661136
-0.390665 -0.008125 -0.166989
-0.178665 0.398705 0.469497
0.334454 -0.289475 0.647742
-0.136860 0.196507 -0.661136
0.014580 0.074381 0.647742
-0.390665 0.101115 0.152908
-0.335135 0.398705 -0.620671
0.600838 0.136929 0.586434
-0.355345 0.398705 0.141988
0.461872 -0.212105 -0.087224
0.394661 -0.091013 0.016586
-0.211902 -0.107725 -0.661136
0.116423 0.038860 -0.661136
-0.576026 0.136929 0.437608
0.656437 0.380210 -0.536575
0.371585 0.398705 0.208613
-0.122388 0.398705 -0.394041
-0.652441 0.295590 -0.412860
-0.399374 0.398705 0.319597
0.394661 -0.079468 -0.193900
-0.589585 -0.386622 0.644531
0.656437 0.242250 -0.089448
-0.430805 -0.386622 -0.528501
0.394661 0.107708 0.505960
0.656437 -0.297995 0.349261
-0.632188 0.136929 -0.055529
-0.390665 0.072584 0.627307
0.494103 0.136929 -0.607284
-0.424189 -0.212105 -0.041384
0.656437 0.185034 0.521660
-0.455068 0.136929 -0.047564
0.230119 0.112071 -0.661136
0.179182 0.398705 -0.011263
0.656437 0.196310 0.318019
0.656437 0.375060 0.314374
0.656437 0.303511 0.595195
-0.594515 0.140349 -0.661136
0.579439 -0.212105 -0.654097
-0.258037 -0.386622 0.093771
0.649081 -0.212105 -0.574675
-0.288996 0.398705 0.134302
0.036677 0.398705 0.275012
-0.426291 0.398705 -0.585468
0.046987 0.041579 0.647742
0.423381 -0.386622 0.162619
0.075008 0.398705 0.301532
-0.599626 0.398705 0.504612
0.616796 -0.212105 -0.034147
0.508420 0.136929 0.600716
0.345110 0.398705 0.501048
0.144373 0.398705 -0.458823
0.061624 -0.386622 -0.227401
-0.390665 0.029270 0.531349
0.656437 0.359450 -0.424189
0.021012 0.398705 -0.574879
0.056998 0.398705 0.543926
-0.390665 -0.194969 0.114424
0.535553 -0.212105 -0.485288
-0.652441 -0.362614 -0.004444
-0.623666 -0.212105 -0.042715
-0.326061 0.398705 -0.544897
-0.281063 0.057889 -0.661136
-0.417844 -0.386622 -0.275078
0.330559 -0.305915 -0.661136
0.569675 -0.386622 0.190137
0.489555 -0.386622 0.640240
-0.118611 -0.386622 -0.215026
-0.390665 0.046980 0.117930
0.444386 -0.386622 0.611786
-0.440695 -0.212105 -0.338546
0.656437 -0.369406 -0.449261
-0.222397 0.276720 0.647742
-0.652441 0.286392 0.616895
0.309626 -0.386622 -0.185757
0.265065 0.116173 0.647742
-0.524624 -0.316273 0.647742
0.643608 -0.386622 -0.169224
-0.260588 0.398705 0.536939
-0.059157 0.398705 -0.370428
0.297902 0.398705 -0.100924
0.562902 0.136929 0.125266
0.534183 0.206345 0.647742
-0.166019 0.398705 -0.277623
0.354872 -0.386622 -0.478187
0.142384 -0.386622 -0.643163
0.498945 0.136929 -0.469312
0.394661 0.079651 -0.518982
0.098280 0.398705 0.418826
-0.390665 -0.211286 -0.149932
-0.047922 0.143740 -0.661136
-0.124160 0.315171 0.647742
0.501945 0.398705 0.536441
-0.035093 0.398705 -0.618841
0.091352 -0.386622 -0.544926
-0.378413 -0.121732 -0.661136
-0.089272 -0.177481 0.647742
-0.604834 0.366064 0.647742
0.498032 0.398705 0.605223
-0.652441 0.342197 -0.104472
-0.620766 -0.212105 0.338536
-0.589334 -0.212105 0.212324
-0.073514 0.398705 -0.347910
0.394661 -0.081977 0.379453
0.656437 0.362651 0.415834
0.092732 -0.219407 0.647742
0.656437 -0.331428 -0.095680
0.274755 -0.386622 -0.452493
-0.392140 0.254825 0.647742
0.108110 0.228646 -0.661136
-0.400637 -0.386622 0.158190
-0.640869 -0.386622 0.417181
-0.560314 -0.386622 -0.657668
0.290452 -0.386622 -0.326159
-0.652441 -0.256690 -0.316473
0.270839 -0.386622 0.410733
-0.637457 0.302773 0.647742
0.656437 -0.356352 -0.158038
0.394661 -0.130126 -0.075608
-0.154282 0.250202 0.647742
-0.390665 0.014386 -0.075992
0.315309 -0.386622 0.269463
0.438947 -0.212105 -0.453142
0.344173 -0.386622 -0.195711
-0.058035 0.173336 0.647742
-0.390665 0.036024 -0.367216
0.549150 0.398705 -0.283943
0.403915 0.310427 0.647742
-0.522548 0.398705 -0.390751
-0.558441 -0.386622 0.357591
-0.542902 0.398705 0.643895
0.573159 0.136929 -0.449493
-0.402000 0.398705 0.264379
0.162327 0.398705 -0.363142
0.470409 -0.212105 0.369375
-0.390665 0.067995 0.124113
-0.390665 -0.097300 -0.360895
0.447763 0.398705 0.192220
-0.390665 -0.087681 -0.326802
-0.393669 0.223530 0.647742
-0.652441 0.141976 0.226515
-0.460489 0.398705 -0.214692
0.200737 0.398705 -0.040790
0.656437 0.302486 -0.427072
-0.123595 0.398705 0.235565
0.645587 0.136929 -0.620809
0.579691 -0.212105 -0.422697
0.499785 -0.212105 0.479499
0.627552 0.136929 -0.513529
-0.652441 0.283047 0.157106
-0.652441 0.143382 0.119060
0.403374 -0.386622 0.411113
-0.272747 -0.386622 0.331465
-0.080630 0.398705 -0.481686
0.043994 -0.386622 0.296845
-0.627853 -0.330498 0.647742
-0.314634 0.398705 -0.544047
-0.617480 0.378638 0.647742
-0.583912 -0.212105 -0.263198
0.281500 0.375172 0.647742
-0.627973 0.136929 0.532240
-0.578510 -0.212105 -0.183669
-0.260197 -0.061979 0.647742
-0.615467 -0.212105 -0.346228
0.402002 0.136929 0.534032
0.656437 -0.380190 -0.309797
0.091853 0.398705 0.599477
0.232252 0.398705 -0.488942
-0.597986 -0.386622 0.108377
-0.078547 0.398705 -0.348990
-0.390665 0.027309 0.160182
-0.652441 -0.288352 -0.145657
0.568922 0.398705 -0.227750
0.522060 -0.386622 0.445148
0.555197 -0.386622 -0.120084
-0.382364 -0.386622 -0.440324
-0.521385 0.398705 -0.539220
-0.652441 0.273665 0.426606
-0.390665 0.070017 -0.208106
0.208530 -0.386622 0.341712
0.607786 0.398705 0.399747
0.652629 -0.212105 0.161855
-0.652441 -0.296722 -0.556982
-0.475662 -0.212105 0.526356
-0.012599 0.373019 -0.661136
0.416261 0.136929 0.319500
0.451103 -0.386622 0.463134
-0.164859 -0.386622 0.576820
0.304150 0.398705 0.218331
0.106614 -0.386622 -0.124367
-0.359943 0.398705 -0.196201
-0.390665 0.136772 0.443983
-0.015762 -0.045837 -0.661136
0.637339 0.136929 -0.371117
-0.043616 0.398705 -0.042314
0.451175 0.136929 -0.086662
0.489938 -0.386622 0.636211
-0.252860 0.398705 -0.559162
0.656437 0.346463 -0.536075
-0.652441 -0.307942 0.622589
-0.259287 -0.180874 -0.661136
0.487112 -0.386622 -0.386483
0.406284 0.136929 0.268076
-0.405036 -0.212105 0.252623
-0.438031 -0.212105 -0.209810
0.572032 -0.212105 -0.003737
0.483512 0.398705 0.465150
0.394661 -0.130782 0.494581
-0.128922 0.138949 -0.661136
-0.638606 0.136929 -0.624724
0.457685 0.136929 0.110308
0.656437 0.280865 -0.207300
0.549548 -0.212105 -0.539976
0.035131 0.398705 0.582825
-0.537671 0.223266 0.647742
0.237916 -0.386622 0.257257
0.509617 0.136929 0.607654
0.656437 0.291025 0.096758
0.656437 -0.221894 -0.619656
-0.041345 -0.351640 0.647742
0.137036 0.398705 -0.045623
-0.331347 -0.121778 -0.661136
0.509489 -0.386622 0.374381
-0.152325 -0.025146 0.647742
0.299749 0.398705 -0.285133
0.583782 -0.247256 -0.661136
-0.589941 0.398705 -0.169541
0.381283 -0.341732 0.647742
-0.206975 -0.386622 0.089339
0.294455 -0.386622 0.336401
0.656437 0.204965 0.054568
0.471806 -0.386622 -0.437250
-0.390665 -0.183431 -0.278934
0.344707 -0.386622 -0.248062
-0.032457 -0.386622 0.048987
-0.652441 0.360955 -0.335395
0.656437 0.325482 -0.632979
-0.487456 0.398705 -0.032702
0.656437 0.171548 -0.348812
0.219526 -0.386622 0.188096
-0.347427 0.398705 -0.332392
0.656437 -0.235002 0.152594
-0.558067 -0.386622 -0.456294
-0.268685 0.398705 -0.154025
0.656437 0.227332 -0.457408
-0.316242 -0.386622 0.009108
0.492174 0.398705 0.364195
0.524185 0.136929 0.499474
-0.206247 -0.049385 0.647742
-0.023511 -0.134619 -0.661136
0.656437 -0.361302 0.638106
-0.448654 -0.386622 -0.012235
-0.405906 -0.212105 0.182065
0.517808 0.136929 -0.605770
0.589190 0.398705 -0.091193
0.644396 0.136929 0.342065
0.656437 0.254952 0.354722
-0.390665 0.111701 0.507358
-0.390665 0.036673 -0.029012
-0.635857 -0.386622 -0.392207
-0.612859 0.225649 0.647742
0.456869 0.398705 -0.071039
-0.652441 -0.252519 -0.116111
-0.562854 -0.212105 0.112035
-0.390665 -0.082956 0.627806
0.625458 0.398705 0.075839
0.611316 0.136929 -0.557662
0.421381 0.136929 0.337450
0.538264 -0.275375 0.647742
0.258882 0.398705 0.331856
0.175022 0.398705 0.254923
-0.076968 -0.386622 -0.567521
-0.015242 -0.386622 0.561128
-0.648063 0.398705 0.118487
-0.390665 -0.186983 0.270950
0.329563 0.358201 -0.661136
0.314109 -0.139341 0.647742
0.121724 -0.386622 -0.605045
0.575080 -0.386622 -0.137616
0.656437 -0.295177 0.048409
-0.630910 0.136929 0.149835
0.436421 -0.212105 0.373941
0.537897 -0.386622 -0.500277
0.162039 0.016447 0.647742
0.477719 0.136929 -0.110256
-0.619912 -0.212105 0.430663
0.369738 -0.386622 -0.495086
0.195951 -0.386622 0.219088
0.275783 -0.386622 -0.266331
-0.005621 0.398705 0.171465
0.394661 -0.103307 -0.357641
-0.272613 -0.386622 0.191997
0.451873 0.136929 -0.119931
-0.652441 0.251244 -0.372230
-0.259664 -0.386622 -0.116423
0.173466 0.132658 -0.661136
-0.398082 -0.386622 0.101094
0.202326 0.398705 -0.435472
0.656437 -0.250866 -0.052334
-0.507115 0.398705 -0.394374
-0.390665 -0.176387 -0.618655
-0.206182 0.398705 0.328470
-0.539038 0.398705 0.408972
0.604864 0.136929 0.211218
0.009058 0.398705 0.551263
-0.194306 0.398705 0.056192
0.471043 0.398705 -0.291947
-0.390665 0.034478 0.383957
0.656437 0.363933 0.384443
-0.041511 0.277734 0.647742
0.051581 0.398705 -0.137205
-0.506962 -0.386622 -0.618127
-0.449830 0.136929 -0.396719
-0.652441 -0.280229 -0.408371
-0.536101 -0.217188 -0.661136
-0.422770 0.163405 -0.661136
0.656437 -0.379114 -0.538156
-0.390665 0.090209 0.341483
-0.652441 0.304812 -0.392241
-0.415584 0.398705 -0.238785
-0.432939 -0.386622 -0.186748
0.414256 0.398705 0.225151
-0.564206 0.311824 -0.661136
-0.652441 -0.345849 -0.006791
-0.652441 -0.372131 -0.367974
0.530572 -0.386622 -0.356665
-0.457341 0.233472 -0.661136
-0.625949 0.136929 -0.241462
0.552902 0.314669 0.647742
0.452642 -0.212105 0.136779
-0.652441 -0.356513 -0.125923
0.253337 -0.081810 0.647742
-0.390665 0.055044 0.398646
0.394661 -0.140782 0.103535
0.631153 0.398705 0.628769
0.656437 0.259357 0.395449
-0.327151 -0.386622 0.163953
-0.206719 -0.189200 -0.661136
0.119679 -0.100701 0.647742
0.122347 -0.386622 0.271097
0.126932 -0.246059 0.647742
-0.647875 0.136929 0.026364
-0.610176 0.398705 0.558313
-0.253729 0.398705 0.623965
-0.034544 0.278340 0.647742
-0.159962 0.398705 -0.106108
0.248493 -0.382306 -0.661136
-0.472714 -0.319452 0.647742
-0.512016 0.160469 -0.661136
-0.355561 0.290405 -0.661136
-0.001631 0.398705 -0.593079
0.091310 0.398705 0.187574
-0.486660 0.184755 -0.661136
-0.390665 -0.195601 0.016215
0.349481 -0.386622 -0.455810
0.380651 -0.085550 -0.661136
-0.535903 -0.212105 0.545082
-0.652441 0.340417 0.144460
0.355070 -0.386622 -0.224643
0.098634 0.398705 0.555925
0.275974 -0.229382 -0.661136
0.365218 -0.386622 -0.457551
0.656437 -0.350044 0.427284
-0.593361 -0.212105 -0.368852
-0.186282 -0.386622 0.345969
0.130840 0.234247 -0.661136
0.537610 -0.212105 -0.386918
0.173821 -0.386622 -0.092072
0.112304 -0.219027 -0.661136
0.487302 0.309834 0.647742
0.541591 0.136929 -0.415972
-0.390665 0.044207 0.096903
-0.505564 -0.386622 0.392717
0.609637 -0.212105 -0.526295
0.433615 0.166567 -0.661136
0.656437 -0.372907 0.200259
-0.317962 0.398705 0.583942
-0.597684 -0.386622 -0.480766
0.656437 0.279079 -0.251042
-0.119614 0.080980 -0.661136
0.255746 0.398705 -0.513645
0.027295 0.398705 -0.234683
0.096986 0.398705 -0.229448
0.502365 0.398705 -0.157299
0.394661 0.127451 0.645967
0.267161 -0.386622 0.059545
-0.426734 -0.212105 0.383168
0.656437 -0.276280 -0.044576
0.595745 -0.386622 0.344825
0.470361 -0.386622 0.271360
0.223247 -0.194691 -0.661136
0.290618 -0.386622 -0.497463
-0.426778 0.398705 -0.274520
-0.390665 -0.054809 -0.046594
0.641508 0.261587 -0.661136
0.394661 -0.145426 0.239674
-0.652441 -0.268374 -0.271855
-0.308934 -0.386622 0.525290
0.104504 0.398705 0.133355
-0.368572 0.376773 0.647742
-0.561858 -0.386622 -0.332863
0.310089 0.265158 0.647742
0.394661 0.107933 -0.429981
0.394661 -0.001439 0.303365
0.427742 -0.386622 -0.145645
0.099025 0.398705 -0.069157
0.608575 0.136929 0.510647
0.490081 0.398705 -0.606945
-0.320744 0.398705 0.035730
-0.251742 0.304838 0.647742
0.024450 0.000686 -0.661136
-0.607646 0.136929 -0.184088
0.226988 0.109587 -0.661136
-0.652441 0.197252 -0.228890
0.513471 0.398705 0.321944
0.422011 -0.212105 0.011231
0.357047 0.358126 -0.661136
0.656437 -0.330869 0.443565
-0.573935 0.136929 0.048340
-0.652441 0.339059 -0.305454
-0.230225 0.326463 0.647742
-0.390665 0.074704 -0.044693
-0.652441 0.304201 -0.322862
0.327380 0.398705 0.462998
0.394661 0.031719 -0.480113
-0.523192 0.398705 0.154930
-0.473632 -0.386622 -0.009016
0.382586 0.053717 -0.661136
-0.572015 -0.386622 -0.085635
0.304314 -0.386622 0.202081
-0.584669 0.136929 -0.616360
-0.652441 -0.256486 0.638425
0.394661 -0.079248 -0.329148
0.141822 -0.386622 -0.221374
0.253822 0.339167 -0.661136
0.656437 0.170323 0.339826
-0.191733 -0.015819 -0.661136
-0.254651 0.213984 -0.661136
-0.290746 -0.386622 0.589880
0.656437 0.207084 -0.473865
-0.128226 -0.386622 0.221003
-0.600970 0.364405 0.647742
-0.560987 0.398705 0.286561
0.656437 -0.314343 0.343434
-0.639147 0.398705 0.542289
0.394661 -0.143490 0.343574
0.191725 -0.047823 0.647742
0.125284 -0.386622 0.010674
-0.206019 -0.386622 0.612300
-0.627631 -0.212105 0.496687
0.623777 -0.386622 0.571628
0.518191 0.398705 -0.434054
-0.512574 0.258181 0.647742
0.453059 0.398705 0.275057
-0.635189 -0.212105 0.463252
-0.084501 -0.093494 0.647742
0.276098 0.135326 0.647742
-0.030485 -0.386622 0.076828
0.250850 0.268847 0.647742
-0.289230 0.398705 -0.652746
-0.550915 0.136929 -0.570948
-0.634939 0.324991 0.647742
-0.005705 0.398705 -0.359580
-0.485295 0.352476 -0.661136
-0.538870 0.136929 -0.035494
0.348073 -0.386622 0.043155
0.423081 -0.386622 -0.558253
0.605863 -0.386622 -0.432965
0.408680 0.398705 0.271852
-0.390665 0.111583 0.286330
-0.006298 0.398705 0.634313
-0.483228 0.136929 -0.162810
-0.568160 0.398705 -0.066524
0.656437 0.216795 0.318400
0.636877 0.136929 0.341723
-0.088270 -0.222834 0.647742
0.435162 -0.386622 0.444137
0.341469 0.398705 -0.158775
-0.176241 0.398705 -0.210143
0.394661 0.112952 -0.199888
0.108842 -0.386622 0.400711
-0.133498 0.197604 -0.661136
-0.063956 0.398705 -0.655749
-0.407173 -0.212105 0.278843
0.308453 0.398705 -0.229237
-0.652441 0.189706 0.165298
-0.568556 -0.386622 -0.228696
-0.095094 -0.386622 0.371722
-0.652441 -0.351042 0.426007
-0.390665 -0.019013 0.157643
-0.590437 -0.386622 -0.240083
0.128922 -0.297913 -0.661136
-0.649286 -0.386622 -0.008653
-0.109076 -0.386622 0.557496
-0.390665 0.029545 0.201290
0.315404 0.349530 0.647742
-0.390665 0.109917 0.160729
0.049157 -0.386622 -0.097271
-0.652441 -0.220971 0.506108
-0.538726 0.398705 -0.078952
-0.126990 0.398705 -0.459744
0.117521 -0.386622 0.610907
0.535170 0.398705 0.093444
-0.390665 -0.097158 0.291719
-0.652441 -0.242410 -0.620629
0.656437 0.256809 0.559877
-0.265910 -0.101900 -0.661136
-0.504009 0.357250 0.647742
-0.549100 0.398705 -0.173381
-0.591384 0.398705 -0.652851
0.469407 -0.386622 -0.034956
-0.652441 -0.385942 -0.652204
0.191218 -0.386622 0.195402
0.542241 -0.386622 -0.639584
-0.609921 0.398705 0.132515
-0.433498 -0.212105 0.486191
-0.595626 -0.386622 -0.357954
-0.496502 -0.386622 0.033975
0.583834 0.136929 0.057407
-0.183465 -0.386622 0.431643
-0.066809 0.398705 0.082604
0.444388 -0.212105 0.511156
0.654483 0.260560 0.647742
0.051930 -0.386622 0.283097
0.409080 0.398705 -0.419648
0.656437 -0.261658 0.360132
-0.390665 0.055941 0.215212
0.656437 0.240343 -0.264600
0.419187 -0.386622 0.218291
0.410176 -0.260855 -0.661136
0.053456 -0.386622 0.084073
0.349721 0.187923 0.647742
0.292036 -0.386622 0.531819
0.387234 -0.386622 0.045496
0.347402 0.398705 -0.101977
-0.493006 -0.386622 -0.656101
0.069094 0.074242 -0.661136
-0.652441 0.199335 0.380127
0.542819 -0.212105 0.094516
0.600680 0.136929 -0.251775
0.485699 0.136929 0.009557
0.048494 -0.386622 0.434835
-0.503641 0.176768 -0.661136
0.125071 -0.386622 -0.361712
-0.652441 0.273884 -0.396208
-0.390665 0.094791 -0.528935
0.413891 -0.386622 0.642097
0.499088 0.136929 -0.106973
0.045601 0.398705 -0.132699
-0.621895 0.398705 -0.219122
0.458942 -0.386622 0.468725
0.394661 0.093345 0.202941
-0.389477 -0.386622 0.243721
0.387483 -0.178926 0.647742
-0.429691 -0.386622 -0.122255
0.394661 0.035379 -0.571566
0.295251 0.398705 0.565031
0.394661 0.001198 -0.424802
-0.356832 0.398705 0.450001
0.148282 -0.325350 0.647742
-0.503504 -0.386622 -0.540432
-0.603851 -0.386622 -0.224524
0.588518 -0.386622 0.201710
0.394661 -0.166570 0.633890
-0.585716 0.136929 -0.337030
-0.652441 -0.329596 0.307963
0.220184 -0.386622 -0.009689
0.002927 -0.386622 -0.538703
-0.447741 -0.212105 0.616220
-0.372984 -0.112335 0.647742
0.058777 -0.386622 0.157373
0.656437 0.310552 0.380988
-0.396956 -0.212105 0.159472
-0.398550 0.398705 -0.227892
0.099571 -0.386622 -0.044337
-0.390665 0.129129 0.042221
-0.526699 -0.386622 -0.026309
0.060565 0.398705 0.337833
-0.529813 0.136929 -0.340808
-0.652441 0.315442 0.194483
0.463938 -0.299996 0.647742
-0.095522 0.398705 0.347685
0.656437 0.177860 0.184840
-0.001270 0.317713 0.647742
0.086986 0.097520 -0.661136
0.656437 0.393976 0.489724
-0.465432 0.136929 0.158342
-0.508713 0.136929 -0.310168
0.548652 0.398705 -0.469016
0.271772 -0.144017 -0.661136
-0.493085 -0.386622 -0.052218
-0.045838 0.398705 -0.048927
-0.390665 0.049118 0.309303
-0.583412 -0.386622 -0.074042
0.425049 -0.386622 0.586902
-0.516763 0.398705 0.350595
-0.407817 -0.386622 -0.283060
0.091310 -0.386622 -0.440882
0.589334 -0.212105 0.474369
-0.301591 -0.386622 0.351998
0.656437 0.271749 -0.519945
-0.446836 0.136929 -0.159983
-0.000510 0.398705 0.433001
0.108958 0.398705 -0.436496
0.376765 0.267334 -0.661136
0.462022 -0.212105 0.339950
0.395642 -0.386622 -0.460210
-0.051078 0.398705 -0.356295
-0.614331 -0.386622 0.152349
0.254048 0.398705 -0.540102
-0.419862 0.136929 0.176243
-0.453408 0.136929 -0.447751
0.031448 0.012594 -0.661136
0.607806 0.136929 0.018209
-0.012268 0.398705 0.389393
-0.342051 -0.386622 0.139968
0.520346 0.398705 -0.217550
-0.411794 0.136929 0.381756
0.164301 -0.339719 0.647742
0.394661 -0.048509 0.585975
-0.502343 -0.212105 0.007241
-0.097590 -0.386622 -0.186662
0.633328 0.398705 0.045619
0.578643 -0.212105 -0.305977
0.647952 -0.212105 0.006815
0.349595 -0.386622 -0.328769
-0.095279 -0.386622 0.585794
-0.121629 0.159867 0.647742
-0.464842 -0.212105 0.232308
-0.652441 0.340016 -0.325231
-0.163620 0.398705 -0.330013
-0.008888 0.398705 0.335038
0.620407 0.398705 -0.488280
0.237142 -0.386622 -0.344416
-0.521956 -0.212105 -0.170059
-0.417523 0.398705 0.355079
-0.141743 -0.386622 0.295665
0.333559 0.398705 -0.118231
-0.345332 0.398705 -0.392422
0.431802 0.136929 -0.632620
-0.513089 -0.212105 0.602376
-0.059399 -0.386622 -0.580462
-0.115537 -0.286749 0.647742
0.656437 0.277717 -0.027714
0.324687 0.342965 -0.661136
-0.613188 0.240688 0.647742
0.656437 0.383138 0.301030
-0.191551 -0.386622 0.515062
0.065327 0.206451 0.647742
0.245392 0.003883 -0.661136
-0.652441 -0.339603 -0.502977
0.613436 0.136929 -0.445210
0.394661 0.051730 0.443295
0.439288 0.398705 -0.318774
-0.593068 0.136929 0.566169
-0.609620 -0.386622 -0.502097
-0.464399 0.136929 0.105016
-0.112649 0.086501 -0.661136
0.551532 0.398705 -0.429931
0.484162 0.304563 -0.661136
0.423886 0.136929 -0.320133
