-34.905392	54.200001	-1.170129	-0.999439	0.000000	-0.033504
-34.905392	57.400002	-1.170129	-0.999439	0.000000	-0.033504
-34.905392	56.818180	-1.170129	-0.999439	0.000000	-0.033504
-34.905392	57.109093	-1.170129	-0.999439	0.000000	-0.033504
-34.905392	56.527271	-1.170129	-0.999439	0.000000	-0.033504
34.905392	57.400002	-1.170129	0.999439	0.000000	-0.033504
34.905392	57.109093	-1.170129	0.999439	0.000000	-0.033504
34.905392	56.818180	-1.170129	0.999439	0.000000	-0.033504
34.905392	56.527271	-1.170129	0.999439	0.000000	-0.033504
34.905392	56.236362	-1.170129	0.999439	0.000000	-0.033504
34.905392	55.945454	-1.170129	0.999439	0.000000	-0.033504
34.905392	55.654545	-1.170129	0.999439	0.000000	-0.033504
34.905392	55.363636	-1.170129	0.999439	0.000000	-0.033504
34.905392	55.072727	-1.170129	0.999439	0.000000	-0.033504
34.905392	54.781818	-1.170129	0.999439	0.000000	-0.033504
34.905392	54.490910	-1.170129	0.999439	0.000000	-0.033504
34.905392	54.200001	-1.170129	0.999439	0.000000	-0.033504
-34.913971	56.818180	-0.877669	-0.999684	0.000000	-0.025130
-34.913971	54.200001	-0.877669	-0.999684	0.000000	-0.025130
-34.913971	54.781818	-0.877669	-0.999684	0.000000	-0.025130
-34.913971	55.072727	-0.877669	-0.999684	0.000000	-0.025130
-34.913971	55.363636	-0.877669	-0.999684	0.000000	-0.025130
-34.913971	55.654545	-0.877669	-0.999684	0.000000	-0.025130
-34.913971	55.945454	-0.877669	-0.999684	0.000000	-0.025130
-34.913971	56.236362	-0.877669	-0.999684	0.000000	-0.025130
-34.913971	56.527271	-0.877669	-0.999684	0.000000	-0.025130
-34.913971	57.109093	-0.877669	-0.999684	0.000000	-0.025130
-34.913971	57.400002	-0.877669	-0.999684	0.000000	-0.025130
-34.913971	54.490910	-0.877669	-0.999684	0.000000	-0.025130
34.913971	55.363636	-0.877669	0.999684	0.000000	-0.025130
34.913971	57.109093	-0.877669	0.999684	0.000000	-0.025130
34.913971	55.945454	-0.877669	0.999684	0.000000	-0.025130
34.913971	56.236362	-0.877669	0.999684	0.000000	-0.025130
34.913971	57.400002	-0.877669	0.999684	0.000000	-0.025130
34.913971	56.818180	-0.877669	0.999684	0.000000	-0.025130
34.913971	54.200001	-0.877669	0.999684	0.000000	-0.025130
34.913971	56.527271	-0.877669	0.999684	0.000000	-0.025130
34.913971	54.490910	-0.877669	0.999684	0.000000	-0.025130
34.913971	54.781818	-0.877669	0.999684	0.000000	-0.025130
34.913971	55.072727	-0.877669	0.999684	0.000000	-0.025130
34.913971	55.654545	-0.877669	0.999684	0.000000	-0.025130
-34.920097	57.400002	-0.585147	-0.999860	0.000000	-0.016754
-34.920097	57.109093	-0.585147	-0.999860	0.000000	-0.016754
-34.920097	56.818180	-0.585147	-0.999860	0.000000	-0.016754
-34.920097	56.527271	-0.585147	-0.999860	0.000000	-0.016754
-34.920097	56.236362	-0.585147	-0.999860	0.000000	-0.016754
-34.920097	55.945454	-0.585147	-0.999860	0.000000	-0.016754
-34.920097	55.654545	-0.585147	-0.999860	0.000000	-0.016754
-34.920097	55.363636	-0.585147	-0.999860	0.000000	-0.016754
-34.920097	55.072727	-0.585147	-0.999860	0.000000	-0.016754
-34.920097	54.781818	-0.585147	-0.999860	0.000000	-0.016754
-34.920097	54.490910	-0.585147	-0.999860	0.000000	-0.016754
-34.920097	54.200001	-0.585147	-0.999860	0.000000	-0.016754
34.920097	57.400002	-0.585147	0.999860	0.000000	-0.016754
34.920097	57.109093	-0.585147	0.999860	0.000000	-0.016754
34.920097	56.818180	-0.585147	0.999860	0.000000	-0.016754
34.920097	56.527271	-0.585147	0.999860	0.000000	-0.016754
34.920097	56.236362	-0.585147	0.999860	0.000000	-0.016754
34.920097	55.945454	-0.585147	0.999860	0.000000	-0.016754
34.920097	55.654545	-0.585147	0.999860	0.000000	-0.016754
34.920097	55.363636	-0.585147	0.999860	0.000000	-0.016754
34.920097	55.072727	-0.585147	0.999860	0.000000	-0.016754
34.920097	54.781818	-0.585147	0.999860	0.000000	-0.016754
34.920097	54.490910	-0.585147	0.999860	0.000000	-0.016754
34.920097	54.200001	-0.585147	0.999860	0.000000	-0.016754
-34.923775	54.781818	-0.292584	-0.999965	0.000000	-0.008377
-34.923775	57.109093	-0.292584	-0.999965	0.000000	-0.008377
-34.923775	55.945454	-0.292584	-0.999965	0.000000	-0.008377
-34.923775	55.654545	-0.292584	-0.999965	0.000000	-0.008377
-34.923775	55.363636	-0.292584	-0.999965	0.000000	-0.008377
-34.923775	55.072727	-0.292584	-0.999965	0.000000	-0.008377
-34.923775	54.490910	-0.292584	-0.999965	0.000000	-0.008377
-34.923775	54.200001	-0.292584	-0.999965	0.000000	-0.008377
-34.923775	56.818180	-0.292584	-0.999965	0.000000	-0.008377
-34.923775	56.527271	-0.292584	-0.999965	0.000000	-0.008377
-34.923775	56.236362	-0.292584	-0.999965	0.000000	-0.008377
-34.923775	57.400002	-0.292584	-0.999965	0.000000	-0.008377
34.923775	57.400002	-0.292584	0.999965	0.000000	-0.008377
34.923775	57.109093	-0.292584	0.999965	0.000000	-0.008377
34.923775	56.818180	-0.292584	0.999965	0.000000	-0.008377
34.923775	56.236362	-0.292584	0.999965	0.000000	-0.008377
34.923775	55.945454	-0.292584	0.999965	0.000000	-0.008377
34.923775	55.654545	-0.292584	0.999965	0.000000	-0.008377
34.923775	55.363636	-0.292584	0.999965	0.000000	-0.008377
34.923775	55.072727	-0.292584	0.999965	0.000000	-0.008377
34.923775	54.781818	-0.292584	0.999965	0.000000	-0.008377
34.923775	54.490910	-0.292584	0.999965	0.000000	-0.008377
34.923775	54.200001	-0.292584	0.999965	0.000000	-0.008377
34.923775	56.527271	-0.292584	0.999965	0.000000	-0.008377
-34.924999	56.527271	0.000000	-1.000000	0.000000	0.000000
-34.924999	56.236362	0.000000	-1.000000	0.000000	0.000000
-34.924999	55.363636	0.000000	-1.000000	0.000000	0.000000
-34.924999	55.072727	0.000000	-1.000000	0.000000	0.000000
-34.924999	54.781818	0.000000	-1.000000	0.000000	0.000000
-34.924999	54.200001	0.000000	-1.000000	0.000000	0.000000
-34.924999	54.490910	0.000000	-1.000000	0.000000	0.000000
-34.924999	55.945454	0.000000	-1.000000	0.000000	0.000000
-34.924999	57.400002	0.000000	-1.000000	0.000000	0.000000
-34.924999	55.654545	0.000000	-1.000000	0.000000	0.000000
-34.924999	57.109093	0.000000	-1.000000	0.000000	0.000000
-34.924999	56.818180	0.000000	-1.000000	0.000000	0.000000
34.924999	54.490910	0.000000	1.000000	0.000000	0.000000
34.924999	54.781818	0.000000	1.000000	0.000000	0.000000
34.924999	55.072727	0.000000	1.000000	0.000000	0.000000
34.924999	55.363636	0.000000	1.000000	0.000000	0.000000
34.924999	55.654545	0.000000	1.000000	0.000000	0.000000
34.924999	55.945454	0.000000	1.000000	0.000000	0.000000
34.924999	56.236362	0.000000	1.000000	0.000000	0.000000
34.924999	56.527271	0.000000	1.000000	0.000000	0.000000
34.924999	56.818180	0.000000	1.000000	0.000000	0.000000
34.924999	57.109093	0.000000	1.000000	0.000000	0.000000
34.924999	57.400002	0.000000	1.000000	0.000000	0.000000
34.924999	54.200001	0.000000	1.000000	0.000000	0.000000
-34.923775	55.945454	0.292584	-0.999965	0.000000	0.008377
-34.923775	55.654545	0.292584	-0.999965	0.000000	0.008377
-34.923775	54.200001	0.292584	-0.999965	0.000000	0.008377
-34.923775	56.236362	0.292584	-0.999965	0.000000	0.008377
-34.923775	57.400002	0.292584	-0.999965	0.000000	0.008377
-34.923775	57.109093	0.292584	-0.999965	0.000000	0.008377
-34.923775	56.818180	0.292584	-0.999965	0.000000	0.008377
-34.923775	56.527271	0.292584	-0.999965	0.000000	0.008377
-34.923775	54.490910	0.292584	-0.999965	0.000000	0.008377
-34.923775	54.781818	0.292584	-0.999965	0.000000	0.008377
-34.923775	55.072727	0.292584	-0.999965	0.000000	0.008377
-34.923775	55.363636	0.292584	-0.999965	0.000000	0.008377
34.923775	56.818180	0.292584	0.999965	0.000000	0.008377
34.923775	56.527271	0.292584	0.999965	0.000000	0.008377
34.923775	56.236362	0.292584	0.999965	0.000000	0.008377
34.923775	55.945454	0.292584	0.999965	0.000000	0.008377
34.923775	55.654545	0.292584	0.999965	0.000000	0.008377
34.923775	55.363636	0.292584	0.999965	0.000000	0.008377
34.923775	55.072727	0.292584	0.999965	0.000000	0.008377
34.923775	54.781818	0.292584	0.999965	0.000000	0.008377
34.923775	57.400002	0.292584	0.999965	0.000000	0.008377
34.923775	54.490910	0.292584	0.999965	0.000000	0.008377
34.923775	54.200001	0.292584	0.999965	0.000000	0.008377
34.923775	57.109093	0.292584	0.999965	0.000000	0.008377
-34.920097	55.072727	0.585147	-0.999860	0.000000	0.016754
-34.920097	54.490910	0.585147	-0.999860	0.000000	0.016754
-34.920097	54.200001	0.585147	-0.999860	0.000000	0.016754
-34.920097	57.109093	0.585147	-0.999860	0.000000	0.016754
-34.920097	57.400002	0.585147	-0.999860	0.000000	0.016754
-34.920097	56.818180	0.585147	-0.999860	0.000000	0.016754
-34.920097	56.527271	0.585147	-0.999860	0.000000	0.016754
-34.920097	56.236362	0.585147	-0.999860	0.000000	0.016754
-34.920097	55.945454	0.585147	-0.999860	0.000000	0.016754
-34.920097	55.654545	0.585147	-0.999860	0.000000	0.016754
-34.920097	55.363636	0.585147	-0.999860	0.000000	0.016754
-34.920097	54.781818	0.585147	-0.999860	0.000000	0.016754
34.920097	57.400002	0.585147	0.999860	0.000000	0.016754
34.920097	57.109093	0.585147	0.999860	0.000000	0.016754
34.920097	56.818180	0.585147	0.999860	0.000000	0.016754
34.920097	56.527271	0.585147	0.999860	0.000000	0.016754
34.920097	56.236362	0.585147	0.999860	0.000000	0.016754
34.920097	55.945454	0.585147	0.999860	0.000000	0.016754
34.920097	55.654545	0.585147	0.999860	0.000000	0.016754
34.920097	55.363636	0.585147	0.999860	0.000000	0.016754
34.920097	55.072727	0.585147	0.999860	0.000000	0.016754
34.920097	54.781818	0.585147	0.999860	0.000000	0.016754
34.920097	54.490910	0.585147	0.999860	0.000000	0.016754
34.920097	54.200001	0.585147	0.999860	0.000000	0.016754
-34.913971	57.400002	0.877669	-0.999684	0.000000	0.025130
-34.913971	54.781818	0.877669	-0.999684	0.000000	0.025130
-34.913971	57.109093	0.877669	-0.999684	0.000000	0.025130
-34.913971	56.818180	0.877669	-0.999684	0.000000	0.025130
-34.913971	56.527271	0.877669	-0.999684	0.000000	0.025130
-34.913971	56.236362	0.877669	-0.999684	0.000000	0.025130
-34.913971	55.945454	0.877669	-0.999684	0.000000	0.025130
-34.913971	55.654545	0.877669	-0.999684	0.000000	0.025130
-34.913971	55.363636	0.877669	-0.999684	0.000000	0.025130
-34.913971	55.072727	0.877669	-0.999684	0.000000	0.025130
-34.913971	54.200001	0.877669	-0.999684	0.000000	0.025130
-34.913971	54.490910	0.877669	-0.999684	0.000000	0.025130
34.913971	57.400002	0.877669	0.999684	0.000000	0.025130
34.913971	57.109093	0.877669	0.999684	0.000000	0.025130
34.913971	55.945454	0.877669	0.999684	0.000000	0.025130
34.913971	54.200001	0.877669	0.999684	0.000000	0.025130
34.913971	54.490910	0.877669	0.999684	0.000000	0.025130
34.913971	54.781818	0.877669	0.999684	0.000000	0.025130
34.913971	55.072727	0.877669	0.999684	0.000000	0.025130
34.913971	55.363636	0.877669	0.999684	0.000000	0.025130
34.913971	55.654545	0.877669	0.999684	0.000000	0.025130
34.913971	56.236362	0.877669	0.999684	0.000000	0.025130
34.913971	56.527271	0.877669	0.999684	0.000000	0.025130
34.913971	56.818180	0.877669	0.999684	0.000000	0.025130
-34.905392	56.527271	1.170129	-0.999439	0.000000	0.033504
-34.905392	54.200001	1.170129	-0.999439	0.000000	0.033504
-34.905392	54.490910	1.170129	-0.999439	0.000000	0.033504
-34.905392	55.072727	1.170129	-0.999439	0.000000	0.033504
-34.905392	55.363636	1.170129	-0.999439	0.000000	0.033504
-34.905392	55.654545	1.170129	-0.999439	0.000000	0.033504
-34.905392	55.945454	1.170129	-0.999439	0.000000	0.033504
-34.905392	56.236362	1.170129	-0.999439	0.000000	0.033504
-34.905392	56.818180	1.170129	-0.999439	0.000000	0.033504
-34.905392	57.109093	1.170129	-0.999439	0.000000	0.033504
-34.905392	57.400002	1.170129	-0.999439	0.000000	0.033504
-34.905392	54.781818	1.170129	-0.999439	0.000000	0.033504
34.905392	56.527271	1.170129	0.999439	0.000000	0.033504
34.905392	56.236362	1.170129	0.999439	0.000000	0.033504
34.905392	55.945454	1.170129	0.999439	0.000000	0.033504
34.905392	55.363636	1.170129	0.999439	0.000000	0.033504
34.905392	57.400002	1.170129	0.999439	0.000000	0.033504
34.905392	55.654545	1.170129	0.999439	0.000000	0.033504
34.905392	55.072727	1.170129	0.999439	0.000000	0.033504
34.905392	54.490910	1.170129	0.999439	0.000000	0.033504
34.905392	57.109093	1.170129	0.999439	0.000000	0.033504
34.905392	54.200001	1.170129	0.999439	0.000000	0.033504
34.905392	56.818180	1.170129	0.999439	0.000000	0.033504
34.905392	54.781818	1.170129	0.999439	0.000000	0.033504
-34.894363	55.945454	1.462507	-0.999123	0.000000	0.041876
-34.894363	57.400002	1.462507	-0.999123	0.000000	0.041876
-34.894363	57.109093	1.462507	-0.999123	0.000000	0.041876
-34.894363	56.818180	1.462507	-0.999123	0.000000	0.041876
-34.894363	56.527271	1.462507	-0.999123	0.000000	0.041876
-34.894363	56.236362	1.462507	-0.999123	0.000000	0.041876
-34.894363	55.654545	1.462507	-0.999123	0.000000	0.041876
-34.894363	55.363636	1.462507	-0.999123	0.000000	0.041876
-34.894363	55.072727	1.462507	-0.999123	0.000000	0.041876
-34.894363	54.781818	1.462507	-0.999123	0.000000	0.041876
-34.894363	54.490910	1.462507	-0.999123	0.000000	0.041876
-34.894363	54.200001	1.462507	-0.999123	0.000000	0.041876
34.894363	57.400002	1.462507	0.999123	0.000000	0.041876
34.894363	57.109093	1.462507	0.999123	0.000000	0.041876
34.894363	56.818180	1.462507	0.999123	0.000000	0.041876
34.894363	56.527271	1.462507	0.999123	0.000000	0.041876
34.894363	56.236362	1.462507	0.999123	0.000000	0.041876
34.894363	55.945454	1.462507	0.999123	0.000000	0.041876
34.894363	55.654545	1.462507	0.999123	0.000000	0.041876
34.894363	55.363636	1.462507	0.999123	0.000000	0.041876
34.894363	55.072727	1.462507	0.999123	0.000000	0.041876
34.894363	54.781818	1.462507	0.999123	0.000000	0.041876
34.894363	54.490910	1.462507	0.999123	0.000000	0.041876
34.894363	54.200001	1.462507	0.999123	0.000000	0.041876
-34.880890	56.527271	1.754783	-0.998737	0.000000	0.050244
-34.880890	55.072727	1.754783	-0.998737	0.000000	0.050244
-34.880890	57.109093	1.754783	-0.998737	0.000000	0.050244
-34.880890	56.236362	1.754783	-0.998737	0.000000	0.050244
-34.880890	55.945454	1.754783	-0.998737	0.000000	0.050244
-34.880890	55.363636	1.754783	-0.998737	0.000000	0.050244
-34.880890	55.654545	1.754783	-0.998737	0.000000	0.050244
-34.880890	54.781818	1.754783	-0.998737	0.000000	0.050244
-34.880890	56.818180	1.754783	-0.998737	0.000000	0.050244
-34.880890	57.400002	1.754783	-0.998737	0.000000	0.050244
-34.880890	54.200001	1.754783	-0.998737	0.000000	0.050244
-34.880890	54.490910	1.754783	-0.998737	0.000000	0.050244
34.880890	55.945454	1.754783	0.998737	0.000000	0.050244
34.880890	55.654545	1.754783	0.998737	0.000000	0.050244
34.880890	55.363636	1.754783	0.998737	0.000000	0.050244
34.880890	55.072727	1.754783	0.998737	0.000000	0.050244
34.880890	54.781818	1.754783	0.998737	0.000000	0.050244
34.880890	54.200001	1.754783	0.998737	0.000000	0.050244
34.880890	54.490910	1.754783	0.998737	0.000000	0.050244
34.880890	57.400002	1.754783	0.998737	0.000000	0.050244
34.880890	57.109093	1.754783	0.998737	0.000000	0.050244
34.880890	56.818180	1.754783	0.998737	0.000000	0.050244
34.880890	56.527271	1.754783	0.998737	0.000000	0.050244
34.880890	56.236362	1.754783	0.998737	0.000000	0.050244
-34.864964	56.527271	2.046935	-0.998281	0.000000	0.058609
-34.864964	57.400002	2.046935	-0.998281	0.000000	0.058609
-34.864964	55.945454	2.046935	-0.998281	0.000000	0.058609
-34.864964	55.654545	2.046935	-0.998281	0.000000	0.058609
-34.864964	55.363636	2.046935	-0.998281	0.000000	0.058609
-34.864964	55.072727	2.046935	-0.998281	0.000000	0.058609
-34.864964	54.781818	2.046935	-0.998281	0.000000	0.058609
-34.864964	56.236362	2.046935	-0.998281	0.000000	0.058609
-34.864964	54.200001	2.046935	-0.998281	0.000000	0.058609
-34.864964	57.109093	2.046935	-0.998281	0.000000	0.058609
-34.864964	56.818180	2.046935	-0.998281	0.000000	0.058609
-34.864964	54.490910	2.046935	-0.998281	0.000000	0.058609
34.864964	54.200001	2.046935	0.998281	0.000000	0.058609
34.864964	55.945454	2.046935	0.998281	0.000000	0.058609
34.864964	56.236362	2.046935	0.998281	0.000000	0.058609
34.864964	56.527271	2.046935	0.998281	0.000000	0.058609
34.864964	56.818180	2.046935	0.998281	0.000000	0.058609
34.864964	57.109093	2.046935	0.998281	0.000000	0.058609
34.864964	57.400002	2.046935	0.998281	0.000000	0.058609
34.864964	55.654545	2.046935	0.998281	0.000000	0.058609
34.864964	55.363636	2.046935	0.998281	0.000000	0.058609
34.864964	55.072727	2.046935	0.998281	0.000000	0.058609
34.864964	54.781818	2.046935	0.998281	0.000000	0.058609
34.864964	54.490910	2.046935	0.998281	0.000000	0.058609
-34.846592	55.945454	2.338944	-0.997755	0.000000	0.066970
-34.846592	55.363636	2.338944	-0.997755	0.000000	0.066970
-34.846592	55.072727	2.338944	-0.997755	0.000000	0.066970
-34.846592	54.781818	2.338944	-0.997755	0.000000	0.066970
-34.846592	54.490910	2.338944	-0.997755	0.000000	0.066970
-34.846592	54.200001	2.338944	-0.997755	0.000000	0.066970
-34.846592	56.818180	2.338944	-0.997755	0.000000	0.066970
-34.846592	57.400002	2.338944	-0.997755	0.000000	0.066970
-34.846592	55.654545	2.338944	-0.997755	0.000000	0.066970
-34.846592	57.109093	2.338944	-0.997755	0.000000	0.066970
-34.846592	56.527271	2.338944	-0.997755	0.000000	0.066970
-34.846592	56.236362	2.338944	-0.997755	0.000000	0.066970
34.846592	57.400002	2.338944	0.997755	0.000000	0.066970
34.846592	57.109093	2.338944	0.997755	0.000000	0.066970
34.846592	56.818180	2.338944	0.997755	0.000000	0.066970
34.846592	56.527271	2.338944	0.997755	0.000000	0.066970
34.846592	56.236362	2.338944	0.997755	0.000000	0.066970
34.846592	55.945454	2.338944	0.997755	0.000000	0.066970
34.846592	55.654545	2.338944	0.997755	0.000000	0.066970
34.846592	55.363636	2.338944	0.997755	0.000000	0.066970
34.846592	55.072727	2.338944	0.997755	0.000000	0.066970
34.846592	54.781818	2.338944	0.997755	0.000000	0.066970
34.846592	54.490910	2.338944	0.997755	0.000000	0.066970
34.846592	54.200001	2.338944	0.997755	0.000000	0.066970
-34.825775	55.072727	2.630789	-0.997159	0.000000	0.075327
-34.825775	55.363636	2.630789	-0.997159	0.000000	0.075327
-34.825775	55.654545	2.630789	-0.997159	0.000000	0.075327
-34.825775	57.400002	2.630789	-0.997159	0.000000	0.075327
-34.825775	55.945454	2.630789	-0.997159	0.000000	0.075327
-34.825775	56.236362	2.630789	-0.997159	0.000000	0.075327
-34.825775	56.527271	2.630789	-0.997159	0.000000	0.075327
-34.825775	57.109093	2.630789	-0.997159	0.000000	0.075327
-34.825775	56.818180	2.630789	-0.997159	0.000000	0.075327
-34.825775	54.200001	2.630789	-0.997159	0.000000	0.075327
-34.825775	54.490910	2.630789	-0.997159	0.000000	0.075327
-34.825775	54.781818	2.630789	-0.997159	0.000000	0.075327
34.825775	57.400002	2.630789	0.997159	0.000000	0.075327
34.825775	54.781818	2.630789	0.997159	0.000000	0.075327
34.825775	55.072727	2.630789	0.997159	0.000000	0.075327
34.825775	55.654545	2.630789	0.997159	0.000000	0.075327
34.825775	55.945454	2.630789	0.997159	0.000000	0.075327
34.825775	56.236362	2.630789	0.997159	0.000000	0.075327
34.825775	56.818180	2.630789	0.997159	0.000000	0.075327
34.825775	57.109093	2.630789	0.997159	0.000000	0.075327
34.825775	55.363636	2.630789	0.997159	0.000000	0.075327
34.825775	56.527271	2.630789	0.997159	0.000000	0.075327
34.825775	54.200001	2.630789	0.997159	0.000000	0.075327
34.825775	54.490910	2.630789	0.997159	0.000000	0.075327
-34.802513	55.654545	2.922449	-0.996493	0.000000	0.083678
-34.802513	55.072727	2.922449	-0.996493	0.000000	0.083678
-34.802513	54.781818	2.922449	-0.996493	0.000000	0.083678
-34.802513	54.490910	2.922449	-0.996493	0.000000	0.083678
-34.802513	54.200001	2.922449	-0.996493	0.000000	0.083678
-34.802513	55.945454	2.922449	-0.996493	0.000000	0.083678
-34.802513	55.363636	2.922449	-0.996493	0.000000	0.083678
-34.802513	57.109093	2.922449	-0.996493	0.000000	0.083678
-34.802513	57.400002	2.922449	-0.996493	0.000000	0.083678
-34.802513	56.818180	2.922449	-0.996493	0.000000	0.083678
-34.802513	56.527271	2.922449	-0.996493	0.000000	0.083678
-34.802513	56.236362	2.922449	-0.996493	0.000000	0.083678
34.802513	55.945454	2.922449	0.996493	0.000000	0.083678
34.802513	54.490910	2.922449	0.996493	0.000000	0.083678
34.802513	54.781818	2.922449	0.996493	0.000000	0.083678
34.802513	57.109093	2.922449	0.996493	0.000000	0.083678
34.802513	55.363636	2.922449	0.996493	0.000000	0.083678
34.802513	55.654545	2.922449	0.996493	0.000000	0.083678
34.802513	55.072727	2.922449	0.996493	0.000000	0.083678
34.802513	54.200001	2.922449	0.996493	0.000000	0.083678
34.802513	57.400002	2.922449	0.996493	0.000000	0.083678
34.802513	56.818180	2.922449	0.996493	0.000000	0.083678
34.802513	56.527271	2.922449	0.996493	0.000000	0.083678
34.802513	56.236362	2.922449	0.996493	0.000000	0.083678
-34.776810	55.654545	3.213904	-0.995757	0.000000	0.092023
-34.776810	55.072727	3.213904	-0.995757	0.000000	0.092023
-34.776810	54.781818	3.213904	-0.995757	0.000000	0.092023
-34.776810	54.490910	3.213904	-0.995757	0.000000	0.092023
-34.776810	54.200001	3.213904	-0.995757	0.000000	0.092023
-34.776810	57.109093	3.213904	-0.995757	0.000000	0.092023
-34.776810	55.945454	3.213904	-0.995757	0.000000	0.092023
-34.776810	55.363636	3.213904	-0.995757	0.000000	0.092023
-34.776810	57.400002	3.213904	-0.995757	0.000000	0.092023
-34.776810	56.236362	3.213904	-0.995757	0.000000	0.092023
-34.776810	56.818180	3.213904	-0.995757	0.000000	0.092023
-34.776810	56.527271	3.213904	-0.995757	0.000000	0.092023
34.776810	54.490910	3.213904	0.995757	0.000000	0.092023
34.776810	57.400002	3.213904	0.995757	0.000000	0.092023
34.776810	55.363636	3.213904	0.995757	0.000000	0.092023
34.776810	55.654545	3.213904	0.995757	0.000000	0.092023
34.776810	55.945454	3.213904	0.995757	0.000000	0.092023
34.776810	56.236362	3.213904	0.995757	0.000000	0.092023
34.776810	56.527271	3.213904	0.995757	0.000000	0.092023
34.776810	56.818180	3.213904	0.995757	0.000000	0.092023
34.776810	55.072727	3.213904	0.995757	0.000000	0.092023
34.776810	57.109093	3.213904	0.995757	0.000000	0.092023
34.776810	54.200001	3.213904	0.995757	0.000000	0.092023
34.776810	54.781818	3.213904	0.995757	0.000000	0.092023
-34.748665	57.109093	3.505133	-0.994951	0.000000	0.100362
-34.748665	56.818180	3.505133	-0.994951	0.000000	0.100362
-34.748665	56.527271	3.505133	-0.994951	0.000000	0.100362
-34.748665	56.236362	3.505133	-0.994951	0.000000	0.100362
-34.748665	55.945454	3.505133	-0.994951	0.000000	0.100362
-34.748665	55.654545	3.505133	-0.994951	0.000000	0.100362
-34.748665	57.400002	3.505133	-0.994951	0.000000	0.100362
-34.748665	55.072727	3.505133	-0.994951	0.000000	0.100362
-34.748665	54.781818	3.505133	-0.994951	0.000000	0.100362
-34.748665	54.490910	3.505133	-0.994951	0.000000	0.100362
-34.748665	54.200001	3.505133	-0.994951	0.000000	0.100362
-34.748665	55.363636	3.505133	-0.994951	0.000000	0.100362
34.748665	57.400002	3.505133	0.994951	0.000000	0.100362
34.748665	55.945454	3.505133	0.994951	0.000000	0.100362
34.748665	56.527271	3.505133	0.994951	0.000000	0.100362
34.748665	55.654545	3.505133	0.994951	0.000000	0.100362
34.748665	55.363636	3.505133	0.994951	0.000000	0.100362
34.748665	57.109093	3.505133	0.994951	0.000000	0.100362
34.748665	55.072727	3.505133	0.994951	0.000000	0.100362
34.748665	54.781818	3.505133	0.994951	0.000000	0.100362
34.748665	54.490910	3.505133	0.994951	0.000000	0.100362
34.748665	54.200001	3.505133	0.994951	0.000000	0.100362
34.748665	56.818180	3.505133	0.994951	0.000000	0.100362
34.748665	56.236362	3.505133	0.994951	0.000000	0.100362
-34.718082	55.945454	3.796116	-0.994075	0.000000	0.108693
-34.718082	56.236362	3.796116	-0.994075	0.000000	0.108693
-34.718082	56.527271	3.796116	-0.994075	0.000000	0.108693
-34.718082	56.818180	3.796116	-0.994075	0.000000	0.108693
-34.718082	57.109093	3.796116	-0.994075	0.000000	0.108693
-34.718082	57.400002	3.796116	-0.994075	0.000000	0.108693
-34.718082	54.781818	3.796116	-0.994075	0.000000	0.108693
-34.718082	54.200001	3.796116	-0.994075	0.000000	0.108693
-34.718082	54.490910	3.796116	-0.994075	0.000000	0.108693
-34.718082	55.072727	3.796116	-0.994075	0.000000	0.108693
-34.718082	55.363636	3.796116	-0.994075	0.000000	0.108693
-34.718082	55.654545	3.796116	-0.994075	0.000000	0.108693
34.718082	57.400002	3.796116	0.994075	0.000000	0.108693
34.718082	57.109093	3.796116	0.994075	0.000000	0.108693
34.718082	54.200001	3.796116	0.994075	0.000000	0.108693
34.718082	56.818180	3.796116	0.994075	0.000000	0.108693
34.718082	56.527271	3.796116	0.994075	0.000000	0.108693
34.718082	56.236362	3.796116	0.994075	0.000000	0.108693
34.718082	55.945454	3.796116	0.994075	0.000000	0.108693
34.718082	55.654545	3.796116	0.994075	0.000000	0.108693
34.718082	55.363636	3.796116	0.994075	0.000000	0.108693
34.718082	55.072727	3.796116	0.994075	0.000000	0.108693
34.718082	54.781818	3.796116	0.994075	0.000000	0.108693
34.718082	54.490910	3.796116	0.994075	0.000000	0.108693
-34.685059	55.945454	4.086833	-0.993130	0.000000	0.117017
-34.685059	54.490910	4.086833	-0.993130	0.000000	0.117017
-34.685059	56.236362	4.086833	-0.993130	0.000000	0.117017
-34.685059	56.527271	4.086833	-0.993130	0.000000	0.117017
-34.685059	56.818180	4.086833	-0.993130	0.000000	0.117017
-34.685059	57.109093	4.086833	-0.993130	0.000000	0.117017
-34.685059	57.400002	4.086833	-0.993130	0.000000	0.117017
-34.685059	54.200001	4.086833	-0.993130	0.000000	0.117017
-34.685059	54.781818	4.086833	-0.993130	0.000000	0.117017
-34.685059	55.072727	4.086833	-0.993130	0.000000	0.117017
-34.685059	55.363636	4.086833	-0.993130	0.000000	0.117017
-34.685059	55.654545	4.086833	-0.993130	0.000000	0.117017
34.685059	57.400002	4.086833	0.993130	0.000000	0.117017
34.685059	57.109093	4.086833	0.993130	0.000000	0.117017
34.685059	54.200001	4.086833	0.993130	0.000000	0.117017
34.685059	56.818180	4.086833	0.993130	0.000000	0.117017
34.685059	56.527271	4.086833	0.993130	0.000000	0.117017
34.685059	56.236362	4.086833	0.993130	0.000000	0.117017
34.685059	55.945454	4.086833	0.993130	0.000000	0.117017
34.685059	55.654545	4.086833	0.993130	0.000000	0.117017
34.685059	55.363636	4.086833	0.993130	0.000000	0.117017
34.685059	55.072727	4.086833	0.993130	0.000000	0.117017
34.685059	54.781818	4.086833	0.993130	0.000000	0.117017
34.685059	54.490910	4.086833	0.993130	0.000000	0.117017
-34.649605	55.654545	4.377263	-0.992115	0.000000	0.125333
-34.649605	55.945454	4.377263	-0.992115	0.000000	0.125333
-34.649605	55.363636	4.377263	-0.992115	0.000000	0.125333
-34.649605	56.236362	4.377263	-0.992115	0.000000	0.125333
-34.649605	56.527271	4.377263	-0.992115	0.000000	0.125333
-34.649605	56.818180	4.377263	-0.992115	0.000000	0.125333
-34.649605	57.109093	4.377263	-0.992115	0.000000	0.125333
-34.649605	54.781818	4.377263	-0.992115	0.000000	0.125333
-34.649605	55.072727	4.377263	-0.992115	0.000000	0.125333
-34.649605	57.400002	4.377263	-0.992115	0.000000	0.125333
-34.649605	54.200001	4.377263	-0.992115	0.000000	0.125333
-34.649605	54.490910	4.377263	-0.992115	0.000000	0.125333
34.649605	57.400002	4.377263	0.992115	0.000000	0.125333
34.649605	57.109093	4.377263	0.992115	0.000000	0.125333
34.649605	56.818180	4.377263	0.992115	0.000000	0.125333
34.649605	56.527271	4.377263	0.992115	0.000000	0.125333
34.649605	56.236362	4.377263	0.992115	0.000000	0.125333
34.649605	54.200001	4.377263	0.992115	0.000000	0.125333
34.649605	55.654545	4.377263	0.992115	0.000000	0.125333
34.649605	55.072727	4.377263	0.992115	0.000000	0.125333
34.649605	54.781818	4.377263	0.992115	0.000000	0.125333
34.649605	54.490910	4.377263	0.992115	0.000000	0.125333
34.649605	55.363636	4.377263	0.992115	0.000000	0.125333
34.649605	55.945454	4.377263	0.992115	0.000000	0.125333
-34.611721	57.400002	4.667386	-0.991030	0.000000	0.133640
-34.611721	57.109093	4.667386	-0.991030	0.000000	0.133640
-34.611721	56.818180	4.667386	-0.991030	0.000000	0.133640
-34.611721	54.200001	4.667386	-0.991030	0.000000	0.133640
-34.611721	54.490910	4.667386	-0.991030	0.000000	0.133640
-34.611721	54.781818	4.667386	-0.991030	0.000000	0.133640
-34.611721	55.072727	4.667386	-0.991030	0.000000	0.133640
-34.611721	55.363636	4.667386	-0.991030	0.000000	0.133640
-34.611721	55.654545	4.667386	-0.991030	0.000000	0.133640
-34.611721	55.945454	4.667386	-0.991030	0.000000	0.133640
-34.611721	56.236362	4.667386	-0.991030	0.000000	0.133640
-34.611721	56.527271	4.667386	-0.991030	0.000000	0.133640
34.611721	55.072727	4.667386	0.991030	0.000000	0.133640
34.611721	55.363636	4.667386	0.991030	0.000000	0.133640
34.611721	56.527271	4.667386	0.991030	0.000000	0.133640
34.611721	55.945454	4.667386	0.991030	0.000000	0.133640
34.611721	55.654545	4.667386	0.991030	0.000000	0.133640
34.611721	56.818180	4.667386	0.991030	0.000000	0.133640
34.611721	57.109093	4.667386	0.991030	0.000000	0.133640
34.611721	57.400002	4.667386	0.991030	0.000000	0.133640
34.611721	54.781818	4.667386	0.991030	0.000000	0.133640
34.611721	54.490910	4.667386	0.991030	0.000000	0.133640
34.611721	54.200001	4.667386	0.991030	0.000000	0.133640
34.611721	56.236362	4.667386	0.991030	0.000000	0.133640
-34.571404	55.945454	4.957181	-0.989876	0.000000	0.141938
-34.571404	55.654545	4.957181	-0.989876	0.000000	0.141938
-34.571404	55.363636	4.957181	-0.989876	0.000000	0.141938
-34.571404	54.781818	4.957181	-0.989876	0.000000	0.141938
-34.571404	54.490910	4.957181	-0.989876	0.000000	0.141938
-34.571404	54.200001	4.957181	-0.989876	0.000000	0.141938
-34.571404	55.072727	4.957181	-0.989876	0.000000	0.141938
-34.571404	57.400002	4.957181	-0.989876	0.000000	0.141938
-34.571404	57.109093	4.957181	-0.989876	0.000000	0.141938
-34.571404	56.818180	4.957181	-0.989876	0.000000	0.141938
-34.571404	56.527271	4.957181	-0.989876	0.000000	0.141938
-34.571404	56.236362	4.957181	-0.989876	0.000000	0.141938
34.571404	57.400002	4.957181	0.989876	0.000000	0.141938
34.571404	57.109093	4.957181	0.989876	0.000000	0.141938
34.571404	54.200001	4.957181	0.989876	0.000000	0.141938
34.571404	56.818180	4.957181	0.989876	0.000000	0.141938
34.571404	56.527271	4.957181	0.989876	0.000000	0.141938
34.571404	56.236362	4.957181	0.989876	0.000000	0.141938
34.571404	55.945454	4.957181	0.989876	0.000000	0.141938
34.571404	55.654545	4.957181	0.989876	0.000000	0.141938
34.571404	55.363636	4.957181	0.989876	0.000000	0.141938
34.571404	55.072727	4.957181	0.989876	0.000000	0.141938
34.571404	54.781818	4.957181	0.989876	0.000000	0.141938
34.571404	54.490910	4.957181	0.989876	0.000000	0.141938
-34.528664	54.200001	5.246629	-0.988652	0.000000	0.150226
-34.528664	57.400002	5.246629	-0.988652	0.000000	0.150226
-34.528664	54.490910	5.246629	-0.988652	0.000000	0.150226
-34.528664	55.945454	5.246629	-0.988652	0.000000	0.150226
-34.528664	54.781818	5.246629	-0.988652	0.000000	0.150226
-34.528664	55.072727	5.246629	-0.988652	0.000000	0.150226
-34.528664	55.363636	5.246629	-0.988652	0.000000	0.150226
-34.528664	55.654545	5.246629	-0.988652	0.000000	0.150226
-34.528664	56.236362	5.246629	-0.988652	0.000000	0.150226
-34.528664	56.527271	5.246629	-0.988652	0.000000	0.150226
-34.528664	56.818180	5.246629	-0.988652	0.000000	0.150226
-34.528664	57.109093	5.246629	-0.988652	0.000000	0.150226
34.528664	56.236362	5.246629	0.988652	0.000000	0.150226
34.528664	54.200001	5.246629	0.988652	0.000000	0.150226
34.528664	57.400002	5.246629	0.988652	0.000000	0.150226
34.528664	57.109093	5.246629	0.988652	0.000000	0.150226
34.528664	54.490910	5.246629	0.988652	0.000000	0.150226
34.528664	56.818180	5.246629	0.988652	0.000000	0.150226
34.528664	56.527271	5.246629	0.988652	0.000000	0.150226
34.528664	55.945454	5.246629	0.988652	0.000000	0.150226
34.528664	55.654545	5.246629	0.988652	0.000000	0.150226
34.528664	55.363636	5.246629	0.988652	0.000000	0.150226
34.528664	55.072727	5.246629	0.988652	0.000000	0.150226
34.528664	54.781818	5.246629	0.988652	0.000000	0.150226
-34.483498	54.200001	5.535708	-0.987359	0.000000	0.158503
-34.483498	55.363636	5.535708	-0.987359	0.000000	0.158503
-34.483498	57.400002	5.535708	-0.987359	0.000000	0.158503
-34.483498	57.109093	5.535708	-0.987359	0.000000	0.158503
-34.483498	56.818180	5.535708	-0.987359	0.000000	0.158503
-34.483498	56.527271	5.535708	-0.987359	0.000000	0.158503
-34.483498	56.236362	5.535708	-0.987359	0.000000	0.158503
-34.483498	55.945454	5.535708	-0.987359	0.000000	0.158503
-34.483498	55.654545	5.535708	-0.987359	0.000000	0.158503
-34.483498	55.072727	5.535708	-0.987359	0.000000	0.158503
-34.483498	54.781818	5.535708	-0.987359	0.000000	0.158503
-34.483498	54.490910	5.535708	-0.987359	0.000000	0.158503
34.483498	57.400002	5.535708	0.987359	0.000000	0.158503
34.483498	54.781818	5.535708	0.987359	0.000000	0.158503
34.483498	54.200001	5.535708	0.987359	0.000000	0.158503
34.483498	56.527271	5.535708	0.987359	0.000000	0.158503
34.483498	56.236362	5.535708	0.987359	0.000000	0.158503
34.483498	55.945454	5.535708	0.987359	0.000000	0.158503
34.483498	55.654545	5.535708	0.987359	0.000000	0.158503
34.483498	55.363636	5.535708	0.987359	0.000000	0.158503
34.483498	54.490910	5.535708	0.987359	0.000000	0.158503
34.483498	55.072727	5.535708	0.987359	0.000000	0.158503
34.483498	56.818180	5.535708	0.987359	0.000000	0.158503
34.483498	57.109093	5.535708	0.987359	0.000000	0.158503
-34.435913	55.945454	5.824399	-0.985996	0.000000	0.166769
-34.435913	56.236362	5.824399	-0.985996	0.000000	0.166769
-34.435913	56.818180	5.824399	-0.985996	0.000000	0.166769
-34.435913	57.109093	5.824399	-0.985996	0.000000	0.166769
-34.435913	54.200001	5.824399	-0.985996	0.000000	0.166769
-34.435913	57.400002	5.824399	-0.985996	0.000000	0.166769
-34.435913	54.490910	5.824399	-0.985996	0.000000	0.166769
-34.435913	54.781818	5.824399	-0.985996	0.000000	0.166769
-34.435913	55.072727	5.824399	-0.985996	0.000000	0.166769
-34.435913	56.527271	5.824399	-0.985996	0.000000	0.166769
-34.435913	55.363636	5.824399	-0.985996	0.000000	0.166769
-34.435913	55.654545	5.824399	-0.985996	0.000000	0.166769
34.435913	55.072727	5.824399	0.985996	0.000000	0.166769
34.435913	55.363636	5.824399	0.985996	0.000000	0.166769
34.435913	55.654545	5.824399	0.985996	0.000000	0.166769
34.435913	55.945454	5.824399	0.985996	0.000000	0.166769
34.435913	56.236362	5.824399	0.985996	0.000000	0.166769
34.435913	56.818180	5.824399	0.985996	0.000000	0.166769
34.435913	54.200001	5.824399	0.985996	0.000000	0.166769
34.435913	56.527271	5.824399	0.985996	0.000000	0.166769
34.435913	57.109093	5.824399	0.985996	0.000000	0.166769
34.435913	54.490910	5.824399	0.985996	0.000000	0.166769
34.435913	57.400002	5.824399	0.985996	0.000000	0.166769
34.435913	54.781818	5.824399	0.985996	0.000000	0.166769
-34.385910	56.236362	6.112680	-0.984564	0.000000	0.175023
-34.385910	56.527271	6.112680	-0.984564	0.000000	0.175023
-34.385910	56.818180	6.112680	-0.984564	0.000000	0.175023
-34.385910	57.109093	6.112680	-0.984564	0.000000	0.175023
-34.385910	57.400002	6.112680	-0.984564	0.000000	0.175023
-34.385910	55.945454	6.112680	-0.984564	0.000000	0.175023
-34.385910	54.200001	6.112680	-0.984564	0.000000	0.175023
-34.385910	54.490910	6.112680	-0.984564	0.000000	0.175023
-34.385910	54.781818	6.112680	-0.984564	0.000000	0.175023
-34.385910	55.072727	6.112680	-0.984564	0.000000	0.175023
-34.385910	55.363636	6.112680	-0.984564	0.000000	0.175023
-34.385910	55.654545	6.112680	-0.984564	0.000000	0.175023
34.385910	57.109093	6.112680	0.984564	0.000000	0.175023
34.385910	54.490910	6.112680	0.984564	0.000000	0.175023
34.385910	57.400002	6.112680	0.984564	0.000000	0.175023
34.385910	56.236362	6.112680	0.984564	0.000000	0.175023
34.385910	54.781818	6.112680	0.984564	0.000000	0.175023
34.385910	55.072727	6.112680	0.984564	0.000000	0.175023
34.385910	55.363636	6.112680	0.984564	0.000000	0.175023
34.385910	55.654545	6.112680	0.984564	0.000000	0.175023
34.385910	54.200001	6.112680	0.984564	0.000000	0.175023
34.385910	56.818180	6.112680	0.984564	0.000000	0.175023
34.385910	55.945454	6.112680	0.984564	0.000000	0.175023
34.385910	56.527271	6.112680	0.984564	0.000000	0.175023
-34.333492	56.236362	6.400533	-0.983064	0.000000	0.183265
-34.333492	54.200001	6.400533	-0.983064	0.000000	0.183265
-34.333492	54.490910	6.400533	-0.983064	0.000000	0.183265
-34.333492	54.781818	6.400533	-0.983064	0.000000	0.183265
-34.333492	55.072727	6.400533	-0.983064	0.000000	0.183265
-34.333492	55.363636	6.400533	-0.983064	0.000000	0.183265
-34.333492	55.654545	6.400533	-0.983064	0.000000	0.183265
-34.333492	55.945454	6.400533	-0.983064	0.000000	0.183265
-34.333492	56.527271	6.400533	-0.983064	0.000000	0.183265
-34.333492	56.818180	6.400533	-0.983064	0.000000	0.183265
-34.333492	57.109093	6.400533	-0.983064	0.000000	0.183265
-34.333492	57.400002	6.400533	-0.983064	0.000000	0.183265
34.333492	57.400002	6.400533	0.983064	0.000000	0.183265
34.333492	57.109093	6.400533	0.983064	0.000000	0.183265
34.333492	54.200001	6.400533	0.983064	0.000000	0.183265
34.333492	56.818180	6.400533	0.983064	0.000000	0.183265
34.333492	56.527271	6.400533	0.983064	0.000000	0.183265
34.333492	56.236362	6.400533	0.983064	0.000000	0.183265
34.333492	55.945454	6.400533	0.983064	0.000000	0.183265
34.333492	55.654545	6.400533	0.983064	0.000000	0.183265
34.333492	55.363636	6.400533	0.983064	0.000000	0.183265
34.333492	55.072727	6.400533	0.983064	0.000000	0.183265
34.333492	54.781818	6.400533	0.983064	0.000000	0.183265
34.333492	54.490910	6.400533	0.983064	0.000000	0.183265
-34.278667	55.072727	6.687937	-0.981494	0.000000	0.191494
-34.278667	54.490910	6.687937	-0.981494	0.000000	0.191494
-34.278667	56.527271	6.687937	-0.981494	0.000000	0.191494
-34.278667	55.363636	6.687937	-0.981494	0.000000	0.191494
-34.278667	55.654545	6.687937	-0.981494	0.000000	0.191494
-34.278667	55.945454	6.687937	-0.981494	0.000000	0.191494
-34.278667	56.236362	6.687937	-0.981494	0.000000	0.191494
-34.278667	56.818180	6.687937	-0.981494	0.000000	0.191494
-34.278667	54.200001	6.687937	-0.981494	0.000000	0.191494
-34.278667	57.109093	6.687937	-0.981494	0.000000	0.191494
-34.278667	54.781818	6.687937	-0.981494	0.000000	0.191494
-34.278667	57.400002	6.687937	-0.981494	0.000000	0.191494
34.278667	57.400002	6.687937	0.981494	0.000000	0.191494
34.278667	57.109093	6.687937	0.981494	0.000000	0.191494
34.278667	56.818180	6.687937	0.981494	0.000000	0.191494
34.278667	56.527271	6.687937	0.981494	0.000000	0.191494
34.278667	56.236362	6.687937	0.981494	0.000000	0.191494
34.278667	54.490910	6.687937	0.981494	0.000000	0.191494
34.278667	54.200001	6.687937	0.981494	0.000000	0.191494
34.278667	55.654545	6.687937	0.981494	0.000000	0.191494
34.278667	55.363636	6.687937	0.981494	0.000000	0.191494
34.278667	55.072727	6.687937	0.981494	0.000000	0.191494
34.278667	54.781818	6.687937	0.981494	0.000000	0.191494
34.278667	55.945454	6.687937	0.981494	0.000000	0.191494
-34.221439	55.654545	6.974871	-0.979855	0.000000	0.199710
-34.221439	55.363636	6.974871	-0.979855	0.000000	0.199710
-34.221439	55.072727	6.974871	-0.979855	0.000000	0.199710
-34.221439	54.781818	6.974871	-0.979855	0.000000	0.199710
-34.221439	54.490910	6.974871	-0.979855	0.000000	0.199710
-34.221439	54.200001	6.974871	-0.979855	0.000000	0.199710
-34.221439	56.818180	6.974871	-0.979855	0.000000	0.199710
-34.221439	57.400002	6.974871	-0.979855	0.000000	0.199710
-34.221439	57.109093	6.974871	-0.979855	0.000000	0.199710
-34.221439	56.527271	6.974871	-0.979855	0.000000	0.199710
-34.221439	56.236362	6.974871	-0.979855	0.000000	0.199710
-34.221439	55.945454	6.974871	-0.979855	0.000000	0.199710
34.221439	57.400002	6.974871	0.979855	0.000000	0.199710
34.221439	57.109093	6.974871	0.979855	0.000000	0.199710
34.221439	54.200001	6.974871	0.979855	0.000000	0.199710
34.221439	56.818180	6.974871	0.979855	0.000000	0.199710
34.221439	56.527271	6.974871	0.979855	0.000000	0.199710
34.221439	56.236362	6.974871	0.979855	0.000000	0.199710
34.221439	55.945454	6.974871	0.979855	0.000000	0.199710
34.221439	55.654545	6.974871	0.979855	0.000000	0.199710
34.221439	55.363636	6.974871	0.979855	0.000000	0.199710
34.221439	55.072727	6.974871	0.979855	0.000000	0.199710
34.221439	54.781818	6.974871	0.979855	0.000000	0.199710
34.221439	54.490910	6.974871	0.979855	0.000000	0.199710
-34.161804	54.490910	7.261316	-0.978148	0.000000	0.207912
-34.161804	54.781818	7.261316	-0.978148	0.000000	0.207912
-34.161804	56.236362	7.261316	-0.978148	0.000000	0.207912
-34.161804	55.072727	7.261316	-0.978148	0.000000	0.207912
-34.161804	55.363636	7.261316	-0.978148	0.000000	0.207912
-34.161804	55.654545	7.261316	-0.978148	0.000000	0.207912
-34.161804	55.945454	7.261316	-0.978148	0.000000	0.207912
-34.161804	56.527271	7.261316	-0.978148	0.000000	0.207912
-34.161804	56.818180	7.261316	-0.978148	0.000000	0.207912
-34.161804	57.109093	7.261316	-0.978148	0.000000	0.207912
-34.161804	54.200001	7.261316	-0.978148	0.000000	0.207912
-34.161804	57.400002	7.261316	-0.978148	0.000000	0.207912
34.161804	57.400002	7.261316	0.978148	0.000000	0.207912
34.161804	57.109093	7.261316	0.978148	0.000000	0.207912
34.161804	56.818180	7.261316	0.978148	0.000000	0.207912
34.161804	56.527271	7.261316	0.978148	0.000000	0.207912
34.161804	56.236362	7.261316	0.978148	0.000000	0.207912
34.161804	54.490910	7.261316	0.978148	0.000000	0.207912
34.161804	54.200001	7.261316	0.978148	0.000000	0.207912
34.161804	55.654545	7.261316	0.978148	0.000000	0.207912
34.161804	55.363636	7.261316	0.978148	0.000000	0.207912
34.161804	55.072727	7.261316	0.978148	0.000000	0.207912
34.161804	54.781818	7.261316	0.978148	0.000000	0.207912
34.161804	55.945454	7.261316	0.978148	0.000000	0.207912
-34.099773	55.072727	7.547251	-0.976372	0.000000	0.216099
-34.099773	54.781818	7.547251	-0.976372	0.000000	0.216099
-34.099773	54.490910	7.547251	-0.976372	0.000000	0.216099
-34.099773	54.200001	7.547251	-0.976372	0.000000	0.216099
-34.099773	56.236362	7.547251	-0.976372	0.000000	0.216099
-34.099773	57.400002	7.547251	-0.976372	0.000000	0.216099
-34.099773	55.654545	7.547251	-0.976372	0.000000	0.216099
-34.099773	57.109093	7.547251	-0.976372	0.000000	0.216099
-34.099773	56.818180	7.547251	-0.976372	0.000000	0.216099
-34.099773	56.527271	7.547251	-0.976372	0.000000	0.216099
-34.099773	55.945454	7.547251	-0.976372	0.000000	0.216099
-34.099773	55.363636	7.547251	-0.976372	0.000000	0.216099
34.099773	57.400002	7.547251	0.976372	0.000000	0.216099
34.099773	57.109093	7.547251	0.976372	0.000000	0.216099
34.099773	54.200001	7.547251	0.976372	0.000000	0.216099
34.099773	56.818180	7.547251	0.976372	0.000000	0.216099
34.099773	56.527271	7.547251	0.976372	0.000000	0.216099
34.099773	56.236362	7.547251	0.976372	0.000000	0.216099
34.099773	55.945454	7.547251	0.976372	0.000000	0.216099
34.099773	55.654545	7.547251	0.976372	0.000000	0.216099
34.099773	55.363636	7.547251	0.976372	0.000000	0.216099
34.099773	55.072727	7.547251	0.976372	0.000000	0.216099
34.099773	54.781818	7.547251	0.976372	0.000000	0.216099
34.099773	54.490910	7.547251	0.976372	0.000000	0.216099
-34.035351	56.236362	7.832656	-0.974527	0.000000	0.224271
-34.035351	57.109093	7.832656	-0.974527	0.000000	0.224271
-34.035351	56.527271	7.832656	-0.974527	0.000000	0.224271
-34.035351	57.400002	7.832656	-0.974527	0.000000	0.224271
-34.035351	56.818180	7.832656	-0.974527	0.000000	0.224271
-34.035351	55.945454	7.832656	-0.974527	0.000000	0.224271
-34.035351	55.654545	7.832656	-0.974527	0.000000	0.224271
-34.035351	55.363636	7.832656	-0.974527	0.000000	0.224271
-34.035351	55.072727	7.832656	-0.974527	0.000000	0.224271
-34.035351	54.781818	7.832656	-0.974527	0.000000	0.224271
-34.035351	54.490910	7.832656	-0.974527	0.000000	0.224271
-34.035351	54.200001	7.832656	-0.974527	0.000000	0.224271
34.035351	57.400002	7.832656	0.974527	0.000000	0.224271
34.035351	57.109093	7.832656	0.974527	0.000000	0.224271
34.035351	56.818180	7.832656	0.974527	0.000000	0.224271
34.035351	54.200001	7.832656	0.974527	0.000000	0.224271
34.035351	56.527271	7.832656	0.974527	0.000000	0.224271
34.035351	56.236362	7.832656	0.974527	0.000000	0.224271
34.035351	54.490910	7.832656	0.974527	0.000000	0.224271
34.035351	54.781818	7.832656	0.974527	0.000000	0.224271
34.035351	55.072727	7.832656	0.974527	0.000000	0.224271
34.035351	55.363636	7.832656	0.974527	0.000000	0.224271
34.035351	55.654545	7.832656	0.974527	0.000000	0.224271
34.035351	55.945454	7.832656	0.974527	0.000000	0.224271
-33.968540	56.236362	8.117512	-0.972614	0.000000	0.232427
-33.968540	54.490910	8.117512	-0.972614	0.000000	0.232427
-33.968540	57.109093	8.117512	-0.972614	0.000000	0.232427
-33.968540	54.200001	8.117512	-0.972614	0.000000	0.232427
-33.968540	56.818180	8.117512	-0.972614	0.000000	0.232427
-33.968540	57.400002	8.117512	-0.972614	0.000000	0.232427
-33.968540	56.527271	8.117512	-0.972614	0.000000	0.232427
-33.968540	54.781818	8.117512	-0.972614	0.000000	0.232427
-33.968540	55.072727	8.117512	-0.972614	0.000000	0.232427
-33.968540	55.363636	8.117512	-0.972614	0.000000	0.232427
-33.968540	55.654545	8.117512	-0.972614	0.000000	0.232427
-33.968540	55.945454	8.117512	-0.972614	0.000000	0.232427
33.968540	55.363636	8.117512	0.972614	0.000000	0.232427
33.968540	55.945454	8.117512	0.972614	0.000000	0.232427
33.968540	56.818180	8.117512	0.972614	0.000000	0.232427
33.968540	57.109093	8.117512	0.972614	0.000000	0.232427
33.968540	55.072727	8.117512	0.972614	0.000000	0.232427
33.968540	54.781818	8.117512	0.972614	0.000000	0.232427
33.968540	54.490910	8.117512	0.972614	0.000000	0.232427
33.968540	54.200001	8.117512	0.972614	0.000000	0.232427
33.968540	56.527271	8.117512	0.972614	0.000000	0.232427
33.968540	57.400002	8.117512	0.972614	0.000000	0.232427
33.968540	55.654545	8.117512	0.972614	0.000000	0.232427
33.968540	56.236362	8.117512	0.972614	0.000000	0.232427
-33.899342	55.363636	8.401798	-0.970633	0.000000	0.240567
-33.899342	54.200001	8.401798	-0.970633	0.000000	0.240567
-33.899342	54.490910	8.401798	-0.970633	0.000000	0.240567
-33.899342	54.781818	8.401798	-0.970633	0.000000	0.240567
-33.899342	55.072727	8.401798	-0.970633	0.000000	0.240567
-33.899342	55.654545	8.401798	-0.970633	0.000000	0.240567
-33.899342	55.945454	8.401798	-0.970633	0.000000	0.240567
-33.899342	56.236362	8.401798	-0.970633	0.000000	0.240567
-33.899342	56.527271	8.401798	-0.970633	0.000000	0.240567
-33.899342	56.818180	8.401798	-0.970633	0.000000	0.240567
-33.899342	57.109093	8.401798	-0.970633	0.000000	0.240567
-33.899342	57.400002	8.401798	-0.970633	0.000000	0.240567
33.899342	57.400002	8.401798	0.970633	0.000000	0.240567
33.899342	57.109093	8.401798	0.970633	0.000000	0.240567
33.899342	54.200001	8.401798	0.970633	0.000000	0.240567
33.899342	56.818180	8.401798	0.970633	0.000000	0.240567
33.899342	56.527271	8.401798	0.970633	0.000000	0.240567
33.899342	56.236362	8.401798	0.970633	0.000000	0.240567
33.899342	55.945454	8.401798	0.970633	0.000000	0.240567
33.899342	55.654545	8.401798	0.970633	0.000000	0.240567
33.899342	55.363636	8.401798	0.970633	0.000000	0.240567
33.899342	55.072727	8.401798	0.970633	0.000000	0.240567
33.899342	54.781818	8.401798	0.970633	0.000000	0.240567
33.899342	54.490910	8.401798	0.970633	0.000000	0.240567
-33.827766	55.363636	8.685494	-0.968583	0.000000	0.248690
-33.827766	55.654545	8.685494	-0.968583	0.000000	0.248690
-33.827766	54.490910	8.685494	-0.968583	0.000000	0.248690
-33.827766	56.236362	8.685494	-0.968583	0.000000	0.248690
-33.827766	56.527271	8.685494	-0.968583	0.000000	0.248690
-33.827766	56.818180	8.685494	-0.968583	0.000000	0.248690
-33.827766	57.109093	8.685494	-0.968583	0.000000	0.248690
-33.827766	55.945454	8.685494	-0.968583	0.000000	0.248690
-33.827766	54.200001	8.685494	-0.968583	0.000000	0.248690
-33.827766	54.781818	8.685494	-0.968583	0.000000	0.248690
-33.827766	55.072727	8.685494	-0.968583	0.000000	0.248690
-33.827766	57.400002	8.685494	-0.968583	0.000000	0.248690
33.827766	57.400002	8.685494	0.968583	0.000000	0.248690
33.827766	57.109093	8.685494	0.968583	0.000000	0.248690
33.827766	54.490910	8.685494	0.968583	0.000000	0.248690
33.827766	56.818180	8.685494	0.968583	0.000000	0.248690
33.827766	56.527271	8.685494	0.968583	0.000000	0.248690
33.827766	56.236362	8.685494	0.968583	0.000000	0.248690
33.827766	55.945454	8.685494	0.968583	0.000000	0.248690
33.827766	55.654545	8.685494	0.968583	0.000000	0.248690
33.827766	55.363636	8.685494	0.968583	0.000000	0.248690
33.827766	55.072727	8.685494	0.968583	0.000000	0.248690
33.827766	54.781818	8.685494	0.968583	0.000000	0.248690
33.827766	54.200001	8.685494	0.968583	0.000000	0.248690
-33.753819	56.527271	8.968581	-0.966466	0.000000	0.256795
-33.753819	56.236362	8.968581	-0.966466	0.000000	0.256795
-33.753819	56.818180	8.968581	-0.966466	0.000000	0.256795
-33.753819	55.945454	8.968581	-0.966466	0.000000	0.256795
-33.753819	55.654545	8.968581	-0.966466	0.000000	0.256795
-33.753819	55.363636	8.968581	-0.966466	0.000000	0.256795
