9.993997	148.399994	7.507998	-0.799520	0.000000	-0.600640
9.993997	149.649994	7.507998	-0.799520	0.000000	-0.600640
9.993997	148.524994	7.507998	-0.799520	0.000000	-0.600640
9.993997	149.774994	7.507998	-0.799520	0.000000	-0.600640
9.993997	149.899994	7.507998	-0.799520	0.000000	-0.600640
9.993997	150.024994	7.507998	-0.799520	0.000000	-0.600640
9.993997	150.149994	7.507998	-0.799520	0.000000	-0.600640
9.993997	158.024994	7.507998	-0.799520	0.000000	-0.600640
9.993997	150.274994	7.507998	-0.799520	0.000000	-0.600640
9.993997	148.649994	7.507998	-0.799520	0.000000	-0.600640
9.993997	148.774994	7.507998	-0.799520	0.000000	-0.600640
9.993997	148.899994	7.507998	-0.799520	0.000000	-0.600640
9.993997	150.399994	7.507998	-0.799520	0.000000	-0.600640
9.993997	149.024994	7.507998	-0.799520	0.000000	-0.600640
9.993997	154.524994	7.507998	-0.799520	0.000000	-0.600640
9.993997	150.649994	7.507998	-0.799520	0.000000	-0.600640
9.993997	149.149994	7.507998	-0.799520	0.000000	-0.600640
9.993997	149.274994	7.507998	-0.799520	0.000000	-0.600640
9.993997	150.774994	7.507998	-0.799520	0.000000	-0.600640
9.993997	149.399994	7.507998	-0.799520	0.000000	-0.600640
9.993997	149.524994	7.507998	-0.799520	0.000000	-0.600640
9.993997	156.024994	7.507998	-0.799520	0.000000	-0.600640
9.993997	150.524994	7.507998	-0.799520	0.000000	-0.600640
9.993997	155.524994	7.507998	-0.799520	0.000000	-0.600640
9.993997	155.399994	7.507998	-0.799520	0.000000	-0.600640
9.993997	155.274994	7.507998	-0.799520	0.000000	-0.600640
9.993997	155.149994	7.507998	-0.799520	0.000000	-0.600640
9.993997	155.024994	7.507998	-0.799520	0.000000	-0.600640
9.993997	154.899994	7.507998	-0.799520	0.000000	-0.600640
9.993997	154.774994	7.507998	-0.799520	0.000000	-0.600640
9.993997	154.649994	7.507998	-0.799520	0.000000	-0.600640
9.993997	152.399994	7.507998	-0.799520	0.000000	-0.600640
9.993997	154.399994	7.507998	-0.799520	0.000000	-0.600640
9.993997	154.274994	7.507998	-0.799520	0.000000	-0.600640
9.993997	154.149994	7.507998	-0.799520	0.000000	-0.600640
9.993997	154.024994	7.507998	-0.799520	0.000000	-0.600640
9.993997	153.899994	7.507998	-0.799520	0.000000	-0.600640
9.993997	153.774994	7.507998	-0.799520	0.000000	-0.600640
9.993997	153.649994	7.507998	-0.799520	0.000000	-0.600640
9.993997	153.524994	7.507998	-0.799520	0.000000	-0.600640
9.993997	153.399994	7.507998	-0.799520	0.000000	-0.600640
9.993997	153.274994	7.507998	-0.799520	0.000000	-0.600640
9.993997	153.149994	7.507998	-0.799520	0.000000	-0.600640
9.993997	153.024994	7.507998	-0.799520	0.000000	-0.600640
9.993997	152.899994	7.507998	-0.799520	0.000000	-0.600640
9.993997	152.774994	7.507998	-0.799520	0.000000	-0.600640
9.993997	152.649994	7.507998	-0.799520	0.000000	-0.600640
9.993997	152.524994	7.507998	-0.799520	0.000000	-0.600640
9.993997	152.274994	7.507998	-0.799520	0.000000	-0.600640
9.993997	152.149994	7.507998	-0.799520	0.000000	-0.600640
9.993997	152.024994	7.507998	-0.799520	0.000000	-0.600640
9.993997	151.899994	7.507998	-0.799520	0.000000	-0.600640
8.287931	148.149994	7.540148	-0.000000	1.000000	0.000000
7.127584	148.149994	7.540148	-0.000000	1.000000	0.000000
-8.412561	148.149994	7.540148	-0.000000	1.000000	0.000000
8.412561	148.149994	7.540148	-0.000000	1.000000	0.000000
-7.127584	148.149994	7.540148	-0.000000	1.000000	0.000000
9.969592	148.149994	7.540148	-0.797576	0.000000	-0.603218
8.537192	148.149994	7.540148	-0.000000	1.000000	0.000000
8.661822	148.149994	7.540148	-0.000000	1.000000	0.000000
-7.166256	148.149994	7.540148	-0.000000	1.000000	0.000000
8.786453	148.149994	7.540148	-0.000000	1.000000	0.000000
8.911084	148.149994	7.540148	-0.000000	1.000000	0.000000
9.409606	148.149994	7.540148	-0.000000	1.000000	0.000000
9.160345	148.149994	7.540148	-0.000000	1.000000	0.000000
9.035714	148.149994	7.540148	-0.000000	1.000000	0.000000
9.534237	148.149994	7.540148	-0.000000	1.000000	0.000000
9.783498	148.149994	7.540148	-0.000000	1.000000	0.000000
9.908128	148.149994	7.540148	-0.000000	1.000000	0.000000
9.658867	148.149994	7.540148	-0.000000	1.000000	0.000000
9.284975	148.149994	7.540148	-0.000000	1.000000	0.000000
-9.969649	148.149994	7.540148	0.797578	0.000000	-0.603216
-8.287931	148.149994	7.540148	-0.000000	1.000000	0.000000
-8.163301	148.149994	7.540148	-0.000000	1.000000	0.000000
-8.038670	148.149994	7.540148	-0.000000	1.000000	0.000000
-7.914040	148.149994	7.540148	-0.000000	1.000000	0.000000
-7.789409	148.149994	7.540148	-0.000000	1.000000	0.000000
-7.664778	148.149994	7.540148	-0.000000	1.000000	0.000000
-7.540148	148.149994	7.540148	-0.000000	1.000000	0.000000
-7.415517	148.149994	7.540148	-0.000000	1.000000	0.000000
-7.290887	148.149994	7.540148	-0.000000	1.000000	0.000000
7.166256	148.149994	7.540148	-0.000000	1.000000	0.000000
7.290887	148.149994	7.540148	-0.000000	1.000000	0.000000
7.415517	148.149994	7.540148	-0.000000	1.000000	0.000000
7.540148	148.149994	7.540148	-0.000000	1.000000	0.000000
7.664778	148.149994	7.540148	-0.000000	1.000000	0.000000
-9.783498	148.149994	7.540148	-0.000000	1.000000	0.000000
7.789409	148.149994	7.540148	-0.000000	1.000000	0.000000
7.914040	148.149994	7.540148	-0.000000	1.000000	0.000000
8.038670	148.149994	7.540148	-0.000000	1.000000	0.000000
-9.658867	148.149994	7.540148	-0.000000	1.000000	0.000000
-9.534237	148.149994	7.540148	-0.000000	1.000000	0.000000
-9.409606	148.149994	7.540148	-0.000000	1.000000	0.000000
-9.284975	148.149994	7.540148	-0.000000	1.000000	0.000000
-9.160345	148.149994	7.540148	-0.000000	1.000000	0.000000
-9.908128	148.149994	7.540148	-0.000000	1.000000	0.000000
-9.035714	148.149994	7.540148	-0.000000	1.000000	0.000000
-8.911084	148.149994	7.540148	-0.000000	1.000000	0.000000
-8.786453	148.149994	7.540148	-0.000000	1.000000	0.000000
-8.661822	148.149994	7.540148	-0.000000	1.000000	0.000000
-8.537192	148.149994	7.540148	-0.000000	1.000000	0.000000
8.163301	148.149994	7.540148	-0.000000	1.000000	0.000000
-9.956372	156.274994	7.557820	0.796510	0.000000	-0.604626
-9.956372	156.149994	7.557820	0.796510	0.000000	-0.604626
-9.956372	156.024994	7.557820	0.796510	0.000000	-0.604626
-9.956372	155.899994	7.557820	0.796510	0.000000	-0.604626
-9.956372	155.774994	7.557820	0.796510	0.000000	-0.604626
-9.956372	155.649994	7.557820	0.796510	0.000000	-0.604626
-9.956372	155.524994	7.557820	0.796510	0.000000	-0.604626
-9.956372	155.399994	7.557820	0.796510	0.000000	-0.604626
-9.956372	155.274994	7.557820	0.796510	0.000000	-0.604626
-9.956372	155.149994	7.557820	0.796510	0.000000	-0.604626
-9.956372	155.024994	7.557820	0.796510	0.000000	-0.604626
-9.956372	154.899994	7.557820	0.796510	0.000000	-0.604626
-9.956372	154.774994	7.557820	0.796510	0.000000	-0.604626
-9.956372	154.649994	7.557820	0.796510	0.000000	-0.604626
-9.956372	154.524994	7.557820	0.796510	0.000000	-0.604626
-9.956372	154.399994	7.557820	0.796510	0.000000	-0.604626
-9.956372	154.274994	7.557820	0.796510	0.000000	-0.604626
-9.956372	154.149994	7.557820	0.796510	0.000000	-0.604626
-9.956372	154.024994	7.557820	0.796510	0.000000	-0.604626
-9.956372	153.899994	7.557820	0.796510	0.000000	-0.604626
-9.956372	153.774994	7.557820	0.796510	0.000000	-0.604626
-9.956372	153.649994	7.557820	0.796510	0.000000	-0.604626
-9.956372	153.524994	7.557820	0.796510	0.000000	-0.604626
-9.956372	153.399994	7.557820	0.796510	0.000000	-0.604626
-9.956372	153.274994	7.557820	0.796510	0.000000	-0.604626
-9.956372	153.149994	7.557820	0.796510	0.000000	-0.604626
-9.956372	153.024994	7.557820	0.796510	0.000000	-0.604626
-9.956372	152.899994	7.557820	0.796510	0.000000	-0.604626
-9.956372	152.774994	7.557820	0.796510	0.000000	-0.604626
-9.956372	152.649994	7.557820	0.796510	0.000000	-0.604626
-9.956372	152.524994	7.557820	0.796510	0.000000	-0.604626
-9.956372	152.399994	7.557820	0.796510	0.000000	-0.604626
-9.956372	152.274994	7.557820	0.796510	0.000000	-0.604626
-9.956372	152.149994	7.557820	0.796510	0.000000	-0.604626
-9.956372	152.024994	7.557820	0.796510	0.000000	-0.604626
-9.956372	151.899994	7.557820	0.796510	0.000000	-0.604626
-9.956372	151.774994	7.557820	0.796510	0.000000	-0.604626
-9.956372	151.649994	7.557820	0.796510	0.000000	-0.604626
-9.956372	151.524994	7.557820	0.796510	0.000000	-0.604626
-9.956372	151.274994	7.557820	0.796510	0.000000	-0.604626
-9.956372	151.149994	7.557820	0.796510	0.000000	-0.604626
-9.956372	151.024994	7.557820	0.796510	0.000000	-0.604626
-9.956372	150.899994	7.557820	0.796510	0.000000	-0.604626
-9.956372	150.774994	7.557820	0.796510	0.000000	-0.604626
-9.956372	150.649994	7.557820	0.796510	0.000000	-0.604626
-9.956372	150.524994	7.557820	0.796510	0.000000	-0.604626
-9.956372	150.399994	7.557820	0.796510	0.000000	-0.604626
-9.956372	150.274994	7.557820	0.796510	0.000000	-0.604626
-9.956372	150.149994	7.557820	0.796510	0.000000	-0.604626
-9.956372	150.024994	7.557820	0.796510	0.000000	-0.604626
-9.956372	149.899994	7.557820	0.796510	0.000000	-0.604626
-9.956372	158.024994	7.557820	0.796510	0.000000	-0.604626
-9.956372	149.774994	7.557820	0.796510	0.000000	-0.604626
-9.956372	149.274994	7.557820	0.796510	0.000000	-0.604626
-9.956372	149.649994	7.557820	0.796510	0.000000	-0.604626
-9.956372	149.524994	7.557820	0.796510	0.000000	-0.604626
-9.956372	149.399994	7.557820	0.796510	0.000000	-0.604626
-9.956372	158.899994	7.557820	0.796510	0.000000	-0.604626
-9.956372	149.149994	7.557820	0.796510	0.000000	-0.604626
-9.956372	149.024994	7.557820	0.796510	0.000000	-0.604626
-9.956372	148.899994	7.557820	0.796510	0.000000	-0.604626
-9.956372	148.774994	7.557820	0.796510	0.000000	-0.604626
-9.956372	148.649994	7.557820	0.796510	0.000000	-0.604626
-9.956372	148.524994	7.557820	0.796510	0.000000	-0.604626
-9.956372	148.399994	7.557820	0.796510	0.000000	-0.604626
-9.956372	148.274994	7.557820	0.796510	0.000000	-0.604626
-9.956372	151.399994	7.557820	0.796510	0.000000	-0.604626
-9.956372	148.149994	7.557820	0.796510	0.000000	-0.604626
-9.956372	159.149994	7.557820	0.796510	0.000000	-0.604626
-9.956372	159.024994	7.557820	0.796510	0.000000	-0.604626
-9.956372	158.774994	7.557820	0.796510	0.000000	-0.604626
-9.956372	158.649994	7.557820	0.796510	0.000000	-0.604626
-9.956372	158.524994	7.557820	0.796510	0.000000	-0.604626
-9.956372	158.399994	7.557820	0.796510	0.000000	-0.604626
-9.956372	158.274994	7.557820	0.796510	0.000000	-0.604626
-9.956372	158.149994	7.557820	0.796510	0.000000	-0.604626
-9.956372	157.899994	7.557820	0.796510	0.000000	-0.604626
-9.956372	157.774994	7.557820	0.796510	0.000000	-0.604626
-9.956372	157.649994	7.557820	0.796510	0.000000	-0.604626
-9.956372	157.524994	7.557820	0.796510	0.000000	-0.604626
-9.956372	157.399994	7.557820	0.796510	0.000000	-0.604626
-9.956372	157.274994	7.557820	0.796510	0.000000	-0.604626
-9.956372	157.149994	7.557820	0.796510	0.000000	-0.604626
-9.956372	157.024994	7.557820	0.796510	0.000000	-0.604626
-9.956372	156.899994	7.557820	0.796510	0.000000	-0.604626
-9.956372	156.774994	7.557820	0.796510	0.000000	-0.604626
-9.956372	156.649994	7.557820	0.796510	0.000000	-0.604626
-9.956372	156.524994	7.557820	0.796510	0.000000	-0.604626
-9.956372	156.399994	7.557820	0.796510	0.000000	-0.604626
-7.089601	148.149994	7.576486	-0.000000	1.000000	0.000000
7.089601	148.149994	7.576486	-0.000000	1.000000	0.000000
9.918500	153.899994	7.607454	-0.793480	0.000000	-0.608596
9.918500	148.524994	7.607454	-0.793480	0.000000	-0.608596
9.918500	148.149994	7.607454	-0.793480	0.000000	-0.608596
9.918500	158.524994	7.607454	-0.793480	0.000000	-0.608596
9.918500	159.149994	7.607454	-0.793480	0.000000	-0.608596
9.918500	159.024994	7.607454	-0.793480	0.000000	-0.608596
9.918500	158.649994	7.607454	-0.793480	0.000000	-0.608596
9.918500	148.649994	7.607454	-0.793480	0.000000	-0.608596
9.918500	148.274994	7.607454	-0.793480	0.000000	-0.608596
9.918500	158.774994	7.607454	-0.793480	0.000000	-0.608596
9.918500	156.149994	7.607454	-0.793480	0.000000	-0.608596
9.918500	148.399994	7.607454	-0.793480	0.000000	-0.608596
9.918500	150.774994	7.607454	-0.793480	0.000000	-0.608596
9.918500	148.774994	7.607454	-0.793480	0.000000	-0.608596
9.918500	158.899994	7.607454	-0.793480	0.000000	-0.608596
9.918500	148.899994	7.607454	-0.793480	0.000000	-0.608596
9.918500	149.024994	7.607454	-0.793480	0.000000	-0.608596
9.918500	149.149994	7.607454	-0.793480	0.000000	-0.608596
9.918500	149.274994	7.607454	-0.793480	0.000000	-0.608596
9.918500	149.399994	7.607454	-0.793480	0.000000	-0.608596
9.918500	149.524994	7.607454	-0.793480	0.000000	-0.608596
9.918500	149.649994	7.607454	-0.793480	0.000000	-0.608596
9.918500	149.774994	7.607454	-0.793480	0.000000	-0.608596
9.918500	149.899994	7.607454	-0.793480	0.000000	-0.608596
9.918500	150.024994	7.607454	-0.793480	0.000000	-0.608596
9.918500	150.149994	7.607454	-0.793480	0.000000	-0.608596
9.918500	150.274994	7.607454	-0.793480	0.000000	-0.608596
9.918500	150.399994	7.607454	-0.793480	0.000000	-0.608596
9.918500	150.524994	7.607454	-0.793480	0.000000	-0.608596
9.918500	150.649994	7.607454	-0.793480	0.000000	-0.608596
9.918500	150.899994	7.607454	-0.793480	0.000000	-0.608596
9.918500	151.024994	7.607454	-0.793480	0.000000	-0.608596
9.918500	151.149994	7.607454	-0.793480	0.000000	-0.608596
9.918500	151.274994	7.607454	-0.793480	0.000000	-0.608596
9.918500	151.399994	7.607454	-0.793480	0.000000	-0.608596
9.918500	151.524994	7.607454	-0.793480	0.000000	-0.608596
9.918500	151.649994	7.607454	-0.793480	0.000000	-0.608596
9.918500	151.774994	7.607454	-0.793480	0.000000	-0.608596
9.918500	151.899994	7.607454	-0.793480	0.000000	-0.608596
9.918500	152.024994	7.607454	-0.793480	0.000000	-0.608596
9.918500	152.149994	7.607454	-0.793480	0.000000	-0.608596
9.918500	152.274994	7.607454	-0.793480	0.000000	-0.608596
9.918500	152.399994	7.607454	-0.793480	0.000000	-0.608596
9.918500	152.524994	7.607454	-0.793480	0.000000	-0.608596
9.918500	152.649994	7.607454	-0.793480	0.000000	-0.608596
9.918500	152.774994	7.607454	-0.793480	0.000000	-0.608596
9.918500	152.899994	7.607454	-0.793480	0.000000	-0.608596
9.918500	153.024994	7.607454	-0.793480	0.000000	-0.608596
9.918500	153.149994	7.607454	-0.793480	0.000000	-0.608596
9.918500	153.274994	7.607454	-0.793480	0.000000	-0.608596
9.918500	153.399994	7.607454	-0.793480	0.000000	-0.608596
9.918500	153.524994	7.607454	-0.793480	0.000000	-0.608596
9.918500	153.649994	7.607454	-0.793480	0.000000	-0.608596
9.918500	153.774994	7.607454	-0.793480	0.000000	-0.608596
9.918500	154.024994	7.607454	-0.793480	0.000000	-0.608596
9.918500	154.149994	7.607454	-0.793480	0.000000	-0.608596
9.918500	154.274994	7.607454	-0.793480	0.000000	-0.608596
9.918500	154.399994	7.607454	-0.793480	0.000000	-0.608596
9.918500	154.524994	7.607454	-0.793480	0.000000	-0.608596
9.918500	154.649994	7.607454	-0.793480	0.000000	-0.608596
9.918500	154.774994	7.607454	-0.793480	0.000000	-0.608596
9.918500	154.899994	7.607454	-0.793480	0.000000	-0.608596
9.918500	155.024994	7.607454	-0.793480	0.000000	-0.608596
9.918500	155.149994	7.607454	-0.793480	0.000000	-0.608596
9.918500	155.274994	7.607454	-0.793480	0.000000	-0.608596
9.918500	155.399994	7.607454	-0.793480	0.000000	-0.608596
9.918500	155.524994	7.607454	-0.793480	0.000000	-0.608596
9.918500	155.649994	7.607454	-0.793480	0.000000	-0.608596
9.918500	155.774994	7.607454	-0.793480	0.000000	-0.608596
9.918500	155.899994	7.607454	-0.793480	0.000000	-0.608596
9.918500	156.024994	7.607454	-0.793480	0.000000	-0.608596
9.918500	156.274994	7.607454	-0.793480	0.000000	-0.608596
9.918500	156.399994	7.607454	-0.793480	0.000000	-0.608596
9.918500	156.524994	7.607454	-0.793480	0.000000	-0.608596
9.918500	156.649994	7.607454	-0.793480	0.000000	-0.608596
9.918500	156.774994	7.607454	-0.793480	0.000000	-0.608596
9.918500	156.899994	7.607454	-0.793480	0.000000	-0.608596
9.918500	157.024994	7.607454	-0.793480	0.000000	-0.608596
9.918500	157.149994	7.607454	-0.793480	0.000000	-0.608596
9.918500	157.274994	7.607454	-0.793480	0.000000	-0.608596
9.918500	157.399994	7.607454	-0.793480	0.000000	-0.608596
9.918500	157.524994	7.607454	-0.793480	0.000000	-0.608596
9.918500	157.649994	7.607454	-0.793480	0.000000	-0.608596
9.918500	157.774994	7.607454	-0.793480	0.000000	-0.608596
9.918500	157.899994	7.607454	-0.793480	0.000000	-0.608596
9.918500	158.024994	7.607454	-0.793480	0.000000	-0.608596
9.918500	158.149994	7.607454	-0.793480	0.000000	-0.608596
9.918500	158.274994	7.607454	-0.793480	0.000000	-0.608596
9.918500	158.399994	7.607454	-0.793480	0.000000	-0.608596
-7.041625	148.149994	7.620393	-0.000000	1.000000	0.000000
7.041625	148.149994	7.620393	-0.000000	1.000000	0.000000
-9.908128	148.149994	7.620721	0.792659	0.000000	-0.609665
9.908128	148.149994	7.620838	-0.792655	0.000000	-0.609671
-9.880381	155.774994	7.656898	0.790430	0.000000	-0.612552
-9.880381	154.649994	7.656898	0.790430	0.000000	-0.612552
-9.880381	154.524994	7.656898	0.790430	0.000000	-0.612552
-9.880381	154.399994	7.656898	0.790430	0.000000	-0.612552
-9.880381	154.274994	7.656898	0.790430	0.000000	-0.612552
-9.880381	154.149994	7.656898	0.790430	0.000000	-0.612552
-9.880381	154.024994	7.656898	0.790430	0.000000	-0.612552
-9.880381	153.899994	7.656898	0.790430	0.000000	-0.612552
-9.880381	153.774994	7.656898	0.790430	0.000000	-0.612552
-9.880381	153.649994	7.656898	0.790430	0.000000	-0.612552
-9.880381	153.524994	7.656898	0.790430	0.000000	-0.612552
-9.880381	153.399994	7.656898	0.790430	0.000000	-0.612552
-9.880381	153.274994	7.656898	0.790430	0.000000	-0.612552
-9.880381	153.149994	7.656898	0.790430	0.000000	-0.612552
-9.880381	153.024994	7.656898	0.790430	0.000000	-0.612552
-9.880381	155.899994	7.656898	0.790430	0.000000	-0.612552
-9.880381	152.899994	7.656898	0.790430	0.000000	-0.612552
-9.880381	152.774994	7.656898	0.790430	0.000000	-0.612552
-9.880381	152.649994	7.656898	0.790430	0.000000	-0.612552
-9.880381	152.524994	7.656898	0.790430	0.000000	-0.612552
-9.880381	155.399994	7.656898	0.790430	0.000000	-0.612552
-9.880381	152.399994	7.656898	0.790430	0.000000	-0.612552
-9.880381	152.274994	7.656898	0.790430	0.000000	-0.612552
-9.880381	152.149994	7.656898	0.790430	0.000000	-0.612552
-9.880381	152.024994	7.656898	0.790430	0.000000	-0.612552
-9.880381	151.774994	7.656898	0.790430	0.000000	-0.612552
-9.880381	151.649994	7.656898	0.790430	0.000000	-0.612552
-9.880381	151.524994	7.656898	0.790430	0.000000	-0.612552
-9.880381	151.399994	7.656898	0.790430	0.000000	-0.612552
-9.880381	151.274994	7.656898	0.790430	0.000000	-0.612552
-9.880381	151.149994	7.656898	0.790430	0.000000	-0.612552
-9.880381	151.024994	7.656898	0.790430	0.000000	-0.612552
-9.880381	150.899994	7.656898	0.790430	0.000000	-0.612552
-9.880381	150.774994	7.656898	0.790430	0.000000	-0.612552
-9.880381	150.649994	7.656898	0.790430	0.000000	-0.612552
-9.880381	150.524994	7.656898	0.790430	0.000000	-0.612552
-9.880381	150.399994	7.656898	0.790430	0.000000	-0.612552
-9.880381	154.774994	7.656898	0.790430	0.000000	-0.612552
-9.880381	150.274994	7.656898	0.790430	0.000000	-0.612552
-9.880381	150.149994	7.656898	0.790430	0.000000	-0.612552
-9.880381	150.024994	7.656898	0.790430	0.000000	-0.612552
-9.880381	149.899994	7.656898	0.790430	0.000000	-0.612552
-9.880381	149.774994	7.656898	0.790430	0.000000	-0.612552
-9.880381	149.649994	7.656898	0.790430	0.000000	-0.612552
-9.880381	149.524994	7.656898	0.790430	0.000000	-0.612552
-9.880381	149.399994	7.656898	0.790430	0.000000	-0.612552
-9.880381	148.399994	7.656898	0.790430	0.000000	-0.612552
-9.880381	149.274994	7.656898	0.790430	0.000000	-0.612552
-9.880381	149.149994	7.656898	0.790430	0.000000	-0.612552
-9.880381	149.024994	7.656898	0.790430	0.000000	-0.612552
-9.880381	148.899994	7.656898	0.790430	0.000000	-0.612552
-9.880381	148.774994	7.656898	0.790430	0.000000	-0.612552
-9.880381	148.649994	7.656898	0.790430	0.000000	-0.612552
-9.880381	156.024994	7.656898	0.790430	0.000000	-0.612552
-9.880381	148.524994	7.656898	0.790430	0.000000	-0.612552
-9.880381	148.274994	7.656898	0.790430	0.000000	-0.612552
-9.880381	156.274994	7.656898	0.790430	0.000000	-0.612552
-9.880381	156.399994	7.656898	0.790430	0.000000	-0.612552
-9.880381	158.524994	7.656898	0.790430	0.000000	-0.612552
-9.880381	158.399994	7.656898	0.790430	0.000000	-0.612552
-9.880381	158.274994	7.656898	0.790430	0.000000	-0.612552
-9.880381	158.149994	7.656898	0.790430	0.000000	-0.612552
-9.880381	158.024994	7.656898	0.790430	0.000000	-0.612552
-9.880381	157.899994	7.656898	0.790430	0.000000	-0.612552
-9.880381	158.899994	7.656898	0.790430	0.000000	-0.612552
-9.880381	157.774994	7.656898	0.790430	0.000000	-0.612552
-9.880381	157.649994	7.656898	0.790430	0.000000	-0.612552
-9.880381	157.524994	7.656898	0.790430	0.000000	-0.612552
-9.880381	157.399994	7.656898	0.790430	0.000000	-0.612552
-9.880381	157.274994	7.656898	0.790430	0.000000	-0.612552
-9.880381	157.149994	7.656898	0.790430	0.000000	-0.612552
-9.880381	159.024994	7.656898	0.790430	0.000000	-0.612552
-9.880381	157.024994	7.656898	0.790430	0.000000	-0.612552
-9.880381	156.899994	7.656898	0.790430	0.000000	-0.612552
-9.880381	156.774994	7.656898	0.790430	0.000000	-0.612552
-9.880381	156.649994	7.656898	0.790430	0.000000	-0.612552
-9.880381	158.774994	7.656898	0.790430	0.000000	-0.612552
-9.880381	159.149994	7.656898	0.790430	0.000000	-0.612552
-9.880381	156.524994	7.656898	0.790430	0.000000	-0.612552
-9.880381	158.649994	7.656898	0.790430	0.000000	-0.612552
-9.880381	148.149994	7.656898	0.790430	0.000000	-0.612552
-9.880381	154.899994	7.656898	0.790430	0.000000	-0.612552
-9.880381	155.024994	7.656898	0.790430	0.000000	-0.612552
-9.880381	155.149994	7.656898	0.790430	0.000000	-0.612552
-9.880381	155.274994	7.656898	0.790430	0.000000	-0.612552
-9.880381	151.899994	7.656898	0.790430	0.000000	-0.612552
-9.880381	155.524994	7.656898	0.790430	0.000000	-0.612552
-9.880381	155.649994	7.656898	0.790430	0.000000	-0.612552
-9.880381	156.149994	7.656898	0.790430	0.000000	-0.612552
8.163301	148.149994	7.664778	-0.000000	1.000000	0.000000
8.038670	148.149994	7.664778	-0.000000	1.000000	0.000000
7.914040	148.149994	7.664778	-0.000000	1.000000	0.000000
7.789409	148.149994	7.664778	-0.000000	1.000000	0.000000
7.664778	148.149994	7.664778	-0.000000	1.000000	0.000000
7.540148	148.149994	7.664778	-0.000000	1.000000	0.000000
7.415517	148.149994	7.664778	-0.000000	1.000000	0.000000
7.290887	148.149994	7.664778	-0.000000	1.000000	0.000000
7.166256	148.149994	7.664778	-0.000000	1.000000	0.000000
7.041625	148.149994	7.664778	-0.000000	1.000000	0.000000
-7.166256	148.149994	7.664778	-0.000000	1.000000	0.000000
-7.290887	148.149994	7.664778	-0.000000	1.000000	0.000000
-7.415517	148.149994	7.664778	-0.000000	1.000000	0.000000
-7.540148	148.149994	7.664778	-0.000000	1.000000	0.000000
-7.664778	148.149994	7.664778	-0.000000	1.000000	0.000000
-7.789409	148.149994	7.664778	-0.000000	1.000000	0.000000
-7.914040	148.149994	7.664778	-0.000000	1.000000	0.000000
-8.038670	148.149994	7.664778	-0.000000	1.000000	0.000000
-8.163301	148.149994	7.664778	-0.000000	1.000000	0.000000
-8.287931	148.149994	7.664778	-0.000000	1.000000	0.000000
-8.412561	148.149994	7.664778	-0.000000	1.000000	0.000000
-8.537192	148.149994	7.664778	-0.000000	1.000000	0.000000
-8.661822	148.149994	7.664778	-0.000000	1.000000	0.000000
-8.786453	148.149994	7.664778	-0.000000	1.000000	0.000000
-7.041625	148.149994	7.664778	-0.000000	1.000000	0.000000
-8.911084	148.149994	7.664778	-0.000000	1.000000	0.000000
-9.035714	148.149994	7.664778	-0.000000	1.000000	0.000000
-6.993127	148.149994	7.664778	-0.000000	1.000000	0.000000
-9.160345	148.149994	7.664778	-0.000000	1.000000	0.000000
-9.284975	148.149994	7.664778	-0.000000	1.000000	0.000000
-9.409606	148.149994	7.664778	-0.000000	1.000000	0.000000
-9.534237	148.149994	7.664778	-0.000000	1.000000	0.000000
-9.874210	148.149994	7.664778	0.789940	0.000000	-0.613185
-9.658867	148.149994	7.664778	-0.000000	1.000000	0.000000
9.783498	148.149994	7.664778	-0.000000	1.000000	0.000000
9.658867	148.149994	7.664778	-0.000000	1.000000	0.000000
-9.783498	148.149994	7.664778	-0.000000	1.000000	0.000000
9.534237	148.149994	7.664778	-0.000000	1.000000	0.000000
9.409606	148.149994	7.664778	-0.000000	1.000000	0.000000
9.284975	148.149994	7.664778	-0.000000	1.000000	0.000000
9.160345	148.149994	7.664778	-0.000000	1.000000	0.000000
9.035714	148.149994	7.664778	-0.000000	1.000000	0.000000
8.911084	148.149994	7.664778	-0.000000	1.000000	0.000000
8.786453	148.149994	7.664778	-0.000000	1.000000	0.000000
8.661822	148.149994	7.664778	-0.000000	1.000000	0.000000
8.537192	148.149994	7.664778	-0.000000	1.000000	0.000000
8.412561	148.149994	7.664778	-0.000000	1.000000	0.000000
8.287931	148.149994	7.664778	-0.000000	1.000000	0.000000
6.993127	148.149994	7.664778	-0.000000	1.000000	0.000000
9.874076	148.149994	7.664778	-0.789936	0.000000	-0.613190
9.842014	156.899994	7.706150	-0.787361	0.000000	-0.616492
9.842014	148.149994	7.706150	-0.787361	0.000000	-0.616492
9.842014	157.024994	7.706150	-0.787361	0.000000	-0.616492
9.842014	157.149994	7.706150	-0.787361	0.000000	-0.616492
9.842014	157.274994	7.706150	-0.787361	0.000000	-0.616492
9.842014	159.149994	7.706150	-0.787361	0.000000	-0.616492
9.842014	159.024994	7.706150	-0.787361	0.000000	-0.616492
9.842014	158.899994	7.706150	-0.787361	0.000000	-0.616492
9.842014	158.774994	7.706150	-0.787361	0.000000	-0.616492
9.842014	158.649994	7.706150	-0.787361	0.000000	-0.616492
9.842014	156.774994	7.706150	-0.787361	0.000000	-0.616492
9.842014	158.399994	7.706150	-0.787361	0.000000	-0.616492
9.842014	158.274994	7.706150	-0.787361	0.000000	-0.616492
9.842014	158.149994	7.706150	-0.787361	0.000000	-0.616492
9.842014	158.024994	7.706150	-0.787361	0.000000	-0.616492
9.842014	157.899994	7.706150	-0.787361	0.000000	-0.616492
9.842014	157.774994	7.706150	-0.787361	0.000000	-0.616492
9.842014	157.649994	7.706150	-0.787361	0.000000	-0.616492
9.842014	157.524994	7.706150	-0.787361	0.000000	-0.616492
9.842014	156.524994	7.706150	-0.787361	0.000000	-0.616492
9.842014	156.649994	7.706150	-0.787361	0.000000	-0.616492
9.842014	158.524994	7.706150	-0.787361	0.000000	-0.616492
9.842014	148.274994	7.706150	-0.787361	0.000000	-0.616492
9.842014	148.399994	7.706150	-0.787361	0.000000	-0.616492
9.842014	148.524994	7.706150	-0.787361	0.000000	-0.616492
9.842014	148.649994	7.706150	-0.787361	0.000000	-0.616492
9.842014	148.774994	7.706150	-0.787361	0.000000	-0.616492
9.842014	148.899994	7.706150	-0.787361	0.000000	-0.616492
9.842014	149.024994	7.706150	-0.787361	0.000000	-0.616492
9.842014	149.149994	7.706150	-0.787361	0.000000	-0.616492
9.842014	149.274994	7.706150	-0.787361	0.000000	-0.616492
9.842014	149.399994	7.706150	-0.787361	0.000000	-0.616492
9.842014	149.524994	7.706150	-0.787361	0.000000	-0.616492
9.842014	149.649994	7.706150	-0.787361	0.000000	-0.616492
9.842014	149.774994	7.706150	-0.787361	0.000000	-0.616492
9.842014	149.899994	7.706150	-0.787361	0.000000	-0.616492
9.842014	150.024994	7.706150	-0.787361	0.000000	-0.616492
9.842014	150.274994	7.706150	-0.787361	0.000000	-0.616492
9.842014	150.399994	7.706150	-0.787361	0.000000	-0.616492
9.842014	150.524994	7.706150	-0.787361	0.000000	-0.616492
9.842014	150.649994	7.706150	-0.787361	0.000000	-0.616492
9.842014	150.774994	7.706150	-0.787361	0.000000	-0.616492
9.842014	150.899994	7.706150	-0.787361	0.000000	-0.616492
9.842014	151.024994	7.706150	-0.787361	0.000000	-0.616492
9.842014	151.149994	7.706150	-0.787361	0.000000	-0.616492
9.842014	151.274994	7.706150	-0.787361	0.000000	-0.616492
9.842014	151.399994	7.706150	-0.787361	0.000000	-0.616492
9.842014	151.524994	7.706150	-0.787361	0.000000	-0.616492
9.842014	151.774994	7.706150	-0.787361	0.000000	-0.616492
9.842014	151.899994	7.706150	-0.787361	0.000000	-0.616492
9.842014	151.649994	7.706150	-0.787361	0.000000	-0.616492
9.842014	152.024994	7.706150	-0.787361	0.000000	-0.616492
9.842014	152.149994	7.706150	-0.787361	0.000000	-0.616492
9.842014	152.274994	7.706150	-0.787361	0.000000	-0.616492
9.842014	152.399994	7.706150	-0.787361	0.000000	-0.616492
9.842014	152.524994	7.706150	-0.787361	0.000000	-0.616492
9.842014	152.649994	7.706150	-0.787361	0.000000	-0.616492
9.842014	152.774994	7.706150	-0.787361	0.000000	-0.616492
9.842014	152.899994	7.706150	-0.787361	0.000000	-0.616492
9.842014	153.024994	7.706150	-0.787361	0.000000	-0.616492
9.842014	153.149994	7.706150	-0.787361	0.000000	-0.616492
9.842014	157.399994	7.706150	-0.787361	0.000000	-0.616492
9.842014	153.274994	7.706150	-0.787361	0.000000	-0.616492
9.842014	153.399994	7.706150	-0.787361	0.000000	-0.616492
9.842014	153.524994	7.706150	-0.787361	0.000000	-0.616492
9.842014	153.649994	7.706150	-0.787361	0.000000	-0.616492
9.842014	153.774994	7.706150	-0.787361	0.000000	-0.616492
9.842014	153.899994	7.706150	-0.787361	0.000000	-0.616492
9.842014	154.024994	7.706150	-0.787361	0.000000	-0.616492
9.842014	154.149994	7.706150	-0.787361	0.000000	-0.616492
9.842014	154.274994	7.706150	-0.787361	0.000000	-0.616492
9.842014	154.399994	7.706150	-0.787361	0.000000	-0.616492
9.842014	154.524994	7.706150	-0.787361	0.000000	-0.616492
9.842014	154.649994	7.706150	-0.787361	0.000000	-0.616492
9.842014	154.774994	7.706150	-0.787361	0.000000	-0.616492
9.842014	154.899994	7.706150	-0.787361	0.000000	-0.616492
9.842014	155.024994	7.706150	-0.787361	0.000000	-0.616492
9.842014	155.149994	7.706150	-0.787361	0.000000	-0.616492
9.842014	155.274994	7.706150	-0.787361	0.000000	-0.616492
9.842014	155.399994	7.706150	-0.787361	0.000000	-0.616492
9.842014	155.524994	7.706150	-0.787361	0.000000	-0.616492
9.842014	155.649994	7.706150	-0.787361	0.000000	-0.616492
9.842014	155.774994	7.706150	-0.787361	0.000000	-0.616492
9.842014	150.149994	7.706150	-0.787361	0.000000	-0.616492
9.842014	155.899994	7.706150	-0.787361	0.000000	-0.616492
9.842014	156.024994	7.706150	-0.787361	0.000000	-0.616492
9.842014	156.149994	7.706150	-0.787361	0.000000	-0.616492
9.842014	156.274994	7.706150	-0.787361	0.000000	-0.616492
9.842014	156.399994	7.706150	-0.787361	0.000000	-0.616492
-6.920258	148.149994	7.731469	-0.000000	1.000000	0.000000
6.920258	148.149994	7.731469	-0.000000	1.000000	0.000000
-6.916995	148.149994	7.734324	-0.000000	1.000000	0.000000
6.916995	148.149994	7.734324	-0.000000	1.000000	0.000000
-9.803403	152.399994	7.755211	0.784272	0.000000	-0.620417
-9.803403	152.524994	7.755211	0.784272	0.000000	-0.620417
-9.803403	152.649994	7.755211	0.784272	0.000000	-0.620417
-9.803403	152.774994	7.755211	0.784272	0.000000	-0.620417
-9.803403	152.899994	7.755211	0.784272	0.000000	-0.620417
-9.803403	153.024994	7.755211	0.784272	0.000000	-0.620417
-9.803403	153.149994	7.755211	0.784272	0.000000	-0.620417
-9.803403	153.274994	7.755211	0.784272	0.000000	-0.620417
-9.803403	153.399994	7.755211	0.784272	0.000000	-0.620417
-9.803403	153.524994	7.755211	0.784272	0.000000	-0.620417
-9.803403	153.649994	7.755211	0.784272	0.000000	-0.620417
-9.803403	153.774994	7.755211	0.784272	0.000000	-0.620417
-9.803403	153.899994	7.755211	0.784272	0.000000	-0.620417
-9.803403	154.024994	7.755211	0.784272	0.000000	-0.620417
-9.803403	154.149994	7.755211	0.784272	0.000000	-0.620417
-9.803403	154.274994	7.755211	0.784272	0.000000	-0.620417
-9.803403	154.399994	7.755211	0.784272	0.000000	-0.620417
-9.803403	154.524994	7.755211	0.784272	0.000000	-0.620417
-9.803403	154.649994	7.755211	0.784272	0.000000	-0.620417
-9.803403	154.774994	7.755211	0.784272	0.000000	-0.620417
-9.803403	154.899994	7.755211	0.784272	0.000000	-0.620417
-9.803403	155.024994	7.755211	0.784272	0.000000	-0.620417
-9.803403	155.149994	7.755211	0.784272	0.000000	-0.620417
-9.803403	155.274994	7.755211	0.784272	0.000000	-0.620417
-9.803403	155.399994	7.755211	0.784272	0.000000	-0.620417
-9.803403	155.524994	7.755211	0.784272	0.000000	-0.620417
-9.803403	155.649994	7.755211	0.784272	0.000000	-0.620417
-9.803403	155.774994	7.755211	0.784272	0.000000	-0.620417
-9.803403	155.899994	7.755211	0.784272	0.000000	-0.620417
-9.803403	156.024994	7.755211	0.784272	0.000000	-0.620417
-9.803403	156.149994	7.755211	0.784272	0.000000	-0.620417
-9.803403	156.274994	7.755211	0.784272	0.000000	-0.620417
-9.803403	156.399994	7.755211	0.784272	0.000000	-0.620417
-9.803403	156.524994	7.755211	0.784272	0.000000	-0.620417
-9.803403	156.649994	7.755211	0.784272	0.000000	-0.620417
-9.803403	156.774994	7.755211	0.784272	0.000000	-0.620417
-9.803403	156.899994	7.755211	0.784272	0.000000	-0.620417
-9.803403	157.024994	7.755211	0.784272	0.000000	-0.620417
-9.803403	157.149994	7.755211	0.784272	0.000000	-0.620417
-9.803403	157.274994	7.755211	0.784272	0.000000	-0.620417
-9.803403	157.399994	7.755211	0.784272	0.000000	-0.620417
-9.803403	157.524994	7.755211	0.784272	0.000000	-0.620417
-9.803403	157.649994	7.755211	0.784272	0.000000	-0.620417
-9.803403	157.774994	7.755211	0.784272	0.000000	-0.620417
-9.803403	157.899994	7.755211	0.784272	0.000000	-0.620417
-9.803403	158.024994	7.755211	0.784272	0.000000	-0.620417
-9.803403	158.149994	7.755211	0.784272	0.000000	-0.620417
-9.803403	158.274994	7.755211	0.784272	0.000000	-0.620417
-9.803403	158.399994	7.755211	0.784272	0.000000	-0.620417
-9.803403	158.524994	7.755211	0.784272	0.000000	-0.620417
-9.803403	158.649994	7.755211	0.784272	0.000000	-0.620417
-9.803403	158.774994	7.755211	0.784272	0.000000	-0.620417
-9.803403	159.024994	7.755211	0.784272	0.000000	-0.620417
-9.803403	159.149994	7.755211	0.784272	0.000000	-0.620417
-9.803403	148.149994	7.755211	0.784272	0.000000	-0.620417
-9.803403	149.149994	7.755211	0.784272	0.000000	-0.620417
-9.803403	149.274994	7.755211	0.784272	0.000000	-0.620417
-9.803403	149.399994	7.755211	0.784272	0.000000	-0.620417
-9.803403	149.524994	7.755211	0.784272	0.000000	-0.620417
-9.803403	149.649994	7.755211	0.784272	0.000000	-0.620417
-9.803403	149.774994	7.755211	0.784272	0.000000	-0.620417
-9.803403	149.899994	7.755211	0.784272	0.000000	-0.620417
-9.803403	150.024994	7.755211	0.784272	0.000000	-0.620417
-9.803403	150.149994	7.755211	0.784272	0.000000	-0.620417
-9.803403	150.274994	7.755211	0.784272	0.000000	-0.620417
-9.803403	150.399994	7.755211	0.784272	0.000000	-0.620417
-9.803403	150.524994	7.755211	0.784272	0.000000	-0.620417
-9.803403	150.649994	7.755211	0.784272	0.000000	-0.620417
-9.803403	150.774994	7.755211	0.784272	0.000000	-0.620417
-9.803403	150.899994	7.755211	0.784272	0.000000	-0.620417
-9.803403	151.024994	7.755211	0.784272	0.000000	-0.620417
-9.803403	151.149994	7.755211	0.784272	0.000000	-0.620417
-9.803403	151.274994	7.755211	0.784272	0.000000	-0.620417
-9.803403	151.399994	7.755211	0.784272	0.000000	-0.620417
-9.803403	151.524994	7.755211	0.784272	0.000000	-0.620417
-9.803403	151.649994	7.755211	0.784272	0.000000	-0.620417
-9.803403	151.774994	7.755211	0.784272	0.000000	-0.620417
-9.803403	151.899994	7.755211	0.784272	0.000000	-0.620417
-9.803403	152.024994	7.755211	0.784272	0.000000	-0.620417
-9.803403	152.149994	7.755211	0.784272	0.000000	-0.620417
-9.803403	158.899994	7.755211	0.784272	0.000000	-0.620417
-9.803403	148.274994	7.755211	0.784272	0.000000	-0.620417
-9.803403	152.274994	7.755211	0.784272	0.000000	-0.620417
-9.803403	148.399994	7.755211	0.784272	0.000000	-0.620417
-9.803403	148.524994	7.755211	0.784272	0.000000	-0.620417
-9.803403	148.649994	7.755211	0.784272	0.000000	-0.620417
-9.803403	148.774994	7.755211	0.784272	0.000000	-0.620417
-9.803403	148.899994	7.755211	0.784272	0.000000	-0.620417
-9.803403	149.024994	7.755211	0.784272	0.000000	-0.620417
-9.783498	148.149994	7.780117	0.782687	0.000000	-0.622415
9.783498	148.149994	7.780122	-0.782687	0.000000	-0.622415
9.776151	148.149994	7.789409	-0.782097	0.000000	-0.623157
-9.409606	148.149994	7.789409	-0.000000	1.000000	0.000000
-9.284975	148.149994	7.789409	-0.000000	1.000000	0.000000
-9.160345	148.149994	7.789409	-0.000000	1.000000	0.000000
-9.035714	148.149994	7.789409	-0.000000	1.000000	0.000000
-8.786453	148.149994	7.789409	-0.000000	1.000000	0.000000
-8.661822	148.149994	7.789409	-0.000000	1.000000	0.000000
-8.537192	148.149994	7.789409	-0.000000	1.000000	0.000000
-8.412561	148.149994	7.789409	-0.000000	1.000000	0.000000
-8.287931	148.149994	7.789409	-0.000000	1.000000	0.000000
-8.163301	148.149994	7.789409	-0.000000	1.000000	0.000000
-8.038670	148.149994	7.789409	-0.000000	1.000000	0.000000
-7.914040	148.149994	7.789409	-0.000000	1.000000	0.000000
-7.789409	148.149994	7.789409	-0.000000	1.000000	0.000000
-7.664778	148.149994	7.789409	-0.000000	1.000000	0.000000
-7.540148	148.149994	7.789409	-0.000000	1.000000	0.000000
-7.415517	148.149994	7.789409	-0.000000	1.000000	0.000000
-7.290887	148.149994	7.789409	-0.000000	1.000000	0.000000
-7.166256	148.149994	7.789409	-0.000000	1.000000	0.000000
-7.041625	148.149994	7.789409	-0.000000	1.000000	0.000000
6.916995	148.149994	7.789409	-0.000000	1.000000	0.000000
7.041625	148.149994	7.789409	-0.000000	1.000000	0.000000
7.166256	148.149994	7.789409	-0.000000	1.000000	0.000000
7.290887	148.149994	7.789409	-0.000000	1.000000	0.000000
-8.911084	148.149994	7.789409	-0.000000	1.000000	0.000000
7.540148	148.149994	7.789409	-0.000000	1.000000	0.000000
7.664778	148.149994	7.789409	-0.000000	1.000000	0.000000
7.789409	148.149994	7.789409	-0.000000	1.000000	0.000000
7.914040	148.149994	7.789409	-0.000000	1.000000	0.000000
8.038670	148.149994	7.789409	-0.000000	1.000000	0.000000
8.163301	148.149994	7.789409	-0.000000	1.000000	0.000000
8.287931	148.149994	7.789409	-0.000000	1.000000	0.000000
8.412561	148.149994	7.789409	-0.000000	1.000000	0.000000
8.537192	148.149994	7.789409	-0.000000	1.000000	0.000000
8.661822	148.149994	7.789409	-0.000000	1.000000	0.000000
8.786453	148.149994	7.789409	-0.000000	1.000000	0.000000
8.911084	148.149994	7.789409	-0.000000	1.000000	0.000000
-9.658867	148.149994	7.789409	-0.000000	1.000000	0.000000
9.160345	148.149994	7.789409	-0.000000	1.000000	0.000000
9.284975	148.149994	7.789409	-0.000000	1.000000	0.000000
9.409606	148.149994	7.789409	-0.000000	1.000000	0.000000
9.534237	148.149994	7.789409	-0.000000	1.000000	0.000000
9.658867	148.149994	7.789409	-0.000000	1.000000	0.000000
7.415517	148.149994	7.789409	-0.000000	1.000000	0.000000
-6.854067	148.149994	7.789409	-0.000000	1.000000	0.000000
6.854067	148.149994	7.789409	-0.000000	1.000000	0.000000
-6.916995	148.149994	7.789409	-0.000000	1.000000	0.000000
-9.534237	148.149994	7.789409	-0.000000	1.000000	0.000000
9.035714	148.149994	7.789409	-0.000000	1.000000	0.000000
-9.776071	148.149994	7.789409	0.782095	0.000000	-0.623160
9.764546	158.774994	7.804078	-0.781164	0.000000	-0.624326
9.764546	158.649994	7.804078	-0.781164	0.000000	-0.624326
9.764546	158.524994	7.804078	-0.781164	0.000000	-0.624326
9.764546	158.399994	7.804078	-0.781164	0.000000	-0.624326
9.764546	158.274994	7.804078	-0.781164	0.000000	-0.624326
9.764546	158.149994	7.804078	-0.781164	0.000000	-0.624326
9.764546	158.024994	7.804078	-0.781164	0.000000	-0.624326
9.764546	148.274994	7.804078	-0.781164	0.000000	-0.624326
9.764546	157.899994	7.804078	-0.781164	0.000000	-0.624326
9.764546	157.774994	7.804078	-0.781164	0.000000	-0.624326
9.764546	152.024994	7.804078	-0.781164	0.000000	-0.624326
9.764546	152.149994	7.804078	-0.781164	0.000000	-0.624326
9.764546	152.274994	7.804078	-0.781164	0.000000	-0.624326
9.764546	152.524994	7.804078	-0.781164	0.000000	-0.624326
9.764546	152.649994	7.804078	-0.781164	0.000000	-0.624326
9.764546	152.774994	7.804078	-0.781164	0.000000	-0.624326
9.764546	152.899994	7.804078	-0.781164	0.000000	-0.624326
9.764546	153.024994	7.804078	-0.781164	0.000000	-0.624326
9.764546	153.149994	7.804078	-0.781164	0.000000	-0.624326
9.764546	153.274994	7.804078	-0.781164	0.000000	-0.624326
9.764546	153.399994	7.804078	-0.781164	0.000000	-0.624326
9.764546	153.524994	7.804078	-0.781164	0.000000	-0.624326
9.764546	153.649994	7.804078	-0.781164	0.000000	-0.624326
9.764546	153.774994	7.804078	-0.781164	0.000000	-0.624326
9.764546	153.899994	7.804078	-0.781164	0.000000	-0.624326
9.764546	152.399994	7.804078	-0.781164	0.000000	-0.624326
9.764546	154.024994	7.804078	-0.781164	0.000000	-0.624326
9.764546	154.149994	7.804078	-0.781164	0.000000	-0.624326
9.764546	154.274994	7.804078	-0.781164	0.000000	-0.624326
9.764546	154.399994	7.804078	-0.781164	0.000000	-0.624326
9.764546	154.524994	7.804078	-0.781164	0.000000	-0.624326
9.764546	154.649994	7.804078	-0.781164	0.000000	-0.624326
9.764546	154.774994	7.804078	-0.781164	0.000000	-0.624326
9.764546	154.899994	7.804078	-0.781164	0.000000	-0.624326
9.764546	155.024994	7.804078	-0.781164	0.000000	-0.624326
9.764546	155.149994	7.804078	-0.781164	0.000000	-0.624326
9.764546	155.274994	7.804078	-0.781164	0.000000	-0.624326
9.764546	155.399994	7.804078	-0.781164	0.000000	-0.624326
9.764546	155.524994	7.804078	-0.781164	0.000000	-0.624326
9.764546	155.649994	7.804078	-0.781164	0.000000	-0.624326
9.764546	155.774994	7.804078	-0.781164	0.000000	-0.624326
9.764546	155.899994	7.804078	-0.781164	0.000000	-0.624326
9.764546	156.024994	7.804078	-0.781164	0.000000	-0.624326
9.764546	156.149994	7.804078	-0.781164	0.000000	-0.624326
9.764546	156.274994	7.804078	-0.781164	0.000000	-0.624326
9.764546	156.399994	7.804078	-0.781164	0.000000	-0.624326
9.764546	156.524994	7.804078	-0.781164	0.000000	-0.624326
9.764546	156.649994	7.804078	-0.781164	0.000000	-0.624326
9.764546	156.774994	7.804078	-0.781164	0.000000	-0.624326
9.764546	156.899994	7.804078	-0.781164	0.000000	-0.624326
9.764546	157.024994	7.804078	-0.781164	0.000000	-0.624326
9.764546	157.149994	7.804078	-0.781164	0.000000	-0.624326
9.764546	157.274994	7.804078	-0.781164	0.000000	-0.624326
9.764546	148.149994	7.804078	-0.781164	0.000000	-0.624326
9.764546	159.149994	7.804078	-0.781164	0.000000	-0.624326
9.764546	157.524994	7.804078	-0.781164	0.000000	-0.624326
9.764546	157.649994	7.804078	-0.781164	0.000000	-0.624326
9.764546	148.524994	7.804078	-0.781164	0.000000	-0.624326
9.764546	159.024994	7.804078	-0.781164	0.000000	-0.624326
9.764546	158.899994	7.804078	-0.781164	0.000000	-0.624326
9.764546	148.399994	7.804078	-0.781164	0.000000	-0.624326
9.764546	148.649994	7.804078	-0.781164	0.000000	-0.624326
9.764546	148.774994	7.804078	-0.781164	0.000000	-0.624326
9.764546	148.899994	7.804078	-0.781164	0.000000	-0.624326
9.764546	149.024994	7.804078	-0.781164	0.000000	-0.624326
9.764546	149.149994	7.804078	-0.781164	0.000000	-0.624326
9.764546	149.274994	7.804078	-0.781164	0.000000	-0.624326
9.764546	149.399994	7.804078	-0.781164	0.000000	-0.624326
9.764546	149.524994	7.804078	-0.781164	0.000000	-0.624326
9.764546	149.649994	7.804078	-0.781164	0.000000	-0.624326
9.764546	149.774994	7.804078	-0.781164	0.000000	-0.624326
9.764546	157.399994	7.804078	-0.781164	0.000000	-0.624326
9.764546	150.024994	7.804078	-0.781164	0.000000	-0.624326
9.764546	150.149994	7.804078	-0.781164	0.000000	-0.624326
9.764546	150.274994	7.804078	-0.781164	0.000000	-0.624326
9.764546	150.399994	7.804078	-0.781164	0.000000	-0.624326
9.764546	150.524994	7.804078	-0.781164	0.000000	-0.624326
9.764546	150.649994	7.804078	-0.781164	0.000000	-0.624326
9.764546	150.774994	7.804078	-0.781164	0.000000	-0.624326
9.764546	150.899994	7.804078	-0.781164	0.000000	-0.624326
9.764546	151.024994	7.804078	-0.781164	0.000000	-0.624326
9.764546	151.149994	7.804078	-0.781164	0.000000	-0.624326
9.764546	151.274994	7.804078	-0.781164	0.000000	-0.624326
9.764546	151.399994	7.804078	-0.781164	0.000000	-0.624326
9.764546	151.524994	7.804078	-0.781164	0.000000	-0.624326
9.764546	151.649994	7.804078	-0.781164	0.000000	-0.624326
9.764546	151.774994	7.804078	-0.781164	0.000000	-0.624326
9.764546	151.899994	7.804078	-0.781164	0.000000	-0.624326
9.764546	149.899994	7.804078	-0.781164	0.000000	-0.624326
-6.792365	148.149994	7.843420	-0.000000	1.000000	0.000000
6.792365	148.149994	7.843420	-0.000000	1.000000	0.000000
-9.725447	158.774994	7.852750	0.778036	0.000000	-0.628220
-9.725447	155.024994	7.852750	0.778036	0.000000	-0.628220
-9.725447	154.899994	7.852750	0.778036	0.000000	-0.628220
-9.725447	154.774994	7.852750	0.778036	0.000000	-0.628220
-9.725447	154.649994	7.852750	0.778036	0.000000	-0.628220
-9.725447	154.524994	7.852750	0.778036	0.000000	-0.628220
-9.725447	154.399994	7.852750	0.778036	0.000000	-0.628220
-9.725447	154.274994	7.852750	0.778036	0.000000	-0.628220
-9.725447	154.149994	7.852750	0.778036	0.000000	-0.628220
-9.725447	154.024994	7.852750	0.778036	0.000000	-0.628220
-9.725447	153.899994	7.852750	0.778036	0.000000	-0.628220
-9.725447	153.774994	7.852750	0.778036	0.000000	-0.628220
-9.725447	153.649994	7.852750	0.778036	0.000000	-0.628220
-9.725447	153.524994	7.852750	0.778036	0.000000	-0.628220
-9.725447	153.399994	7.852750	0.778036	0.000000	-0.628220
-9.725447	153.274994	7.852750	0.778036	0.000000	-0.628220
-9.725447	153.149994	7.852750	0.778036	0.000000	-0.628220
-9.725447	153.024994	7.852750	0.778036	0.000000	-0.628220
-9.725447	152.899994	7.852750	0.778036	0.000000	-0.628220
-9.725447	152.774994	7.852750	0.778036	0.000000	-0.628220
-9.725447	152.649994	7.852750	0.778036	0.000000	-0.628220
-9.725447	152.524994	7.852750	0.778036	0.000000	-0.628220
-9.725447	152.399994	7.852750	0.778036	0.000000	-0.628220
-9.725447	152.274994	7.852750	0.778036	0.000000	-0.628220
-9.725447	152.149994	7.852750	0.778036	0.000000	-0.628220
-9.725447	152.024994	7.852750	0.778036	0.000000	-0.628220
-9.725447	151.899994	7.852750	0.778036	0.000000	-0.628220
-9.725447	151.774994	7.852750	0.778036	0.000000	-0.628220
-9.725447	151.649994	7.852750	0.778036	0.000000	-0.628220
-9.725447	151.524994	7.852750	0.778036	0.000000	-0.628220
-9.725447	158.649994	7.852750	0.778036	0.000000	-0.628220
-9.725447	151.274994	7.852750	0.778036	0.000000	-0.628220
-9.725447	151.149994	7.852750	0.778036	0.000000	-0.628220
-9.725447	158.524994	7.852750	0.778036	0.000000	-0.628220
-9.725447	150.899994	7.852750	0.778036	0.000000	-0.628220
-9.725447	150.774994	7.852750	0.778036	0.000000	-0.628220
-9.725447	156.399994	7.852750	0.778036	0.000000	-0.628220
-9.725447	150.524994	7.852750	0.778036	0.000000	-0.628220
-9.725447	150.399994	7.852750	0.778036	0.000000	-0.628220
-9.725447	150.274994	7.852750	0.778036	0.000000	-0.628220
-9.725447	150.149994	7.852750	0.778036	0.000000	-0.628220
-9.725447	150.024994	7.852750	0.778036	0.000000	-0.628220
-9.725447	149.899994	7.852750	0.778036	0.000000	-0.628220
-9.725447	149.774994	7.852750	0.778036	0.000000	-0.628220
-9.725447	149.649994	7.852750	0.778036	0.000000	-0.628220
-9.725447	149.524994	7.852750	0.778036	0.000000	-0.628220
-9.725447	149.399994	7.852750	0.778036	0.000000	-0.628220
-9.725447	149.274994	7.852750	0.778036	0.000000	-0.628220
-9.725447	149.149994	7.852750	0.778036	0.000000	-0.628220
-9.725447	149.024994	7.852750	0.778036	0.000000	-0.628220
-9.725447	148.899994	7.852750	0.778036	0.000000	-0.628220
-9.725447	148.774994	7.852750	0.778036	0.000000	-0.628220
-9.725447	148.649994	7.852750	0.778036	0.000000	-0.628220
-9.725447	148.524994	7.852750	0.778036	0.000000	-0.628220
-9.725447	148.399994	7.852750	0.778036	0.000000	-0.628220
-9.725447	148.274994	7.852750	0.778036	0.000000	-0.628220
-9.725447	148.149994	7.852750	0.778036	0.000000	-0.628220
-9.725447	158.399994	7.852750	0.778036	0.000000	-0.628220
-9.725447	158.274994	7.852750	0.778036	0.000000	-0.628220
-9.725447	151.399994	7.852750	0.778036	0.000000	-0.628220
-9.725447	158.149994	7.852750	0.778036	0.000000	-0.628220
-9.725447	158.024994	7.852750	0.778036	0.000000	-0.628220
-9.725447	157.899994	7.852750	0.778036	0.000000	-0.628220
-9.725447	157.774994	7.852750	0.778036	0.000000	-0.628220
-9.725447	157.649994	7.852750	0.778036	0.000000	-0.628220
-9.725447	157.524994	7.852750	0.778036	0.000000	-0.628220
-9.725447	157.399994	7.852750	0.778036	0.000000	-0.628220
-9.725447	157.274994	7.852750	0.778036	0.000000	-0.628220
-9.725447	157.149994	7.852750	0.778036	0.000000	-0.628220
-9.725447	157.024994	7.852750	0.778036	0.000000	-0.628220
-9.725447	156.899994	7.852750	0.778036	0.000000	-0.628220
-9.725447	156.774994	7.852750	0.778036	0.000000	-0.628220
-9.725447	156.649994	7.852750	0.778036	0.000000	-0.628220
-9.725447	156.524994	7.852750	0.778036	0.000000	-0.628220
-9.725447	156.274994	7.852750	0.778036	0.000000	-0.628220
-9.725447	156.149994	7.852750	0.778036	0.000000	-0.628220
-9.725447	156.024994	7.852750	0.778036	0.000000	-0.628220
-9.725447	155.899994	7.852750	0.778036	0.000000	-0.628220
