-42.734745	44.856625	-15.980681	-0.936652	0.000000	-0.350262
-42.734745	47.382530	-15.980681	-0.936652	0.000000	-0.350262
-42.734745	45.939156	-15.980681	-0.936652	0.000000	-0.350262
-42.734745	47.743374	-15.980681	-0.936652	0.000000	-0.350262
-42.734745	45.217468	-15.980681	-0.936652	0.000000	-0.350262
-42.734745	47.021687	-15.980681	-0.936652	0.000000	-0.350262
-42.734745	46.660843	-15.980681	-0.936652	0.000000	-0.350262
-42.734745	46.299999	-15.980681	-0.936652	0.000000	-0.350262
-42.734745	45.578312	-15.980681	-0.936652	0.000000	-0.350262
42.800873	44.856625	-15.802722	0.938101	0.000000	-0.346361
42.800873	47.743374	-15.802722	0.938101	0.000000	-0.346361
42.800873	47.382530	-15.802722	0.938101	0.000000	-0.346361
42.800873	47.021687	-15.802722	0.938101	0.000000	-0.346361
42.800873	46.660843	-15.802722	0.938101	0.000000	-0.346361
42.800873	46.299999	-15.802722	0.938101	0.000000	-0.346361
42.800873	45.939156	-15.802722	0.938101	0.000000	-0.346361
42.800873	45.578312	-15.802722	0.938101	0.000000	-0.346361
42.800873	45.217468	-15.802722	0.938101	0.000000	-0.346361
-42.866257	45.217468	-15.624490	-0.939534	0.000000	-0.342455
-42.866257	44.856625	-15.624490	-0.939534	0.000000	-0.342455
-42.866257	47.382530	-15.624490	-0.939534	0.000000	-0.342455
-42.866257	47.021687	-15.624490	-0.939534	0.000000	-0.342455
-42.866257	46.660843	-15.624490	-0.939534	0.000000	-0.342455
-42.866257	46.299999	-15.624490	-0.939534	0.000000	-0.342455
-42.866257	45.939156	-15.624490	-0.939534	0.000000	-0.342455
-42.866257	45.578312	-15.624490	-0.939534	0.000000	-0.342455
-42.866257	47.743374	-15.624490	-0.939534	0.000000	-0.342455
42.930901	44.856625	-15.445986	0.940951	0.000000	-0.338542
42.930901	47.743374	-15.445986	0.940951	0.000000	-0.338542
42.930901	45.217468	-15.445986	0.940951	0.000000	-0.338542
42.930901	47.382530	-15.445986	0.940951	0.000000	-0.338542
42.930901	47.021687	-15.445986	0.940951	0.000000	-0.338542
42.930901	46.660843	-15.445986	0.940951	0.000000	-0.338542
42.930901	46.299999	-15.445986	0.940951	0.000000	-0.338542
42.930901	45.939156	-15.445986	0.940951	0.000000	-0.338542
42.930901	45.578312	-15.445986	0.940951	0.000000	-0.338542
-42.994801	46.660843	-15.267215	-0.942352	0.000000	-0.334624
-42.994801	47.743374	-15.267215	-0.942352	0.000000	-0.334624
-42.994801	47.382530	-15.267215	-0.942352	0.000000	-0.334624
-42.994801	47.021687	-15.267215	-0.942352	0.000000	-0.334624
-42.994801	46.299999	-15.267215	-0.942352	0.000000	-0.334624
-42.994801	45.939156	-15.267215	-0.942352	0.000000	-0.334624
-42.994801	45.578312	-15.267215	-0.942352	0.000000	-0.334624
-42.994801	45.217468	-15.267215	-0.942352	0.000000	-0.334624
-42.994801	44.856625	-15.267215	-0.942352	0.000000	-0.334624
43.057953	45.217468	-15.088181	0.943736	0.000000	-0.330700
43.057953	47.743374	-15.088181	0.943736	0.000000	-0.330700
43.057953	45.578312	-15.088181	0.943736	0.000000	-0.330700
43.057953	45.939156	-15.088181	0.943736	0.000000	-0.330700
43.057953	46.299999	-15.088181	0.943736	0.000000	-0.330700
43.057953	47.382530	-15.088181	0.943736	0.000000	-0.330700
43.057953	46.660843	-15.088181	0.943736	0.000000	-0.330700
43.057953	47.021687	-15.088181	0.943736	0.000000	-0.330700
43.057953	44.856625	-15.088181	0.943736	0.000000	-0.330700
-43.120365	47.382530	-14.908884	-0.945104	0.000000	-0.326770
-43.120365	47.021687	-14.908884	-0.945104	0.000000	-0.326770
-43.120365	46.660843	-14.908884	-0.945104	0.000000	-0.326770
-43.120365	45.217468	-14.908884	-0.945104	0.000000	-0.326770
-43.120365	45.939156	-14.908884	-0.945104	0.000000	-0.326770
-43.120365	45.578312	-14.908884	-0.945104	0.000000	-0.326770
-43.120365	46.299999	-14.908884	-0.945104	0.000000	-0.326770
-43.120365	44.856625	-14.908884	-0.945104	0.000000	-0.326770
-43.120365	47.743374	-14.908884	-0.945104	0.000000	-0.326770
43.182026	45.578312	-14.729329	0.946455	0.000000	-0.322835
43.182026	47.743374	-14.729329	0.946455	0.000000	-0.322835
43.182026	46.299999	-14.729329	0.946455	0.000000	-0.322835
43.182026	47.382530	-14.729329	0.946455	0.000000	-0.322835
43.182026	47.021687	-14.729329	0.946455	0.000000	-0.322835
43.182026	46.660843	-14.729329	0.946455	0.000000	-0.322835
43.182026	45.939156	-14.729329	0.946455	0.000000	-0.322835
43.182026	45.217468	-14.729329	0.946455	0.000000	-0.322835
43.182026	44.856625	-14.729329	0.946455	0.000000	-0.322835
-43.242943	46.299999	-14.549520	-0.947791	0.000000	-0.318894
-43.242943	45.578312	-14.549520	-0.947791	0.000000	-0.318894
-43.242943	45.217468	-14.549520	-0.947791	0.000000	-0.318894
-43.242943	44.856625	-14.549520	-0.947791	0.000000	-0.318894
-43.242943	47.743374	-14.549520	-0.947791	0.000000	-0.318894
-43.242943	47.021687	-14.549520	-0.947791	0.000000	-0.318894
-43.242943	47.382530	-14.549520	-0.947791	0.000000	-0.318894
-43.242943	45.939156	-14.549520	-0.947791	0.000000	-0.318894
-43.242943	46.660843	-14.549520	-0.947791	0.000000	-0.318894
43.303108	45.217468	-14.369458	0.949109	0.000000	-0.314947
43.303108	47.743374	-14.369458	0.949109	0.000000	-0.314947
43.303108	45.939156	-14.369458	0.949109	0.000000	-0.314947
43.303108	44.856625	-14.369458	0.949109	0.000000	-0.314947
43.303108	45.578312	-14.369458	0.949109	0.000000	-0.314947
43.303108	47.382530	-14.369458	0.949109	0.000000	-0.314947
43.303108	47.021687	-14.369458	0.949109	0.000000	-0.314947
43.303108	46.660843	-14.369458	0.949109	0.000000	-0.314947
43.303108	46.299999	-14.369458	0.949109	0.000000	-0.314947
-43.362526	47.382530	-14.189148	-0.950412	0.000000	-0.310995
-43.362526	44.856625	-14.189148	-0.950412	0.000000	-0.310995
-43.362526	45.578312	-14.189148	-0.950412	0.000000	-0.310995
-43.362526	47.021687	-14.189148	-0.950412	0.000000	-0.310995
-43.362526	46.299999	-14.189148	-0.950412	0.000000	-0.310995
-43.362526	45.939156	-14.189148	-0.950412	0.000000	-0.310995
-43.362526	47.743374	-14.189148	-0.950412	0.000000	-0.310995
-43.362526	46.660843	-14.189148	-0.950412	0.000000	-0.310995
-43.362526	45.217468	-14.189148	-0.950412	0.000000	-0.310995
43.421192	46.660843	-14.008592	0.951697	0.000000	-0.307038
43.421192	45.217468	-14.008592	0.951697	0.000000	-0.307038
43.421192	45.578312	-14.008592	0.951697	0.000000	-0.307038
43.421192	45.939156	-14.008592	0.951697	0.000000	-0.307038
43.421192	46.299999	-14.008592	0.951697	0.000000	-0.307038
43.421192	47.743374	-14.008592	0.951697	0.000000	-0.307038
43.421192	47.382530	-14.008592	0.951697	0.000000	-0.307038
43.421192	44.856625	-14.008592	0.951697	0.000000	-0.307038
43.421192	47.021687	-14.008592	0.951697	0.000000	-0.307038
-43.479107	45.578312	-13.827793	-0.952967	0.000000	-0.303075
-43.479107	45.939156	-13.827793	-0.952967	0.000000	-0.303075
-43.479107	46.299999	-13.827793	-0.952967	0.000000	-0.303075
-43.479107	46.660843	-13.827793	-0.952967	0.000000	-0.303075
-43.479107	47.021687	-13.827793	-0.952967	0.000000	-0.303075
-43.479107	47.382530	-13.827793	-0.952967	0.000000	-0.303075
-43.479107	47.743374	-13.827793	-0.952967	0.000000	-0.303075
-43.479107	44.856625	-13.827793	-0.952967	0.000000	-0.303075
-43.479107	45.217468	-13.827793	-0.952967	0.000000	-0.303075
43.536270	45.939156	-13.646755	0.954220	0.000000	-0.299107
43.536270	46.299999	-13.646755	0.954220	0.000000	-0.299107
43.536270	46.660843	-13.646755	0.954220	0.000000	-0.299107
43.536270	47.021687	-13.646755	0.954220	0.000000	-0.299107
43.536270	47.382530	-13.646755	0.954220	0.000000	-0.299107
43.536270	47.743374	-13.646755	0.954220	0.000000	-0.299107
43.536270	44.856625	-13.646755	0.954220	0.000000	-0.299107
43.536270	45.217468	-13.646755	0.954220	0.000000	-0.299107
43.536270	45.578312	-13.646755	0.954220	0.000000	-0.299107
-43.592678	45.939156	-13.465481	-0.955456	0.000000	-0.295134
-43.592678	47.743374	-13.465481	-0.955456	0.000000	-0.295134
-43.592678	47.021687	-13.465481	-0.955456	0.000000	-0.295134
-43.592678	45.217468	-13.465481	-0.955456	0.000000	-0.295134
-43.592678	44.856625	-13.465481	-0.955456	0.000000	-0.295134
-43.592678	45.578312	-13.465481	-0.955456	0.000000	-0.295134
-43.592678	47.382530	-13.465481	-0.955456	0.000000	-0.295134
-43.592678	46.299999	-13.465481	-0.955456	0.000000	-0.295134
-43.592678	46.660843	-13.465481	-0.955456	0.000000	-0.295134
43.648331	44.856625	-13.283974	0.956676	0.000000	-0.291156
43.648331	46.299999	-13.283974	0.956676	0.000000	-0.291156
43.648331	47.743374	-13.283974	0.956676	0.000000	-0.291156
43.648331	47.382530	-13.283974	0.956676	0.000000	-0.291156
43.648331	47.021687	-13.283974	0.956676	0.000000	-0.291156
43.648331	46.660843	-13.283974	0.956676	0.000000	-0.291156
43.648331	45.939156	-13.283974	0.956676	0.000000	-0.291156
43.648331	45.578312	-13.283974	0.956676	0.000000	-0.291156
43.648331	45.217468	-13.283974	0.956676	0.000000	-0.291156
-43.703228	47.743374	-13.102237	-0.957879	0.000000	-0.287172
-43.703228	44.856625	-13.102237	-0.957879	0.000000	-0.287172
-43.703228	45.217468	-13.102237	-0.957879	0.000000	-0.287172
-43.703228	45.578312	-13.102237	-0.957879	0.000000	-0.287172
-43.703228	45.939156	-13.102237	-0.957879	0.000000	-0.287172
-43.703228	46.299999	-13.102237	-0.957879	0.000000	-0.287172
-43.703228	46.660843	-13.102237	-0.957879	0.000000	-0.287172
-43.703228	47.021687	-13.102237	-0.957879	0.000000	-0.287172
-43.703228	47.382530	-13.102237	-0.957879	0.000000	-0.287172
43.757366	45.939156	-12.920272	0.959066	0.000000	-0.283184
43.757366	45.217468	-12.920272	0.959066	0.000000	-0.283184
43.757366	44.856625	-12.920272	0.959066	0.000000	-0.283184
43.757366	46.299999	-12.920272	0.959066	0.000000	-0.283184
43.757366	47.021687	-12.920272	0.959066	0.000000	-0.283184
43.757366	45.578312	-12.920272	0.959066	0.000000	-0.283184
43.757366	47.382530	-12.920272	0.959066	0.000000	-0.283184
43.757366	47.743374	-12.920272	0.959066	0.000000	-0.283184
43.757366	46.660843	-12.920272	0.959066	0.000000	-0.283184
-43.810749	47.382530	-12.738085	-0.960236	0.000000	-0.279191
-43.810749	45.578312	-12.738085	-0.960236	0.000000	-0.279191
-43.810749	46.299999	-12.738085	-0.960236	0.000000	-0.279191
-43.810749	46.660843	-12.738085	-0.960236	0.000000	-0.279191
-43.810749	47.021687	-12.738085	-0.960236	0.000000	-0.279191
-43.810749	45.939156	-12.738085	-0.960236	0.000000	-0.279191
-43.810749	47.743374	-12.738085	-0.960236	0.000000	-0.279191
-43.810749	44.856625	-12.738085	-0.960236	0.000000	-0.279191
-43.810749	45.217468	-12.738085	-0.960236	0.000000	-0.279191
43.863373	45.217468	-12.555676	0.961389	0.000000	-0.275193
43.863373	45.578312	-12.555676	0.961389	0.000000	-0.275193
43.863373	45.939156	-12.555676	0.961389	0.000000	-0.275193
43.863373	46.299999	-12.555676	0.961389	0.000000	-0.275193
43.863373	47.021687	-12.555676	0.961389	0.000000	-0.275193
43.863373	47.743374	-12.555676	0.961389	0.000000	-0.275193
43.863373	46.660843	-12.555676	0.961389	0.000000	-0.275193
43.863373	47.382530	-12.555676	0.961389	0.000000	-0.275193
43.863373	44.856625	-12.555676	0.961389	0.000000	-0.275193
-43.915241	46.660843	-12.373050	-0.962526	0.000000	-0.271190
-43.915241	44.856625	-12.373050	-0.962526	0.000000	-0.271190
-43.915241	47.743374	-12.373050	-0.962526	0.000000	-0.271190
-43.915241	47.021687	-12.373050	-0.962526	0.000000	-0.271190
-43.915241	47.382530	-12.373050	-0.962526	0.000000	-0.271190
-43.915241	45.939156	-12.373050	-0.962526	0.000000	-0.271190
-43.915241	46.299999	-12.373050	-0.962526	0.000000	-0.271190
-43.915241	45.578312	-12.373050	-0.962526	0.000000	-0.271190
-43.915241	45.217468	-12.373050	-0.962526	0.000000	-0.271190
43.966343	44.856625	-12.190210	0.963646	0.000000	-0.267183
43.966343	47.382530	-12.190210	0.963646	0.000000	-0.267183
43.966343	47.021687	-12.190210	0.963646	0.000000	-0.267183
43.966343	46.660843	-12.190210	0.963646	0.000000	-0.267183
43.966343	45.217468	-12.190210	0.963646	0.000000	-0.267183
43.966343	47.743374	-12.190210	0.963646	0.000000	-0.267183
43.966343	46.299999	-12.190210	0.963646	0.000000	-0.267183
43.966343	45.939156	-12.190210	0.963646	0.000000	-0.267183
43.966343	45.578312	-12.190210	0.963646	0.000000	-0.267183
-44.016685	47.382530	-12.007159	-0.964749	0.000000	-0.263171
-44.016685	47.021687	-12.007159	-0.964749	0.000000	-0.263171
-44.016685	46.660843	-12.007159	-0.964749	0.000000	-0.263171
-44.016685	46.299999	-12.007159	-0.964749	0.000000	-0.263171
-44.016685	44.856625	-12.007159	-0.964749	0.000000	-0.263171
-44.016685	45.578312	-12.007159	-0.964749	0.000000	-0.263171
-44.016685	45.939156	-12.007159	-0.964749	0.000000	-0.263171
-44.016685	47.743374	-12.007159	-0.964749	0.000000	-0.263171
-44.016685	45.217468	-12.007159	-0.964749	0.000000	-0.263171
44.066269	46.660843	-11.823900	0.965836	0.000000	-0.259154
44.066269	47.021687	-11.823900	0.965836	0.000000	-0.259154
44.066269	47.382530	-11.823900	0.965836	0.000000	-0.259154
44.066269	47.743374	-11.823900	0.965836	0.000000	-0.259154
44.066269	45.939156	-11.823900	0.965836	0.000000	-0.259154
44.066269	44.856625	-11.823900	0.965836	0.000000	-0.259154
44.066269	45.217468	-11.823900	0.965836	0.000000	-0.259154
44.066269	45.578312	-11.823900	0.965836	0.000000	-0.259154
44.066269	46.299999	-11.823900	0.965836	0.000000	-0.259154
-44.115086	45.939156	-11.640436	-0.966906	0.000000	-0.255133
-44.115086	46.299999	-11.640436	-0.966906	0.000000	-0.255133
-44.115086	46.660843	-11.640436	-0.966906	0.000000	-0.255133
-44.115086	47.021687	-11.640436	-0.966906	0.000000	-0.255133
-44.115086	47.382530	-11.640436	-0.966906	0.000000	-0.255133
-44.115086	47.743374	-11.640436	-0.966906	0.000000	-0.255133
-44.115086	44.856625	-11.640436	-0.966906	0.000000	-0.255133
-44.115086	45.217468	-11.640436	-0.966906	0.000000	-0.255133
-44.115086	45.578312	-11.640436	-0.966906	0.000000	-0.255133
44.163139	47.382530	-11.456771	0.967959	0.000000	-0.251107
44.163139	46.660843	-11.456771	0.967959	0.000000	-0.251107
44.163139	46.299999	-11.456771	0.967959	0.000000	-0.251107
44.163139	45.939156	-11.456771	0.967959	0.000000	-0.251107
44.163139	45.578312	-11.456771	0.967959	0.000000	-0.251107
44.163139	47.743374	-11.456771	0.967959	0.000000	-0.251107
44.163139	45.217468	-11.456771	0.967959	0.000000	-0.251107
44.163139	44.856625	-11.456771	0.967959	0.000000	-0.251107
44.163139	47.021687	-11.456771	0.967959	0.000000	-0.251107
-44.210430	46.299999	-11.272907	-0.968996	0.000000	-0.247077
-44.210430	46.660843	-11.272907	-0.968996	0.000000	-0.247077
-44.210430	47.021687	-11.272907	-0.968996	0.000000	-0.247077
-44.210430	47.382530	-11.272907	-0.968996	0.000000	-0.247077
-44.210430	44.856625	-11.272907	-0.968996	0.000000	-0.247077
-44.210430	45.217468	-11.272907	-0.968996	0.000000	-0.247077
-44.210430	47.743374	-11.272907	-0.968996	0.000000	-0.247077
-44.210430	45.578312	-11.272907	-0.968996	0.000000	-0.247077
-44.210430	45.939156	-11.272907	-0.968996	0.000000	-0.247077
44.256954	46.299999	-11.088848	0.970015	0.000000	-0.243043
44.256954	47.743374	-11.088848	0.970015	0.000000	-0.243043
44.256954	47.382530	-11.088848	0.970015	0.000000	-0.243043
44.256954	47.021687	-11.088848	0.970015	0.000000	-0.243043
44.256954	46.660843	-11.088848	0.970015	0.000000	-0.243043
44.256954	45.939156	-11.088848	0.970015	0.000000	-0.243043
44.256954	45.217468	-11.088848	0.970015	0.000000	-0.243043
44.256954	44.856625	-11.088848	0.970015	0.000000	-0.243043
44.256954	45.578312	-11.088848	0.970015	0.000000	-0.243043
-44.302711	46.299999	-10.904597	-0.971018	0.000000	-0.239005
-44.302711	45.939156	-10.904597	-0.971018	0.000000	-0.239005
-44.302711	45.578312	-10.904597	-0.971018	0.000000	-0.239005
-44.302711	45.217468	-10.904597	-0.971018	0.000000	-0.239005
-44.302711	44.856625	-10.904597	-0.971018	0.000000	-0.239005
-44.302711	47.743374	-10.904597	-0.971018	0.000000	-0.239005
-44.302711	47.382530	-10.904597	-0.971018	0.000000	-0.239005
-44.302711	47.021687	-10.904597	-0.971018	0.000000	-0.239005
-44.302711	46.660843	-10.904597	-0.971018	0.000000	-0.239005
44.347706	47.382530	-10.720158	0.972004	0.000000	-0.234962
44.347706	47.743374	-10.720158	0.972004	0.000000	-0.234962
44.347706	45.578312	-10.720158	0.972004	0.000000	-0.234962
44.347706	44.856625	-10.720158	0.972004	0.000000	-0.234962
44.347706	45.217468	-10.720158	0.972004	0.000000	-0.234962
44.347706	45.939156	-10.720158	0.972004	0.000000	-0.234962
44.347706	46.299999	-10.720158	0.972004	0.000000	-0.234962
44.347706	47.021687	-10.720158	0.972004	0.000000	-0.234962
44.347706	46.660843	-10.720158	0.972004	0.000000	-0.234962
-44.391926	47.743374	-10.535532	-0.972974	0.000000	-0.230916
-44.391926	44.856625	-10.535532	-0.972974	0.000000	-0.230916
-44.391926	45.217468	-10.535532	-0.972974	0.000000	-0.230916
-44.391926	45.578312	-10.535532	-0.972974	0.000000	-0.230916
-44.391926	45.939156	-10.535532	-0.972974	0.000000	-0.230916
-44.391926	46.299999	-10.535532	-0.972974	0.000000	-0.230916
-44.391926	46.660843	-10.535532	-0.972974	0.000000	-0.230916
-44.391926	47.021687	-10.535532	-0.972974	0.000000	-0.230916
-44.391926	47.382530	-10.535532	-0.972974	0.000000	-0.230916
44.435383	47.021687	-10.350724	0.973926	0.000000	-0.226865
44.435383	47.743374	-10.350724	0.973926	0.000000	-0.226865
44.435383	47.382530	-10.350724	0.973926	0.000000	-0.226865
44.435383	46.660843	-10.350724	0.973926	0.000000	-0.226865
44.435383	44.856625	-10.350724	0.973926	0.000000	-0.226865
44.435383	45.217468	-10.350724	0.973926	0.000000	-0.226865
44.435383	45.578312	-10.350724	0.973926	0.000000	-0.226865
44.435383	45.939156	-10.350724	0.973926	0.000000	-0.226865
44.435383	46.299999	-10.350724	0.973926	0.000000	-0.226865
-44.478065	47.743374	-10.165738	-0.974862	0.000000	-0.222811
-44.478065	47.021687	-10.165738	-0.974862	0.000000	-0.222811
-44.478065	47.382530	-10.165738	-0.974862	0.000000	-0.222811
-44.478065	45.939156	-10.165738	-0.974862	0.000000	-0.222811
-44.478065	46.299999	-10.165738	-0.974862	0.000000	-0.222811
-44.478065	44.856625	-10.165738	-0.974862	0.000000	-0.222811
-44.478065	45.217468	-10.165738	-0.974862	0.000000	-0.222811
-44.478065	46.660843	-10.165738	-0.974862	0.000000	-0.222811
-44.478065	45.578312	-10.165738	-0.974862	0.000000	-0.222811
44.519981	46.299999	-9.980575	0.975780	0.000000	-0.218752
44.519981	45.939156	-9.980575	0.975780	0.000000	-0.218752
44.519981	45.578312	-9.980575	0.975780	0.000000	-0.218752
44.519981	45.217468	-9.980575	0.975780	0.000000	-0.218752
44.519981	44.856625	-9.980575	0.975780	0.000000	-0.218752
44.519981	47.743374	-9.980575	0.975780	0.000000	-0.218752
44.519981	47.382530	-9.980575	0.975780	0.000000	-0.218752
44.519981	47.021687	-9.980575	0.975780	0.000000	-0.218752
44.519981	46.660843	-9.980575	0.975780	0.000000	-0.218752
-44.561127	45.578312	-9.795239	-0.976682	0.000000	-0.214690
-44.561127	45.939156	-9.795239	-0.976682	0.000000	-0.214690
-44.561127	47.743374	-9.795239	-0.976682	0.000000	-0.214690
-44.561127	47.382530	-9.795239	-0.976682	0.000000	-0.214690
-44.561127	46.660843	-9.795239	-0.976682	0.000000	-0.214690
-44.561127	45.217468	-9.795239	-0.976682	0.000000	-0.214690
-44.561127	46.299999	-9.795239	-0.976682	0.000000	-0.214690
-44.561127	44.856625	-9.795239	-0.976682	0.000000	-0.214690
-44.561127	47.021687	-9.795239	-0.976682	0.000000	-0.214690
44.601498	45.578312	-9.609734	0.977567	0.000000	-0.210624
44.601498	47.743374	-9.609734	0.977567	0.000000	-0.210624
44.601498	47.021687	-9.609734	0.977567	0.000000	-0.210624
44.601498	46.299999	-9.609734	0.977567	0.000000	-0.210624
44.601498	45.939156	-9.609734	0.977567	0.000000	-0.210624
44.601498	45.217468	-9.609734	0.977567	0.000000	-0.210624
44.601498	44.856625	-9.609734	0.977567	0.000000	-0.210624
44.601498	47.382530	-9.609734	0.977567	0.000000	-0.210624
44.601498	46.660843	-9.609734	0.977567	0.000000	-0.210624
-44.641098	45.578312	-9.424062	-0.978435	0.000000	-0.206555
-44.641098	45.939156	-9.424062	-0.978435	0.000000	-0.206555
-44.641098	46.299999	-9.424062	-0.978435	0.000000	-0.206555
-44.641098	47.382530	-9.424062	-0.978435	0.000000	-0.206555
-44.641098	47.021687	-9.424062	-0.978435	0.000000	-0.206555
-44.641098	46.660843	-9.424062	-0.978435	0.000000	-0.206555
-44.641098	47.743374	-9.424062	-0.978435	0.000000	-0.206555
-44.641098	44.856625	-9.424062	-0.978435	0.000000	-0.206555
-44.641098	45.217468	-9.424062	-0.978435	0.000000	-0.206555
44.679928	45.578312	-9.238227	0.979286	0.000000	-0.202482
44.679928	45.939156	-9.238227	0.979286	0.000000	-0.202482
44.679928	46.299999	-9.238227	0.979286	0.000000	-0.202482
44.679928	47.382530	-9.238227	0.979286	0.000000	-0.202482
44.679928	44.856625	-9.238227	0.979286	0.000000	-0.202482
44.679928	47.743374	-9.238227	0.979286	0.000000	-0.202482
44.679928	47.021687	-9.238227	0.979286	0.000000	-0.202482
44.679928	45.217468	-9.238227	0.979286	0.000000	-0.202482
44.679928	46.660843	-9.238227	0.979286	0.000000	-0.202482
-44.717979	45.217468	-9.052233	-0.980120	0.000000	-0.198405
-44.717979	44.856625	-9.052233	-0.980120	0.000000	-0.198405
-44.717979	45.578312	-9.052233	-0.980120	0.000000	-0.198405
-44.717979	45.939156	-9.052233	-0.980120	0.000000	-0.198405
-44.717979	46.299999	-9.052233	-0.980120	0.000000	-0.198405
-44.717979	46.660843	-9.052233	-0.980120	0.000000	-0.198405
-44.717979	47.021687	-9.052233	-0.980120	0.000000	-0.198405
-44.717979	47.382530	-9.052233	-0.980120	0.000000	-0.198405
-44.717979	47.743374	-9.052233	-0.980120	0.000000	-0.198405
44.755260	45.939156	-8.866080	0.980937	0.000000	-0.194325
44.755260	47.382530	-8.866080	0.980937	0.000000	-0.194325
44.755260	47.021687	-8.866080	0.980937	0.000000	-0.194325
44.755260	46.660843	-8.866080	0.980937	0.000000	-0.194325
44.755260	46.299999	-8.866080	0.980937	0.000000	-0.194325
44.755260	45.578312	-8.866080	0.980937	0.000000	-0.194325
44.755260	45.217468	-8.866080	0.980937	0.000000	-0.194325
44.755260	44.856625	-8.866080	0.980937	0.000000	-0.194325
44.755260	47.743374	-8.866080	0.980937	0.000000	-0.194325
-44.791763	47.021687	-8.679775	-0.981737	0.000000	-0.190242
-44.791763	45.217468	-8.679775	-0.981737	0.000000	-0.190242
-44.791763	46.660843	-8.679775	-0.981737	0.000000	-0.190242
-44.791763	45.939156	-8.679775	-0.981737	0.000000	-0.190242
-44.791763	45.578312	-8.679775	-0.981737	0.000000	-0.190242
-44.791763	47.743374	-8.679775	-0.981737	0.000000	-0.190242
-44.791763	46.299999	-8.679775	-0.981737	0.000000	-0.190242
-44.791763	44.856625	-8.679775	-0.981737	0.000000	-0.190242
-44.791763	47.382530	-8.679775	-0.981737	0.000000	-0.190242
44.827492	46.660843	-8.493320	0.982520	0.000000	-0.186155
44.827492	46.299999	-8.493320	0.982520	0.000000	-0.186155
44.827492	45.939156	-8.493320	0.982520	0.000000	-0.186155
44.827492	45.578312	-8.493320	0.982520	0.000000	-0.186155
44.827492	47.021687	-8.493320	0.982520	0.000000	-0.186155
44.827492	44.856625	-8.493320	0.982520	0.000000	-0.186155
44.827492	45.217468	-8.493320	0.982520	0.000000	-0.186155
44.827492	47.382530	-8.493320	0.982520	0.000000	-0.186155
44.827492	47.743374	-8.493320	0.982520	0.000000	-0.186155
-44.862446	47.021687	-8.306718	-0.983286	0.000000	-0.182065
-44.862446	47.743374	-8.306718	-0.983286	0.000000	-0.182065
-44.862446	45.217468	-8.306718	-0.983286	0.000000	-0.182065
-44.862446	46.660843	-8.306718	-0.983286	0.000000	-0.182065
-44.862446	44.856625	-8.306718	-0.983286	0.000000	-0.182065
-44.862446	46.299999	-8.306718	-0.983286	0.000000	-0.182065
-44.862446	45.578312	-8.306718	-0.983286	0.000000	-0.182065
-44.862446	45.939156	-8.306718	-0.983286	0.000000	-0.182065
-44.862446	47.382530	-8.306718	-0.983286	0.000000	-0.182065
44.896622	47.743374	-8.119971	0.984036	0.000000	-0.177972
44.896622	44.856625	-8.119971	0.984036	0.000000	-0.177972
44.896622	47.382530	-8.119971	0.984036	0.000000	-0.177972
44.896622	45.217468	-8.119971	0.984036	0.000000	-0.177972
44.896622	45.578312	-8.119971	0.984036	0.000000	-0.177972
44.896622	45.939156	-8.119971	0.984036	0.000000	-0.177972
44.896622	46.299999	-8.119971	0.984036	0.000000	-0.177972
44.896622	46.660843	-8.119971	0.984036	0.000000	-0.177972
44.896622	47.021687	-8.119971	0.984036	0.000000	-0.177972
-44.930019	46.660843	-7.933085	-0.984768	0.000000	-0.173876
-44.930019	47.021687	-7.933085	-0.984768	0.000000	-0.173876
-44.930019	47.382530	-7.933085	-0.984768	0.000000	-0.173876
-44.930019	47.743374	-7.933085	-0.984768	0.000000	-0.173876
-44.930019	44.856625	-7.933085	-0.984768	0.000000	-0.173876
-44.930019	45.217468	-7.933085	-0.984768	0.000000	-0.173876
-44.930019	45.578312	-7.933085	-0.984768	0.000000	-0.173876
-44.930019	45.939156	-7.933085	-0.984768	0.000000	-0.173876
-44.930019	46.299999	-7.933085	-0.984768	0.000000	-0.173876
44.962643	45.217468	-7.746060	0.985483	0.000000	-0.169777
44.962643	44.856625	-7.746060	0.985483	0.000000	-0.169777
44.962643	45.578312	-7.746060	0.985483	0.000000	-0.169777
44.962643	45.939156	-7.746060	0.985483	0.000000	-0.169777
44.962643	46.299999	-7.746060	0.985483	0.000000	-0.169777
44.962643	46.660843	-7.746060	0.985483	0.000000	-0.169777
44.962643	47.021687	-7.746060	0.985483	0.000000	-0.169777
44.962643	47.743374	-7.746060	0.985483	0.000000	-0.169777
44.962643	47.382530	-7.746060	0.985483	0.000000	-0.169777
-44.994484	45.217468	-7.558902	-0.986180	0.000000	-0.165675
-44.994484	44.856625	-7.558902	-0.986180	0.000000	-0.165675
-44.994484	45.578312	-7.558902	-0.986180	0.000000	-0.165675
-44.994484	45.939156	-7.558902	-0.986180	0.000000	-0.165675
-44.994484	46.299999	-7.558902	-0.986180	0.000000	-0.165675
-44.994484	46.660843	-7.558902	-0.986180	0.000000	-0.165675
-44.994484	47.021687	-7.558902	-0.986180	0.000000	-0.165675
-44.994484	47.382530	-7.558902	-0.986180	0.000000	-0.165675
-44.994484	47.743374	-7.558902	-0.986180	0.000000	-0.165675
45.025547	45.578312	-7.371613	0.986861	0.000000	-0.161570
45.025547	46.299999	-7.371613	0.986861	0.000000	-0.161570
45.025547	46.660843	-7.371613	0.986861	0.000000	-0.161570
45.025547	47.382530	-7.371613	0.986861	0.000000	-0.161570
45.025547	45.939156	-7.371613	0.986861	0.000000	-0.161570
45.025547	47.743374	-7.371613	0.986861	0.000000	-0.161570
45.025547	47.021687	-7.371613	0.986861	0.000000	-0.161570
45.025547	45.217468	-7.371613	0.986861	0.000000	-0.161570
45.025547	44.856625	-7.371613	0.986861	0.000000	-0.161570
-45.055832	45.939156	-7.184196	-0.987525	0.000000	-0.157462
-45.055832	46.299999	-7.184196	-0.987525	0.000000	-0.157462
-45.055832	46.660843	-7.184196	-0.987525	0.000000	-0.157462
-45.055832	47.021687	-7.184196	-0.987525	0.000000	-0.157462
-45.055832	45.578312	-7.184196	-0.987525	0.000000	-0.157462
-45.055832	47.382530	-7.184196	-0.987525	0.000000	-0.157462
-45.055832	47.743374	-7.184196	-0.987525	0.000000	-0.157462
-45.055832	44.856625	-7.184196	-0.987525	0.000000	-0.157462
-45.055832	45.217468	-7.184196	-0.987525	0.000000	-0.157462
45.085335	46.660843	-6.996655	0.988172	0.000000	-0.153351
45.085335	45.939156	-6.996655	0.988172	0.000000	-0.153351
45.085335	45.578312	-6.996655	0.988172	0.000000	-0.153351
45.085335	45.217468	-6.996655	0.988172	0.000000	-0.153351
45.085335	44.856625	-6.996655	0.988172	0.000000	-0.153351
45.085335	46.299999	-6.996655	0.988172	0.000000	-0.153351
45.085335	47.743374	-6.996655	0.988172	0.000000	-0.153351
45.085335	47.382530	-6.996655	0.988172	0.000000	-0.153351
45.085335	47.021687	-6.996655	0.988172	0.000000	-0.153351
-45.114059	46.299999	-6.808993	-0.988801	0.000000	-0.149238
-45.114059	46.660843	-6.808993	-0.988801	0.000000	-0.149238
-45.114059	44.856625	-6.808993	-0.988801	0.000000	-0.149238
-45.114059	47.743374	-6.808993	-0.988801	0.000000	-0.149238
-45.114059	47.382530	-6.808993	-0.988801	0.000000	-0.149238
-45.114059	45.217468	-6.808993	-0.988801	0.000000	-0.149238
-45.114059	47.021687	-6.808993	-0.988801	0.000000	-0.149238
-45.114059	45.939156	-6.808993	-0.988801	0.000000	-0.149238
-45.114059	45.578312	-6.808993	-0.988801	0.000000	-0.149238
45.141998	47.382530	-6.621212	0.989414	0.000000	-0.145122
45.141998	47.021687	-6.621212	0.989414	0.000000	-0.145122
45.141998	46.660843	-6.621212	0.989414	0.000000	-0.145122
45.141998	46.299999	-6.621212	0.989414	0.000000	-0.145122
45.141998	45.939156	-6.621212	0.989414	0.000000	-0.145122
45.141998	45.578312	-6.621212	0.989414	0.000000	-0.145122
45.141998	44.856625	-6.621212	0.989414	0.000000	-0.145122
45.141998	45.217468	-6.621212	0.989414	0.000000	-0.145122
45.141998	47.743374	-6.621212	0.989414	0.000000	-0.145122
-45.169159	45.939156	-6.433318	-0.990009	0.000000	-0.141004
-45.169159	45.578312	-6.433318	-0.990009	0.000000	-0.141004
-45.169159	45.217468	-6.433318	-0.990009	0.000000	-0.141004
-45.169159	44.856625	-6.433318	-0.990009	0.000000	-0.141004
-45.169159	47.743374	-6.433318	-0.990009	0.000000	-0.141004
-45.169159	47.382530	-6.433318	-0.990009	0.000000	-0.141004
-45.169159	47.021687	-6.433318	-0.990009	0.000000	-0.141004
-45.169159	46.660843	-6.433318	-0.990009	0.000000	-0.141004
-45.169159	46.299999	-6.433318	-0.990009	0.000000	-0.141004
45.195538	47.743374	-6.245311	0.990587	0.000000	-0.136884
45.195538	45.217468	-6.245311	0.990587	0.000000	-0.136884
45.195538	45.578312	-6.245311	0.990587	0.000000	-0.136884
45.195538	45.939156	-6.245311	0.990587	0.000000	-0.136884
45.195538	47.382530	-6.245311	0.990587	0.000000	-0.136884
45.195538	46.299999	-6.245311	0.990587	0.000000	-0.136884
45.195538	46.660843	-6.245311	0.990587	0.000000	-0.136884
45.195538	47.021687	-6.245311	0.990587	0.000000	-0.136884
45.195538	44.856625	-6.245311	0.990587	0.000000	-0.136884
-45.221134	46.299999	-6.057197	-0.991148	0.000000	-0.132760
-45.221134	47.382530	-6.057197	-0.991148	0.000000	-0.132760
-45.221134	47.743374	-6.057197	-0.991148	0.000000	-0.132760
-45.221134	47.021687	-6.057197	-0.991148	0.000000	-0.132760
-45.221134	46.660843	-6.057197	-0.991148	0.000000	-0.132760
-45.221134	45.939156	-6.057197	-0.991148	0.000000	-0.132760
-45.221134	45.578312	-6.057197	-0.991148	0.000000	-0.132760
-45.221134	45.217468	-6.057197	-0.991148	0.000000	-0.132760
-45.221134	44.856625	-6.057197	-0.991148	0.000000	-0.132760
45.245949	46.660843	-5.868978	0.991692	0.000000	-0.128635
45.245949	47.021687	-5.868978	0.991692	0.000000	-0.128635
45.245949	47.743374	-5.868978	0.991692	0.000000	-0.128635
45.245949	47.382530	-5.868978	0.991692	0.000000	-0.128635
45.245949	46.299999	-5.868978	0.991692	0.000000	-0.128635
45.245949	45.939156	-5.868978	0.991692	0.000000	-0.128635
45.245949	45.578312	-5.868978	0.991692	0.000000	-0.128635
45.245949	45.217468	-5.868978	0.991692	0.000000	-0.128635
45.245949	44.856625	-5.868978	0.991692	0.000000	-0.128635
-45.269978	44.856625	-5.680656	-0.992219	0.000000	-0.124508
-45.269978	46.660843	-5.680656	-0.992219	0.000000	-0.124508
-45.269978	45.939156	-5.680656	-0.992219	0.000000	-0.124508
-45.269978	45.578312	-5.680656	-0.992219	0.000000	-0.124508
-45.269978	45.217468	-5.680656	-0.992219	0.000000	-0.124508
-45.269978	47.743374	-5.680656	-0.992219	0.000000	-0.124508
-45.269978	47.382530	-5.680656	-0.992219	0.000000	-0.124508
-45.269978	46.299999	-5.680656	-0.992219	0.000000	-0.124508
-45.269978	47.021687	-5.680656	-0.992219	0.000000	-0.124508
45.293221	47.743374	-5.492238	0.992728	0.000000	-0.120378
45.293221	47.382530	-5.492238	0.992728	0.000000	-0.120378
45.293221	47.021687	-5.492238	0.992728	0.000000	-0.120378
45.293221	46.660843	-5.492238	0.992728	0.000000	-0.120378
45.293221	46.299999	-5.492238	0.992728	0.000000	-0.120378
45.293221	45.939156	-5.492238	0.992728	0.000000	-0.120378
45.293221	45.578312	-5.492238	0.992728	0.000000	-0.120378
45.293221	45.217468	-5.492238	0.992728	0.000000	-0.120378
45.293221	44.856625	-5.492238	0.992728	0.000000	-0.120378
-45.315681	45.939156	-5.303723	-0.993220	0.000000	-0.116246
-45.315681	45.578312	-5.303723	-0.993220	0.000000	-0.116246
-45.315681	45.217468	-5.303723	-0.993220	0.000000	-0.116246
-45.315681	44.856625	-5.303723	-0.993220	0.000000	-0.116246
-45.315681	47.382530	-5.303723	-0.993220	0.000000	-0.116246
-45.315681	47.743374	-5.303723	-0.993220	0.000000	-0.116246
-45.315681	47.021687	-5.303723	-0.993220	0.000000	-0.116246
-45.315681	46.660843	-5.303723	-0.993220	0.000000	-0.116246
-45.315681	46.299999	-5.303723	-0.993220	0.000000	-0.116246
45.337360	47.743374	-5.115117	0.993696	0.000000	-0.112112
45.337360	47.382530	-5.115117	0.993696	0.000000	-0.112112
45.337360	47.021687	-5.115117	0.993696	0.000000	-0.112112
45.337360	46.660843	-5.115117	0.993696	0.000000	-0.112112
45.337360	46.299999	-5.115117	0.993696	0.000000	-0.112112
45.337360	45.939156	-5.115117	0.993696	0.000000	-0.112112
45.337360	45.578312	-5.115117	0.993696	0.000000	-0.112112
45.337360	45.217468	-5.115117	0.993696	0.000000	-0.112112
45.337360	44.856625	-5.115117	0.993696	0.000000	-0.112112
-45.358253	47.743374	-4.926422	-0.994153	0.000000	-0.107976
-45.358253	47.382530	-4.926422	-0.994153	0.000000	-0.107976
-45.358253	45.217468	-4.926422	-0.994153	0.000000	-0.107976
-45.358253	45.578312	-4.926422	-0.994153	0.000000	-0.107976
-45.358253	46.299999	-4.926422	-0.994153	0.000000	-0.107976
-45.358253	47.021687	-4.926422	-0.994153	0.000000	-0.107976
-45.358253	45.939156	-4.926422	-0.994153	0.000000	-0.107976
-45.358253	46.660843	-4.926422	-0.994153	0.000000	-0.107976
-45.358253	44.856625	-4.926422	-0.994153	0.000000	-0.107976
45.378357	47.743374	-4.737642	0.994594	0.000000	-0.103839
45.378357	47.382530	-4.737642	0.994594	0.000000	-0.103839
45.378357	47.021687	-4.737642	0.994594	0.000000	-0.103839
45.378357	46.660843	-4.737642	0.994594	0.000000	-0.103839
45.378357	46.299999	-4.737642	0.994594	0.000000	-0.103839
45.378357	45.939156	-4.737642	0.994594	0.000000	-0.103839
45.378357	45.578312	-4.737642	0.994594	0.000000	-0.103839
45.378357	45.217468	-4.737642	0.994594	0.000000	-0.103839
45.378357	44.856625	-4.737642	0.994594	0.000000	-0.103839
-45.397678	46.299999	-4.548780	-0.995018	0.000000	-0.099699
-45.397678	45.939156	-4.548780	-0.995018	0.000000	-0.099699
-45.397678	45.578312	-4.548780	-0.995018	0.000000	-0.099699
-45.397678	44.856625	-4.548780	-0.995018	0.000000	-0.099699
-45.397678	45.217468	-4.548780	-0.995018	0.000000	-0.099699
-45.397678	47.743374	-4.548780	-0.995018	0.000000	-0.099699
-45.397678	47.382530	-4.548780	-0.995018	0.000000	-0.099699
-45.397678	47.021687	-4.548780	-0.995018	0.000000	-0.099699
-45.397678	46.660843	-4.548780	-0.995018	0.000000	-0.099699
45.416214	46.299999	-4.359839	0.995424	0.000000	-0.095558
45.416214	47.382530	-4.359839	0.995424	0.000000	-0.095558
45.416214	47.743374	-4.359839	0.995424	0.000000	-0.095558
45.416214	46.660843	-4.359839	0.995424	0.000000	-0.095558
45.416214	47.021687	-4.359839	0.995424	0.000000	-0.095558
45.416214	44.856625	-4.359839	0.995424	0.000000	-0.095558
45.416214	45.217468	-4.359839	0.995424	0.000000	-0.095558
45.416214	45.578312	-4.359839	0.995424	0.000000	-0.095558
45.416214	45.939156	-4.359839	0.995424	0.000000	-0.095558
-45.433960	46.660843	-4.170823	-0.995813	0.000000	-0.091415
-45.433960	44.856625	-4.170823	-0.995813	0.000000	-0.091415
-45.433960	45.217468	-4.170823	-0.995813	0.000000	-0.091415
-45.433960	45.578312	-4.170823	-0.995813	0.000000	-0.091415
-45.433960	45.939156	-4.170823	-0.995813	0.000000	-0.091415
-45.433960	46.299999	-4.170823	-0.995813	0.000000	-0.091415
-45.433960	47.743374	-4.170823	-0.995813	0.000000	-0.091415
-45.433960	47.021687	-4.170823	-0.995813	0.000000	-0.091415
-45.433960	47.382530	-4.170823	-0.995813	0.000000	-0.091415
45.450924	45.578312	-3.981734	0.996185	0.000000	-0.087271
45.450924	45.217468	-3.981734	0.996185	0.000000	-0.087271
45.450924	44.856625	-3.981734	0.996185	0.000000	-0.087271
45.450924	47.743374	-3.981734	0.996185	0.000000	-0.087271
45.450924	46.299999	-3.981734	0.996185	0.000000	-0.087271
45.450924	47.382530	-3.981734	0.996185	0.000000	-0.087271
45.450924	47.021687	-3.981734	0.996185	0.000000	-0.087271
45.450924	46.660843	-3.981734	0.996185	0.000000	-0.087271
45.450924	45.939156	-3.981734	0.996185	0.000000	-0.087271
-45.467098	45.578312	-3.792577	-0.996539	0.000000	-0.083125
-45.467098	46.660843	-3.792577	-0.996539	0.000000	-0.083125
-45.467098	47.021687	-3.792577	-0.996539	0.000000	-0.083125
-45.467098	47.743374	-3.792577	-0.996539	0.000000	-0.083125
-45.467098	44.856625	-3.792577	-0.996539	0.000000	-0.083125
-45.467098	45.217468	-3.792577	-0.996539	0.000000	-0.083125
-45.467098	47.382530	-3.792577	-0.996539	0.000000	-0.083125
-45.467098	45.939156	-3.792577	-0.996539	0.000000	-0.083125
-45.467098	46.299999	-3.792577	-0.996539	0.000000	-0.083125
45.482487	45.939156	-3.603354	0.996876	0.000000	-0.078978
45.482487	47.382530	-3.603354	0.996876	0.000000	-0.078978
45.482487	47.021687	-3.603354	0.996876	0.000000	-0.078978
45.482487	46.660843	-3.603354	0.996876	0.000000	-0.078978
45.482487	47.743374	-3.603354	0.996876	0.000000	-0.078978
45.482487	46.299999	-3.603354	0.996876	0.000000	-0.078978
45.482487	45.578312	-3.603354	0.996876	0.000000	-0.078978
45.482487	45.217468	-3.603354	0.996876	0.000000	-0.078978
45.482487	44.856625	-3.603354	0.996876	0.000000	-0.078978
-45.497086	47.743374	-3.414068	-0.997196	0.000000	-0.074829
-45.497086	46.299999	-3.414068	-0.997196	0.000000	-0.074829
-45.497086	46.660843	-3.414068	-0.997196	0.000000	-0.074829
-45.497086	47.021687	-3.414068	-0.997196	0.000000	-0.074829
-45.497086	47.382530	-3.414068	-0.997196	0.000000	-0.074829
-45.497086	44.856625	-3.414068	-0.997196	0.000000	-0.074829
-45.497086	45.217468	-3.414068	-0.997196	0.000000	-0.074829
-45.497086	45.578312	-3.414068	-0.997196	0.000000	-0.074829
-45.497086	45.939156	-3.414068	-0.997196	0.000000	-0.074829
45.510899	47.743374	-3.224723	0.997499	0.000000	-0.070679
45.510899	47.382530	-3.224723	0.997499	0.000000	-0.070679
45.510899	47.021687	-3.224723	0.997499	0.000000	-0.070679
45.510899	46.660843	-3.224723	0.997499	0.000000	-0.070679
45.510899	46.299999	-3.224723	0.997499	0.000000	-0.070679
45.510899	45.939156	-3.224723	0.997499	0.000000	-0.070679
45.510899	45.578312	-3.224723	0.997499	0.000000	-0.070679
45.510899	45.217468	-3.224723	0.997499	0.000000	-0.070679
45.510899	44.856625	-3.224723	0.997499	0.000000	-0.070679
-45.523922	47.382530	-3.035323	-0.997785	0.000000	-0.066528
-45.523922	47.743374	-3.035323	-0.997785	0.000000	-0.066528
-45.523922	46.660843	-3.035323	-0.997785	0.000000	-0.066528
-45.523922	47.021687	-3.035323	-0.997785	0.000000	-0.066528
-45.523922	45.578312	-3.035323	-0.997785	0.000000	-0.066528
-45.523922	45.217468	-3.035323	-0.997785	0.000000	-0.066528
-45.523922	44.856625	-3.035323	-0.997785	0.000000	-0.066528
-45.523922	46.299999	-3.035323	-0.997785	0.000000	-0.066528
-45.523922	45.939156	-3.035323	-0.997785	0.000000	-0.066528
45.536156	47.743374	-2.845870	0.998053	0.000000	-0.062375
45.536156	47.382530	-2.845870	0.998053	0.000000	-0.062375
45.536156	47.021687	-2.845870	0.998053	0.000000	-0.062375
45.536156	46.660843	-2.845870	0.998053	0.000000	-0.062375
45.536156	46.299999	-2.845870	0.998053	0.000000	-0.062375
45.536156	45.939156	-2.845870	0.998053	0.000000	-0.062375
45.536156	45.578312	-2.845870	0.998053	0.000000	-0.062375
45.536156	45.217468	-2.845870	0.998053	0.000000	-0.062375
45.536156	44.856625	-2.845870	0.998053	0.000000	-0.062375
-45.547604	44.856625	-2.656368	-0.998304	0.000000	-0.058222
-45.547604	47.743374	-2.656368	-0.998304	0.000000	-0.058222
-45.547604	47.382530	-2.656368	-0.998304	0.000000	-0.058222
-45.547604	47.021687	-2.656368	-0.998304	0.000000	-0.058222
-45.547604	46.660843	-2.656368	-0.998304	0.000000	-0.058222
-45.547604	46.299999	-2.656368	-0.998304	0.000000	-0.058222
-45.547604	45.939156	-2.656368	-0.998304	0.000000	-0.058222
-45.547604	45.578312	-2.656368	-0.998304	0.000000	-0.058222
-45.547604	45.217468	-2.656368	-0.998304	0.000000	-0.058222
45.558266	45.578312	-2.466819	0.998537	0.000000	-0.054067
45.558266	47.021687	-2.466819	0.998537	0.000000	-0.054067
45.558266	46.660843	-2.466819	0.998537	0.000000	-0.054067
45.558266	46.299999	-2.466819	0.998537	0.000000	-0.054067
45.558266	45.939156	-2.466819	0.998537	0.000000	-0.054067
45.558266	45.217468	-2.466819	0.998537	0.000000	-0.054067
45.558266	47.382530	-2.466819	0.998537	0.000000	-0.054067
45.558266	44.856625	-2.466819	0.998537	0.000000	-0.054067
45.558266	47.743374	-2.466819	0.998537	0.000000	-0.054067
-45.568134	47.021687	-2.277228	-0.998754	0.000000	-0.049912
-45.568134	46.299999	-2.277228	-0.998754	0.000000	-0.049912
-45.568134	44.856625	-2.277228	-0.998754	0.000000	-0.049912
-45.568134	45.217468	-2.277228	-0.998754	0.000000	-0.049912
-45.568134	45.578312	-2.277228	-0.998754	0.000000	-0.049912
-45.568134	45.939156	-2.277228	-0.998754	0.000000	-0.049912
-45.568134	46.660843	-2.277228	-0.998754	0.000000	-0.049912
-45.568134	47.743374	-2.277228	-0.998754	0.000000	-0.049912
-45.568134	47.382530	-2.277228	-0.998754	0.000000	-0.049912
45.577217	47.743374	-2.087598	0.998953	0.000000	-0.045756
45.577217	45.578312	-2.087598	0.998953	0.000000	-0.045756
45.577217	45.939156	-2.087598	0.998953	0.000000	-0.045756
45.577217	46.299999	-2.087598	0.998953	0.000000	-0.045756
45.577217	47.021687	-2.087598	0.998953	0.000000	-0.045756
45.577217	46.660843	-2.087598	0.998953	0.000000	-0.045756
45.577217	47.382530	-2.087598	0.998953	0.000000	-0.045756
45.577217	44.856625	-2.087598	0.998953	0.000000	-0.045756
45.577217	45.217468	-2.087598	0.998953	0.000000	-0.045756
-45.585506	47.382530	-1.897931	-0.999134	0.000000	-0.041598
-45.585506	44.856625	-1.897931	-0.999134	0.000000	-0.041598
-45.585506	45.217468	-1.897931	-0.999134	0.000000	-0.041598
-45.585506	45.578312	-1.897931	-0.999134	0.000000	-0.041598
-45.585506	45.939156	-1.897931	-0.999134	0.000000	-0.041598
-45.585506	46.299999	-1.897931	-0.999134	0.000000	-0.041598
-45.585506	46.660843	-1.897931	-0.999134	0.000000	-0.041598
-45.585506	47.021687	-1.897931	-0.999134	0.000000	-0.041598
-45.585506	47.743374	-1.897931	-0.999134	0.000000	-0.041598
45.593010	45.578312	-1.708232	0.999299	0.000000	-0.037441
45.593010	44.856625	-1.708232	0.999299	0.000000	-0.037441
45.593010	45.217468	-1.708232	0.999299	0.000000	-0.037441
45.593010	45.939156	-1.708232	0.999299	0.000000	-0.037441
45.593010	46.299999	-1.708232	0.999299	0.000000	-0.037441
45.593010	47.382530	-1.708232	0.999299	0.000000	-0.037441
45.593010	47.743374	-1.708232	0.999299	0.000000	-0.037441
45.593010	47.021687	-1.708232	0.999299	0.000000	-0.037441
45.593010	46.660843	-1.708232	0.999299	0.000000	-0.037441
-45.599724	45.578312	-1.518503	-0.999446	0.000000	-0.033282
-45.599724	45.939156	-1.518503	-0.999446	0.000000	-0.033282
-45.599724	47.743374	-1.518503	-0.999446	0.000000	-0.033282
-45.599724	46.660843	-1.518503	-0.999446	0.000000	-0.033282
-45.599724	47.021687	-1.518503	-0.999446	0.000000	-0.033282
-45.599724	46.299999	-1.518503	-0.999446	0.000000	-0.033282
-45.599724	47.382530	-1.518503	-0.999446	0.000000	-0.033282
-45.599724	44.856625	-1.518503	-0.999446	0.000000	-0.033282
-45.599724	45.217468	-1.518503	-0.999446	0.000000	-0.033282
45.605648	47.743374	-1.328747	0.999576	0.000000	-0.029123
45.605648	47.382530	-1.328747	0.999576	0.000000	-0.029123
45.605648	47.021687	-1.328747	0.999576	0.000000	-0.029123
45.605648	46.660843	-1.328747	0.999576	0.000000	-0.029123
45.605648	46.299999	-1.328747	0.999576	0.000000	-0.029123
45.605648	45.939156	-1.328747	0.999576	0.000000	-0.029123
45.605648	45.578312	-1.328747	0.999576	0.000000	-0.029123
45.605648	45.217468	-1.328747	0.999576	0.000000	-0.029123
45.605648	44.856625	-1.328747	0.999576	0.000000	-0.029123
-45.610783	45.217468	-1.138969	-0.999688	0.000000	-0.024964
-45.610783	45.578312	-1.138969	-0.999688	0.000000	-0.024964
-45.610783	45.939156	-1.138969	-0.999688	0.000000	-0.024964
-45.610783	46.299999	-1.138969	-0.999688	0.000000	-0.024964
-45.610783	46.660843	-1.138969	-0.999688	0.000000	-0.024964
-45.610783	47.021687	-1.138969	-0.999688	0.000000	-0.024964
-45.610783	47.382530	-1.138969	-0.999688	0.000000	-0.024964
-45.610783	47.743374	-1.138969	-0.999688	0.000000	-0.024964
-45.610783	44.856625	-1.138969	-0.999688	0.000000	-0.024964
45.615128	47.382530	-0.949171	0.999784	0.000000	-0.020804
45.615128	44.856625	-0.949171	0.999784	0.000000	-0.020804
45.615128	47.021687	-0.949171	0.999784	0.000000	-0.020804
45.615128	47.743374	-0.949171	0.999784	0.000000	-0.020804
45.615128	46.660843	-0.949171	0.999784	0.000000	-0.020804
45.615128	46.299999	-0.949171	0.999784	0.000000	-0.020804
45.615128	45.939156	-0.949171	0.999784	0.000000	-0.020804
45.615128	45.578312	-0.949171	0.999784	0.000000	-0.020804
45.615128	45.217468	-0.949171	0.999784	0.000000	-0.020804
-45.618679	47.021687	-0.759357	-0.999861	0.000000	-0.016643
-45.618679	45.939156	-0.759357	-0.999861	0.000000	-0.016643
-45.618679	45.578312	-0.759357	-0.999861	0.000000	-0.016643
-45.618679	46.660843	-0.759357	-0.999861	0.000000	-0.016643
-45.618679	45.217468	-0.759357	-0.999861	0.000000	-0.016643
-45.618679	44.856625	-0.759357	-0.999861	0.000000	-0.016643
-45.618679	46.299999	-0.759357	-0.999861	0.000000	-0.016643
-45.618679	47.382530	-0.759357	-0.999861	0.000000	-0.016643
-45.618679	47.743374	-0.759357	-0.999861	0.000000	-0.016643
45.621445	47.382530	-0.569529	0.999922	0.000000	-0.012483
45.621445	47.021687	-0.569529	0.999922	0.000000	-0.012483
45.621445	46.660843	-0.569529	0.999922	0.000000	-0.012483
45.621445	46.299999	-0.569529	0.999922	0.000000	-0.012483
45.621445	45.939156	-0.569529	0.999922	0.000000	-0.012483
45.621445	45.578312	-0.569529	0.999922	0.000000	-0.012483
45.621445	45.217468	-0.569529	0.999922	0.000000	-0.012483
45.621445	44.856625	-0.569529	0.999922	0.000000	-0.012483
45.621445	47.743374	-0.569529	0.999922	0.000000	-0.012483
-45.623421	47.743374	-0.379691	-0.999965	0.000000	-0.008322
-45.623421	45.939156	-0.379691	-0.999965	0.000000	-0.008322
-45.623421	44.856625	-0.379691	-0.999965	0.000000	-0.008322
-45.623421	45.217468	-0.379691	-0.999965	0.000000	-0.008322
-45.623421	45.578312	-0.379691	-0.999965	0.000000	-0.008322
-45.623421	46.299999	-0.379691	-0.999965	0.000000	-0.008322
-45.623421	46.660843	-0.379691	-0.999965	0.000000	-0.008322
-45.623421	47.021687	-0.379691	-0.999965	0.000000	-0.008322
-45.623421	47.382530	-0.379691	-0.999965	0.000000	-0.008322
45.624603	47.743374	-0.189847	0.999991	0.000000	-0.004161
45.624603	47.382530	-0.189847	0.999991	0.000000	-0.004161
45.624603	47.021687	-0.189847	0.999991	0.000000	-0.004161
45.624603	46.299999	-0.189847	0.999991	0.000000	-0.004161
45.624603	45.939156	-0.189847	0.999991	0.000000	-0.004161
45.624603	45.217468	-0.189847	0.999991	0.000000	-0.004161
45.624603	44.856625	-0.189847	0.999991	0.000000	-0.004161
45.624603	45.578312	-0.189847	0.999991	0.000000	-0.004161
45.624603	46.660843	-0.189847	0.999991	0.000000	-0.004161
-45.625000	46.660843	0.000000	-1.000000	0.000000	0.000000
-45.625000	47.021687	0.000000	-1.000000	0.000000	0.000000
-45.625000	47.382530	0.000000	-1.000000	0.000000	0.000000
-45.625000	46.299999	0.000000	-1.000000	0.000000	0.000000
-45.625000	47.743374	0.000000	-1.000000	0.000000	0.000000
-45.625000	45.217468	0.000000	-1.000000	0.000000	0.000000
-45.625000	44.856625	0.000000	-1.000000	0.000000	0.000000
-45.625000	45.578312	0.000000	-1.000000	0.000000	0.000000
-45.625000	45.939156	0.000000	-1.000000	0.000000	0.000000
45.624603	45.217468	0.189847	0.999991	0.000000	0.004161
45.624603	45.578312	0.189847	0.999991	0.000000	0.004161
45.624603	45.939156	0.189847	0.999991	0.000000	0.004161
45.624603	46.299999	0.189847	0.999991	0.000000	0.004161
45.624603	46.660843	0.189847	0.999991	0.000000	0.004161
45.624603	47.021687	0.189847	0.999991	0.000000	0.004161
45.624603	47.382530	0.189847	0.999991	0.000000	0.004161
45.624603	47.743374	0.189847	0.999991	0.000000	0.004161
45.624603	44.856625	0.189847	0.999991	0.000000	0.004161
-45.623421	47.382530	0.379691	-0.999965	0.000000	0.008322
-45.623421	47.021687	0.379691	-0.999965	0.000000	0.008322
-45.623421	46.660843	0.379691	-0.999965	0.000000	0.008322
-45.623421	46.299999	0.379691	-0.999965	0.000000	0.008322
-45.623421	45.939156	0.379691	-0.999965	0.000000	0.008322
-45.623421	45.578312	0.379691	-0.999965	0.000000	0.008322
-45.623421	45.217468	0.379691	-0.999965	0.000000	0.008322
-45.623421	44.856625	0.379691	-0.999965	0.000000	0.008322
-45.623421	47.743374	0.379691	-0.999965	0.000000	0.008322
45.621445	47.743374	0.569529	0.999922	0.000000	0.012483
45.621445	46.299999	0.569529	0.999922	0.000000	0.012483
45.621445	45.939156	0.569529	0.999922	0.000000	0.012483
45.621445	45.578312	0.569529	0.999922	0.000000	0.012483
45.621445	45.217468	0.569529	0.999922	0.000000	0.012483
45.621445	44.856625	0.569529	0.999922	0.000000	0.012483
45.621445	47.382530	0.569529	0.999922	0.000000	0.012483
45.621445	47.021687	0.569529	0.999922	0.000000	0.012483
