-43.092659	49.547596	-22.794409	-0.883952	0.000000	-0.467578
-43.092659	52.649197	-22.794409	-0.883952	0.000000	-0.467578
-43.092659	53.812298	-22.794409	-0.883952	0.000000	-0.467578
-43.092659	54.200001	-22.794409	-0.883952	0.000000	-0.467578
-43.092659	53.036900	-22.794409	-0.883952	0.000000	-0.467578
-43.092659	53.424599	-22.794409	-0.883952	0.000000	-0.467578
-26.502274	54.200001	-22.742912	-0.000000	1.000000	0.000000
26.502274	54.200001	-22.742912	-0.000000	1.000000	0.000000
43.187889	53.424599	-22.613462	0.885905	0.000000	-0.463866
43.187889	53.812298	-22.613462	0.885905	0.000000	-0.463866
43.187889	53.036900	-22.613462	0.885905	0.000000	-0.463866
43.187889	52.649197	-22.613462	0.885905	0.000000	-0.463866
43.187889	52.261497	-22.613462	0.885905	0.000000	-0.463866
43.187889	51.873798	-22.613462	0.885905	0.000000	-0.463866
43.187889	51.486095	-22.613462	0.885905	0.000000	-0.463866
43.187889	51.098396	-22.613462	0.885905	0.000000	-0.463866
43.187889	54.200001	-22.613462	0.885905	0.000000	-0.463866
43.187889	50.710697	-22.613462	0.885905	0.000000	-0.463866
43.187889	50.322994	-22.613462	0.885905	0.000000	-0.463866
43.187889	49.935295	-22.613462	0.885905	0.000000	-0.463866
43.187889	49.547596	-22.613462	0.885905	0.000000	-0.463866
43.219090	54.200001	-22.553261	0.886550	0.000000	-0.462633
-43.219090	54.200001	-22.552948	-0.886552	0.000000	-0.462628
-26.754103	54.200001	-22.449358	-0.000000	1.000000	0.000000
26.754103	54.200001	-22.449358	-0.000000	1.000000	0.000000
-43.282360	54.200001	-22.432117	-0.887843	0.000000	-0.460146
-43.282360	53.812298	-22.432117	-0.887843	0.000000	-0.460146
-43.282360	53.036900	-22.432117	-0.887843	0.000000	-0.460146
-43.282360	49.935295	-22.432117	-0.887843	0.000000	-0.460146
-43.282360	49.547596	-22.432117	-0.887843	0.000000	-0.460146
-43.282360	51.486095	-22.432117	-0.887843	0.000000	-0.460146
-43.282360	51.098396	-22.432117	-0.887843	0.000000	-0.460146
-43.282360	50.710697	-22.432117	-0.887843	0.000000	-0.460146
-43.282360	51.873798	-22.432117	-0.887843	0.000000	-0.460146
-43.282360	50.322994	-22.432117	-0.887843	0.000000	-0.460146
-43.282360	52.649197	-22.432117	-0.887843	0.000000	-0.460146
-43.282360	53.424599	-22.432117	-0.887843	0.000000	-0.460146
-43.282360	52.261497	-22.432117	-0.887843	0.000000	-0.460146
43.285564	54.200001	-22.424999	0.887917	0.000000	-0.460004
26.774092	54.200001	-22.424999	-0.000000	1.000000	0.000000
30.987272	54.200001	-22.424999	-0.000000	1.000000	0.000000
31.395000	54.200001	-22.424999	-0.000000	1.000000	0.000000
31.802727	54.200001	-22.424999	-0.000000	1.000000	0.000000
32.210453	54.200001	-22.424999	-0.000000	1.000000	0.000000
32.618183	54.200001	-22.424999	-0.000000	1.000000	0.000000
33.025909	54.200001	-22.424999	-0.000000	1.000000	0.000000
-32.210453	54.200001	-22.424999	-0.000000	1.000000	0.000000
-29.356363	54.200001	-22.424999	-0.000000	1.000000	0.000000
26.910000	54.200001	-22.424999	-0.000000	1.000000	0.000000
-26.910000	54.200001	-22.424999	-0.000000	1.000000	0.000000
-27.317728	54.200001	-22.424999	-0.000000	1.000000	0.000000
-43.219090	54.200001	-22.424999	-0.000000	1.000000	0.000000
-42.811363	54.200001	-22.424999	-0.000000	1.000000	0.000000
-42.403637	54.200001	-22.424999	-0.000000	1.000000	0.000000
-41.995911	54.200001	-22.424999	-0.000000	1.000000	0.000000
-41.588181	54.200001	-22.424999	-0.000000	1.000000	0.000000
-41.180454	54.200001	-22.424999	-0.000000	1.000000	0.000000
-40.772728	54.200001	-22.424999	-0.000000	1.000000	0.000000
-43.286011	54.200001	-22.424999	-0.887919	0.000000	-0.460000
-40.365002	54.200001	-22.424999	-0.000000	1.000000	0.000000
-39.957272	54.200001	-22.424999	-0.000000	1.000000	0.000000
-39.549545	54.200001	-22.424999	-0.000000	1.000000	0.000000
-39.141819	54.200001	-22.424999	-0.000000	1.000000	0.000000
-38.734093	54.200001	-22.424999	-0.000000	1.000000	0.000000
-38.326363	54.200001	-22.424999	-0.000000	1.000000	0.000000
-37.918636	54.200001	-22.424999	-0.000000	1.000000	0.000000
-37.510910	54.200001	-22.424999	-0.000000	1.000000	0.000000
-37.103180	54.200001	-22.424999	-0.000000	1.000000	0.000000
-36.695454	54.200001	-22.424999	-0.000000	1.000000	0.000000
-36.287727	54.200001	-22.424999	-0.000000	1.000000	0.000000
-35.880001	54.200001	-22.424999	-0.000000	1.000000	0.000000
-35.472271	54.200001	-22.424999	-0.000000	1.000000	0.000000
-35.064545	54.200001	-22.424999	-0.000000	1.000000	0.000000
-34.656818	54.200001	-22.424999	-0.000000	1.000000	0.000000
-34.249092	54.200001	-22.424999	-0.000000	1.000000	0.000000
-33.841362	54.200001	-22.424999	-0.000000	1.000000	0.000000
-33.433636	54.200001	-22.424999	-0.000000	1.000000	0.000000
-33.025909	54.200001	-22.424999	-0.000000	1.000000	0.000000
-32.618183	54.200001	-22.424999	-0.000000	1.000000	0.000000
-31.802727	54.200001	-22.424999	-0.000000	1.000000	0.000000
38.326363	54.200001	-22.424999	-0.000000	1.000000	0.000000
37.918636	54.200001	-22.424999	-0.000000	1.000000	0.000000
-31.395000	54.200001	-22.424999	-0.000000	1.000000	0.000000
-30.987272	54.200001	-22.424999	-0.000000	1.000000	0.000000
37.510910	54.200001	-22.424999	-0.000000	1.000000	0.000000
37.103180	54.200001	-22.424999	-0.000000	1.000000	0.000000
-30.579546	54.200001	-22.424999	-0.000000	1.000000	0.000000
42.811363	54.200001	-22.424999	-0.000000	1.000000	0.000000
42.403637	54.200001	-22.424999	-0.000000	1.000000	0.000000
41.995911	54.200001	-22.424999	-0.000000	1.000000	0.000000
41.588181	54.200001	-22.424999	-0.000000	1.000000	0.000000
41.180454	54.200001	-22.424999	-0.000000	1.000000	0.000000
40.772728	54.200001	-22.424999	-0.000000	1.000000	0.000000
40.365002	54.200001	-22.424999	-0.000000	1.000000	0.000000
39.957272	54.200001	-22.424999	-0.000000	1.000000	0.000000
39.549545	54.200001	-22.424999	-0.000000	1.000000	0.000000
39.141819	54.200001	-22.424999	-0.000000	1.000000	0.000000
38.734093	54.200001	-22.424999	-0.000000	1.000000	0.000000
33.433636	54.200001	-22.424999	-0.000000	1.000000	0.000000
43.219090	54.200001	-22.424999	-0.000000	1.000000	0.000000
36.695454	54.200001	-22.424999	-0.000000	1.000000	0.000000
36.287727	54.200001	-22.424999	-0.000000	1.000000	0.000000
35.880001	54.200001	-22.424999	-0.000000	1.000000	0.000000
35.472271	54.200001	-22.424999	-0.000000	1.000000	0.000000
-26.774092	54.200001	-22.424999	-0.000000	1.000000	0.000000
35.064545	54.200001	-22.424999	-0.000000	1.000000	0.000000
34.656818	54.200001	-22.424999	-0.000000	1.000000	0.000000
34.249092	54.200001	-22.424999	-0.000000	1.000000	0.000000
33.841362	54.200001	-22.424999	-0.000000	1.000000	0.000000
-30.171818	54.200001	-22.424999	-0.000000	1.000000	0.000000
-29.764091	54.200001	-22.424999	-0.000000	1.000000	0.000000
-28.948637	54.200001	-22.424999	-0.000000	1.000000	0.000000
-28.540909	54.200001	-22.424999	-0.000000	1.000000	0.000000
-28.133183	54.200001	-22.424999	-0.000000	1.000000	0.000000
-27.725454	54.200001	-22.424999	-0.000000	1.000000	0.000000
27.317728	54.200001	-22.424999	-0.000000	1.000000	0.000000
27.725454	54.200001	-22.424999	-0.000000	1.000000	0.000000
28.133183	54.200001	-22.424999	-0.000000	1.000000	0.000000
28.540909	54.200001	-22.424999	-0.000000	1.000000	0.000000
28.948637	54.200001	-22.424999	-0.000000	1.000000	0.000000
29.356363	54.200001	-22.424999	-0.000000	1.000000	0.000000
29.764091	54.200001	-22.424999	-0.000000	1.000000	0.000000
30.171818	54.200001	-22.424999	-0.000000	1.000000	0.000000
30.579546	54.200001	-22.424999	-0.000000	1.000000	0.000000
-26.910000	54.200001	-22.259396	-0.000000	1.000000	0.000000
26.910000	54.200001	-22.259396	-0.000000	1.000000	0.000000
43.376068	51.486095	-22.250378	0.889766	0.000000	-0.456418
43.376068	53.036900	-22.250378	0.889766	0.000000	-0.456418
43.376068	49.547596	-22.250378	0.889766	0.000000	-0.456418
43.376068	52.649197	-22.250378	0.889766	0.000000	-0.456418
43.376068	52.261497	-22.250378	0.889766	0.000000	-0.456418
43.376068	51.873798	-22.250378	0.889766	0.000000	-0.456418
43.376068	51.098396	-22.250378	0.889766	0.000000	-0.456418
43.376068	50.710697	-22.250378	0.889766	0.000000	-0.456418
43.376068	50.322994	-22.250378	0.889766	0.000000	-0.456418
43.376068	53.424599	-22.250378	0.889766	0.000000	-0.456418
43.376068	49.935295	-22.250378	0.889766	0.000000	-0.456418
43.376068	54.200001	-22.250378	0.889766	0.000000	-0.456418
43.376068	53.812298	-22.250378	0.889766	0.000000	-0.456418
-43.469013	53.812298	-22.068247	-0.891672	0.000000	-0.452682
-43.469013	53.424599	-22.068247	-0.891672	0.000000	-0.452682
-43.469013	53.036900	-22.068247	-0.891672	0.000000	-0.452682
-43.469013	52.649197	-22.068247	-0.891672	0.000000	-0.452682
-43.469013	51.873798	-22.068247	-0.891672	0.000000	-0.452682
-43.469013	51.486095	-22.068247	-0.891672	0.000000	-0.452682
-43.469013	51.098396	-22.068247	-0.891672	0.000000	-0.452682
-43.469013	50.710697	-22.068247	-0.891672	0.000000	-0.452682
-43.469013	50.322994	-22.068247	-0.891672	0.000000	-0.452682
-43.469013	49.935295	-22.068247	-0.891672	0.000000	-0.452682
-43.469013	49.547596	-22.068247	-0.891672	0.000000	-0.452682
-43.469013	52.261497	-22.068247	-0.891672	0.000000	-0.452682
-43.469013	54.200001	-22.068247	-0.891672	0.000000	-0.452682
43.494408	54.200001	-22.017273	0.892200	0.000000	-0.451640
42.811363	54.200001	-22.017273	-0.000000	1.000000	0.000000
42.403637	54.200001	-22.017273	-0.000000	1.000000	0.000000
41.995911	54.200001	-22.017273	-0.000000	1.000000	0.000000
41.588181	54.200001	-22.017273	-0.000000	1.000000	0.000000
41.180454	54.200001	-22.017273	-0.000000	1.000000	0.000000
40.772728	54.200001	-22.017273	-0.000000	1.000000	0.000000
40.365002	54.200001	-22.017273	-0.000000	1.000000	0.000000
39.957272	54.200001	-22.017273	-0.000000	1.000000	0.000000
39.549545	54.200001	-22.017273	-0.000000	1.000000	0.000000
39.141819	54.200001	-22.017273	-0.000000	1.000000	0.000000
38.734093	54.200001	-22.017273	-0.000000	1.000000	0.000000
38.326363	54.200001	-22.017273	-0.000000	1.000000	0.000000
37.918636	54.200001	-22.017273	-0.000000	1.000000	0.000000
37.510910	54.200001	-22.017273	-0.000000	1.000000	0.000000
27.317728	54.200001	-22.017273	-0.000000	1.000000	0.000000
37.103180	54.200001	-22.017273	-0.000000	1.000000	0.000000
36.695454	54.200001	-22.017273	-0.000000	1.000000	0.000000
36.287727	54.200001	-22.017273	-0.000000	1.000000	0.000000
35.880001	54.200001	-22.017273	-0.000000	1.000000	0.000000
35.472271	54.200001	-22.017273	-0.000000	1.000000	0.000000
35.064545	54.200001	-22.017273	-0.000000	1.000000	0.000000
34.656818	54.200001	-22.017273	-0.000000	1.000000	0.000000
34.249092	54.200001	-22.017273	-0.000000	1.000000	0.000000
33.841362	54.200001	-22.017273	-0.000000	1.000000	0.000000
33.433636	54.200001	-22.017273	-0.000000	1.000000	0.000000
33.025909	54.200001	-22.017273	-0.000000	1.000000	0.000000
32.618183	54.200001	-22.017273	-0.000000	1.000000	0.000000
32.210453	54.200001	-22.017273	-0.000000	1.000000	0.000000
31.802727	54.200001	-22.017273	-0.000000	1.000000	0.000000
31.395000	54.200001	-22.017273	-0.000000	1.000000	0.000000
30.579546	54.200001	-22.017273	-0.000000	1.000000	0.000000
-27.317728	54.200001	-22.017273	-0.000000	1.000000	0.000000
30.171818	54.200001	-22.017273	-0.000000	1.000000	0.000000
-27.725454	54.200001	-22.017273	-0.000000	1.000000	0.000000
29.764091	54.200001	-22.017273	-0.000000	1.000000	0.000000
-40.772728	54.200001	-22.017273	-0.000000	1.000000	0.000000
29.356363	54.200001	-22.017273	-0.000000	1.000000	0.000000
28.948637	54.200001	-22.017273	-0.000000	1.000000	0.000000
-41.180454	54.200001	-22.017273	-0.000000	1.000000	0.000000
-41.588181	54.200001	-22.017273	-0.000000	1.000000	0.000000
-41.995911	54.200001	-22.017273	-0.000000	1.000000	0.000000
27.108706	54.200001	-22.017273	-0.000000	1.000000	0.000000
-43.494621	54.200001	-22.017273	-0.892201	0.000000	-0.451638
-36.287727	54.200001	-22.017273	-0.000000	1.000000	0.000000
-42.403637	54.200001	-22.017273	-0.000000	1.000000	0.000000
30.987272	54.200001	-22.017273	-0.000000	1.000000	0.000000
43.219090	54.200001	-22.017273	-0.000000	1.000000	0.000000
-42.811363	54.200001	-22.017273	-0.000000	1.000000	0.000000
-27.108706	54.200001	-22.017273	-0.000000	1.000000	0.000000
28.540909	54.200001	-22.017273	-0.000000	1.000000	0.000000
28.133183	54.200001	-22.017273	-0.000000	1.000000	0.000000
-43.219090	54.200001	-22.017273	-0.000000	1.000000	0.000000
27.725454	54.200001	-22.017273	-0.000000	1.000000	0.000000
-28.133183	54.200001	-22.017273	-0.000000	1.000000	0.000000
-28.540909	54.200001	-22.017273	-0.000000	1.000000	0.000000
-28.948637	54.200001	-22.017273	-0.000000	1.000000	0.000000
-29.356363	54.200001	-22.017273	-0.000000	1.000000	0.000000
-29.764091	54.200001	-22.017273	-0.000000	1.000000	0.000000
-30.171818	54.200001	-22.017273	-0.000000	1.000000	0.000000
-30.579546	54.200001	-22.017273	-0.000000	1.000000	0.000000
-30.987272	54.200001	-22.017273	-0.000000	1.000000	0.000000
-31.395000	54.200001	-22.017273	-0.000000	1.000000	0.000000
-31.802727	54.200001	-22.017273	-0.000000	1.000000	0.000000
-32.210453	54.200001	-22.017273	-0.000000	1.000000	0.000000
-32.618183	54.200001	-22.017273	-0.000000	1.000000	0.000000
-33.025909	54.200001	-22.017273	-0.000000	1.000000	0.000000
-33.433636	54.200001	-22.017273	-0.000000	1.000000	0.000000
-33.841362	54.200001	-22.017273	-0.000000	1.000000	0.000000
-34.249092	54.200001	-22.017273	-0.000000	1.000000	0.000000
-34.656818	54.200001	-22.017273	-0.000000	1.000000	0.000000
-35.064545	54.200001	-22.017273	-0.000000	1.000000	0.000000
-35.472271	54.200001	-22.017273	-0.000000	1.000000	0.000000
-35.880001	54.200001	-22.017273	-0.000000	1.000000	0.000000
-36.695454	54.200001	-22.017273	-0.000000	1.000000	0.000000
-37.103180	54.200001	-22.017273	-0.000000	1.000000	0.000000
-37.510910	54.200001	-22.017273	-0.000000	1.000000	0.000000
-37.918636	54.200001	-22.017273	-0.000000	1.000000	0.000000
-38.326363	54.200001	-22.017273	-0.000000	1.000000	0.000000
-38.734093	54.200001	-22.017273	-0.000000	1.000000	0.000000
-39.141819	54.200001	-22.017273	-0.000000	1.000000	0.000000
-39.549545	54.200001	-22.017273	-0.000000	1.000000	0.000000
-39.957272	54.200001	-22.017273	-0.000000	1.000000	0.000000
-40.365002	54.200001	-22.017273	-0.000000	1.000000	0.000000
43.561192	53.036900	-21.885727	0.893563	0.000000	-0.448938
43.561192	54.200001	-21.885727	0.893563	0.000000	-0.448938
43.561192	52.261497	-21.885727	0.893563	0.000000	-0.448938
43.561192	51.873798	-21.885727	0.893563	0.000000	-0.448938
43.561192	52.649197	-21.885727	0.893563	0.000000	-0.448938
43.561192	51.486095	-21.885727	0.893563	0.000000	-0.448938
43.561192	51.098396	-21.885727	0.893563	0.000000	-0.448938
43.561192	50.710697	-21.885727	0.893563	0.000000	-0.448938
43.561192	53.424599	-21.885727	0.893563	0.000000	-0.448938
43.561192	50.322994	-21.885727	0.893563	0.000000	-0.448938
43.561192	49.935295	-21.885727	0.893563	0.000000	-0.448938
43.561192	53.812298	-21.885727	0.893563	0.000000	-0.448938
43.561192	49.547596	-21.885727	0.893563	0.000000	-0.448938
-27.237465	54.200001	-21.860376	-0.000000	1.000000	0.000000
27.237465	54.200001	-21.860376	-0.000000	1.000000	0.000000
-27.317728	54.200001	-21.758108	-0.000000	1.000000	0.000000
27.317728	54.200001	-21.758108	-0.000000	1.000000	0.000000
-43.626820	54.200001	-21.754150	-0.894913	0.000000	-0.446241
43.626820	54.200001	-21.753729	0.894916	0.000000	-0.446234
-43.652607	49.547596	-21.702824	-0.895438	0.000000	-0.445186
-43.652607	49.935295	-21.702824	-0.895438	0.000000	-0.445186
-43.652607	50.322994	-21.702824	-0.895438	0.000000	-0.445186
-43.652607	50.710697	-21.702824	-0.895438	0.000000	-0.445186
-43.652607	51.486095	-21.702824	-0.895438	0.000000	-0.445186
-43.652607	52.649197	-21.702824	-0.895438	0.000000	-0.445186
-43.652607	54.200001	-21.702824	-0.895438	0.000000	-0.445186
-43.652607	52.261497	-21.702824	-0.895438	0.000000	-0.445186
-43.652607	51.098396	-21.702824	-0.895438	0.000000	-0.445186
-43.652607	53.812298	-21.702824	-0.895438	0.000000	-0.445186
-43.652607	53.424599	-21.702824	-0.895438	0.000000	-0.445186
-43.652607	51.873798	-21.702824	-0.895438	0.000000	-0.445186
-43.652607	53.036900	-21.702824	-0.895438	0.000000	-0.445186
-28.133183	54.200001	-21.609545	-0.000000	1.000000	0.000000
43.219090	54.200001	-21.609545	-0.000000	1.000000	0.000000
42.811363	54.200001	-21.609545	-0.000000	1.000000	0.000000
42.403637	54.200001	-21.609545	-0.000000	1.000000	0.000000
41.995911	54.200001	-21.609545	-0.000000	1.000000	0.000000
41.588181	54.200001	-21.609545	-0.000000	1.000000	0.000000
41.180454	54.200001	-21.609545	-0.000000	1.000000	0.000000
40.772728	54.200001	-21.609545	-0.000000	1.000000	0.000000
40.365002	54.200001	-21.609545	-0.000000	1.000000	0.000000
39.957272	54.200001	-21.609545	-0.000000	1.000000	0.000000
39.549545	54.200001	-21.609545	-0.000000	1.000000	0.000000
39.141819	54.200001	-21.609545	-0.000000	1.000000	0.000000
38.734093	54.200001	-21.609545	-0.000000	1.000000	0.000000
38.326363	54.200001	-21.609545	-0.000000	1.000000	0.000000
37.510910	54.200001	-21.609545	-0.000000	1.000000	0.000000
37.103180	54.200001	-21.609545	-0.000000	1.000000	0.000000
36.695454	54.200001	-21.609545	-0.000000	1.000000	0.000000
36.287727	54.200001	-21.609545	-0.000000	1.000000	0.000000
35.880001	54.200001	-21.609545	-0.000000	1.000000	0.000000
35.472271	54.200001	-21.609545	-0.000000	1.000000	0.000000
35.064545	54.200001	-21.609545	-0.000000	1.000000	0.000000
34.656818	54.200001	-21.609545	-0.000000	1.000000	0.000000
34.249092	54.200001	-21.609545	-0.000000	1.000000	0.000000
33.841362	54.200001	-21.609545	-0.000000	1.000000	0.000000
33.433636	54.200001	-21.609545	-0.000000	1.000000	0.000000
33.025909	54.200001	-21.609545	-0.000000	1.000000	0.000000
32.618183	54.200001	-21.609545	-0.000000	1.000000	0.000000
32.210453	54.200001	-21.609545	-0.000000	1.000000	0.000000
31.802727	54.200001	-21.609545	-0.000000	1.000000	0.000000
31.395000	54.200001	-21.609545	-0.000000	1.000000	0.000000
30.987272	54.200001	-21.609545	-0.000000	1.000000	0.000000
30.579546	54.200001	-21.609545	-0.000000	1.000000	0.000000
30.171818	54.200001	-21.609545	-0.000000	1.000000	0.000000
29.764091	54.200001	-21.609545	-0.000000	1.000000	0.000000
29.356363	54.200001	-21.609545	-0.000000	1.000000	0.000000
28.948637	54.200001	-21.609545	-0.000000	1.000000	0.000000
28.540909	54.200001	-21.609545	-0.000000	1.000000	0.000000
28.133183	54.200001	-21.609545	-0.000000	1.000000	0.000000
-28.540909	54.200001	-21.609545	-0.000000	1.000000	0.000000
-28.948637	54.200001	-21.609545	-0.000000	1.000000	0.000000
-29.356363	54.200001	-21.609545	-0.000000	1.000000	0.000000
-29.764091	54.200001	-21.609545	-0.000000	1.000000	0.000000
-30.171818	54.200001	-21.609545	-0.000000	1.000000	0.000000
-30.579546	54.200001	-21.609545	-0.000000	1.000000	0.000000
-30.987272	54.200001	-21.609545	-0.000000	1.000000	0.000000
-31.395000	54.200001	-21.609545	-0.000000	1.000000	0.000000
-31.802727	54.200001	-21.609545	-0.000000	1.000000	0.000000
-32.210453	54.200001	-21.609545	-0.000000	1.000000	0.000000
-32.618183	54.200001	-21.609545	-0.000000	1.000000	0.000000
-33.025909	54.200001	-21.609545	-0.000000	1.000000	0.000000
-33.433636	54.200001	-21.609545	-0.000000	1.000000	0.000000
-33.841362	54.200001	-21.609545	-0.000000	1.000000	0.000000
-34.249092	54.200001	-21.609545	-0.000000	1.000000	0.000000
-34.656818	54.200001	-21.609545	-0.000000	1.000000	0.000000
-35.064545	54.200001	-21.609545	-0.000000	1.000000	0.000000
-35.472271	54.200001	-21.609545	-0.000000	1.000000	0.000000
-35.880001	54.200001	-21.609545	-0.000000	1.000000	0.000000
-36.287727	54.200001	-21.609545	-0.000000	1.000000	0.000000
-36.695454	54.200001	-21.609545	-0.000000	1.000000	0.000000
-37.103180	54.200001	-21.609545	-0.000000	1.000000	0.000000
-37.510910	54.200001	-21.609545	-0.000000	1.000000	0.000000
-37.918636	54.200001	-21.609545	-0.000000	1.000000	0.000000
-38.326363	54.200001	-21.609545	-0.000000	1.000000	0.000000
-38.734093	54.200001	-21.609545	-0.000000	1.000000	0.000000
-39.141819	54.200001	-21.609545	-0.000000	1.000000	0.000000
-39.549545	54.200001	-21.609545	-0.000000	1.000000	0.000000
-39.957272	54.200001	-21.609545	-0.000000	1.000000	0.000000
-40.365002	54.200001	-21.609545	-0.000000	1.000000	0.000000
-40.772728	54.200001	-21.609545	-0.000000	1.000000	0.000000
-41.180454	54.200001	-21.609545	-0.000000	1.000000	0.000000
-41.588181	54.200001	-21.609545	-0.000000	1.000000	0.000000
-41.995911	54.200001	-21.609545	-0.000000	1.000000	0.000000
-42.403637	54.200001	-21.609545	-0.000000	1.000000	0.000000
-42.811363	54.200001	-21.609545	-0.000000	1.000000	0.000000
-43.219090	54.200001	-21.609545	-0.000000	1.000000	0.000000
-43.626820	54.200001	-21.609545	-0.000000	1.000000	0.000000
43.626820	54.200001	-21.609545	-0.000000	1.000000	0.000000
37.918636	54.200001	-21.609545	-0.000000	1.000000	0.000000
-27.434320	54.200001	-21.609545	-0.000000	1.000000	0.000000
43.698502	54.200001	-21.609545	0.896385	0.000000	-0.443276
-43.698494	54.200001	-21.609545	-0.896385	0.000000	-0.443276
27.725454	54.200001	-21.609545	-0.000000	1.000000	0.000000
-27.725454	54.200001	-21.609545	-0.000000	1.000000	0.000000
27.434320	54.200001	-21.609545	-0.000000	1.000000	0.000000
43.743252	51.873798	-21.519537	0.897297	0.000000	-0.441426
43.743252	54.200001	-21.519537	0.897297	0.000000	-0.441426
43.743252	53.812298	-21.519537	0.897297	0.000000	-0.441426
43.743252	53.424599	-21.519537	0.897297	0.000000	-0.441426
43.743252	53.036900	-21.519537	0.897297	0.000000	-0.441426
43.743252	52.649197	-21.519537	0.897297	0.000000	-0.441426
43.743252	52.261497	-21.519537	0.897297	0.000000	-0.441426
43.743252	51.486095	-21.519537	0.897297	0.000000	-0.441426
43.743252	51.098396	-21.519537	0.897297	0.000000	-0.441426
43.743252	50.710697	-21.519537	0.897297	0.000000	-0.441426
43.743252	50.322994	-21.519537	0.897297	0.000000	-0.441426
43.743252	49.935295	-21.519537	0.897297	0.000000	-0.441426
43.743252	49.547596	-21.519537	0.897297	0.000000	-0.441426
-43.833126	51.486095	-21.335873	-0.899141	0.000000	-0.437659
-43.833126	53.036900	-21.335873	-0.899141	0.000000	-0.437659
-43.833126	52.649197	-21.335873	-0.899141	0.000000	-0.437659
-43.833126	52.261497	-21.335873	-0.899141	0.000000	-0.437659
-43.833126	53.424599	-21.335873	-0.899141	0.000000	-0.437659
-43.833126	53.812298	-21.335873	-0.899141	0.000000	-0.437659
-43.833126	54.200001	-21.335873	-0.899141	0.000000	-0.437659
-43.833126	51.873798	-21.335873	-0.899141	0.000000	-0.437659
-43.833126	51.098396	-21.335873	-0.899141	0.000000	-0.437659
-43.833126	50.710697	-21.335873	-0.899141	0.000000	-0.437659
-43.833126	50.322994	-21.335873	-0.899141	0.000000	-0.437659
-43.833126	49.935295	-21.335873	-0.899141	0.000000	-0.437659
-43.833126	49.547596	-21.335873	-0.899141	0.000000	-0.437659
-27.707865	54.200001	-21.260992	-0.000000	1.000000	0.000000
27.707865	54.200001	-21.260992	-0.000000	1.000000	0.000000
-27.725454	54.200001	-21.237545	-0.000000	1.000000	0.000000
27.725454	54.200001	-21.237545	-0.000000	1.000000	0.000000
28.540909	54.200001	-21.201818	-0.000000	1.000000	0.000000
28.133183	54.200001	-21.201818	-0.000000	1.000000	0.000000
-28.540909	54.200001	-21.201818	-0.000000	1.000000	0.000000
-28.948637	54.200001	-21.201818	-0.000000	1.000000	0.000000
-29.356363	54.200001	-21.201818	-0.000000	1.000000	0.000000
-29.764091	54.200001	-21.201818	-0.000000	1.000000	0.000000
-30.171818	54.200001	-21.201818	-0.000000	1.000000	0.000000
-30.579546	54.200001	-21.201818	-0.000000	1.000000	0.000000
-30.987272	54.200001	-21.201818	-0.000000	1.000000	0.000000
-31.395000	54.200001	-21.201818	-0.000000	1.000000	0.000000
-31.802727	54.200001	-21.201818	-0.000000	1.000000	0.000000
-32.210453	54.200001	-21.201818	-0.000000	1.000000	0.000000
-32.618183	54.200001	-21.201818	-0.000000	1.000000	0.000000
-33.433636	54.200001	-21.201818	-0.000000	1.000000	0.000000
-33.841362	54.200001	-21.201818	-0.000000	1.000000	0.000000
-34.249092	54.200001	-21.201818	-0.000000	1.000000	0.000000
-34.656818	54.200001	-21.201818	-0.000000	1.000000	0.000000
-35.064545	54.200001	-21.201818	-0.000000	1.000000	0.000000
-35.472271	54.200001	-21.201818	-0.000000	1.000000	0.000000
-35.880001	54.200001	-21.201818	-0.000000	1.000000	0.000000
-36.287727	54.200001	-21.201818	-0.000000	1.000000	0.000000
-36.695454	54.200001	-21.201818	-0.000000	1.000000	0.000000
-37.103180	54.200001	-21.201818	-0.000000	1.000000	0.000000
-37.510910	54.200001	-21.201818	-0.000000	1.000000	0.000000
-37.918636	54.200001	-21.201818	-0.000000	1.000000	0.000000
-38.326363	54.200001	-21.201818	-0.000000	1.000000	0.000000
34.656818	54.200001	-21.201818	-0.000000	1.000000	0.000000
-39.141819	54.200001	-21.201818	-0.000000	1.000000	0.000000
-39.549545	54.200001	-21.201818	-0.000000	1.000000	0.000000
-39.957272	54.200001	-21.201818	-0.000000	1.000000	0.000000
-40.365002	54.200001	-21.201818	-0.000000	1.000000	0.000000
-40.772728	54.200001	-21.201818	-0.000000	1.000000	0.000000
-41.180454	54.200001	-21.201818	-0.000000	1.000000	0.000000
-41.588181	54.200001	-21.201818	-0.000000	1.000000	0.000000
-41.995911	54.200001	-21.201818	-0.000000	1.000000	0.000000
-42.403637	54.200001	-21.201818	-0.000000	1.000000	0.000000
-42.811363	54.200001	-21.201818	-0.000000	1.000000	0.000000
-43.219090	54.200001	-21.201818	-0.000000	1.000000	0.000000
-43.626820	54.200001	-21.201818	-0.000000	1.000000	0.000000
29.356363	54.200001	-21.201818	-0.000000	1.000000	0.000000
-38.734093	54.200001	-21.201818	-0.000000	1.000000	0.000000
40.365002	54.200001	-21.201818	-0.000000	1.000000	0.000000
39.957272	54.200001	-21.201818	-0.000000	1.000000	0.000000
43.219090	54.200001	-21.201818	-0.000000	1.000000	0.000000
39.549545	54.200001	-21.201818	-0.000000	1.000000	0.000000
-27.752254	54.200001	-21.201818	-0.000000	1.000000	0.000000
39.141819	54.200001	-21.201818	-0.000000	1.000000	0.000000
42.811363	54.200001	-21.201818	-0.000000	1.000000	0.000000
38.734093	54.200001	-21.201818	-0.000000	1.000000	0.000000
43.626820	54.200001	-21.201818	-0.000000	1.000000	0.000000
38.326363	54.200001	-21.201818	-0.000000	1.000000	0.000000
37.918636	54.200001	-21.201818	-0.000000	1.000000	0.000000
37.510910	54.200001	-21.201818	-0.000000	1.000000	0.000000
37.103180	54.200001	-21.201818	-0.000000	1.000000	0.000000
36.695454	54.200001	-21.201818	-0.000000	1.000000	0.000000
36.287727	54.200001	-21.201818	-0.000000	1.000000	0.000000
35.880001	54.200001	-21.201818	-0.000000	1.000000	0.000000
35.472271	54.200001	-21.201818	-0.000000	1.000000	0.000000
35.064545	54.200001	-21.201818	-0.000000	1.000000	0.000000
-43.897686	54.200001	-21.201818	-0.900473	0.000000	-0.434913
43.897903	54.200001	-21.201818	0.900473	0.000000	-0.434911
34.249092	54.200001	-21.201818	-0.000000	1.000000	0.000000
33.841362	54.200001	-21.201818	-0.000000	1.000000	0.000000
33.433636	54.200001	-21.201818	-0.000000	1.000000	0.000000
33.025909	54.200001	-21.201818	-0.000000	1.000000	0.000000
32.618183	54.200001	-21.201818	-0.000000	1.000000	0.000000
32.210453	54.200001	-21.201818	-0.000000	1.000000	0.000000
-33.025909	54.200001	-21.201818	-0.000000	1.000000	0.000000
31.802727	54.200001	-21.201818	-0.000000	1.000000	0.000000
31.395000	54.200001	-21.201818	-0.000000	1.000000	0.000000
30.987272	54.200001	-21.201818	-0.000000	1.000000	0.000000
30.579546	54.200001	-21.201818	-0.000000	1.000000	0.000000
30.171818	54.200001	-21.201818	-0.000000	1.000000	0.000000
29.764091	54.200001	-21.201818	-0.000000	1.000000	0.000000
42.403637	54.200001	-21.201818	-0.000000	1.000000	0.000000
41.995911	54.200001	-21.201818	-0.000000	1.000000	0.000000
41.588181	54.200001	-21.201818	-0.000000	1.000000	0.000000
41.180454	54.200001	-21.201818	-0.000000	1.000000	0.000000
40.772728	54.200001	-21.201818	-0.000000	1.000000	0.000000
-28.133183	54.200001	-21.201818	-0.000000	1.000000	0.000000
28.948637	54.200001	-21.201818	-0.000000	1.000000	0.000000
27.752254	54.200001	-21.201818	-0.000000	1.000000	0.000000
43.922234	51.098396	-21.151833	0.900969	0.000000	-0.433884
43.922234	50.710697	-21.151833	0.900969	0.000000	-0.433884
43.922234	50.322994	-21.151833	0.900969	0.000000	-0.433884
43.922234	49.935295	-21.151833	0.900969	0.000000	-0.433884
43.922234	49.547596	-21.151833	0.900969	0.000000	-0.433884
43.922234	52.649197	-21.151833	0.900969	0.000000	-0.433884
43.922234	54.200001	-21.151833	0.900969	0.000000	-0.433884
43.922234	53.812298	-21.151833	0.900969	0.000000	-0.433884
43.922234	53.424599	-21.151833	0.900969	0.000000	-0.433884
43.922234	53.036900	-21.151833	0.900969	0.000000	-0.433884
43.922234	52.261497	-21.151833	0.900969	0.000000	-0.433884
43.922234	51.873798	-21.151833	0.900969	0.000000	-0.433884
43.922234	51.486095	-21.151833	0.900969	0.000000	-0.433884
-44.010563	50.710697	-20.967421	-0.902781	0.000000	-0.430101
-44.010563	51.873798	-20.967421	-0.902781	0.000000	-0.430101
-44.010563	52.261497	-20.967421	-0.902781	0.000000	-0.430101
-44.010563	52.649197	-20.967421	-0.902781	0.000000	-0.430101
-44.010563	53.036900	-20.967421	-0.902781	0.000000	-0.430101
-44.010563	53.424599	-20.967421	-0.902781	0.000000	-0.430101
-44.010563	53.812298	-20.967421	-0.902781	0.000000	-0.430101
-44.010563	51.486095	-20.967421	-0.902781	0.000000	-0.430101
-44.010563	54.200001	-20.967421	-0.902781	0.000000	-0.430101
-44.010563	49.547596	-20.967421	-0.902781	0.000000	-0.430101
-44.010563	49.935295	-20.967421	-0.902781	0.000000	-0.430101
-44.010563	51.098396	-20.967421	-0.902781	0.000000	-0.430101
-44.010563	50.322994	-20.967421	-0.902781	0.000000	-0.430101
-44.034546	54.200001	-20.916536	-0.903277	0.000000	-0.429059
44.034546	54.200001	-20.916088	0.903280	0.000000	-0.429051
39.141819	54.200001	-20.794090	-0.000000	1.000000	0.000000
-31.802727	54.200001	-20.794090	-0.000000	1.000000	0.000000
-32.210453	54.200001	-20.794090	-0.000000	1.000000	0.000000
28.133183	54.200001	-20.794090	-0.000000	1.000000	0.000000
-32.618183	54.200001	-20.794090	-0.000000	1.000000	0.000000
-28.133183	54.200001	-20.794090	-0.000000	1.000000	0.000000
-33.025909	54.200001	-20.794090	-0.000000	1.000000	0.000000
-28.540909	54.200001	-20.794090	-0.000000	1.000000	0.000000
-33.433636	54.200001	-20.794090	-0.000000	1.000000	0.000000
-43.219090	54.200001	-20.794090	-0.000000	1.000000	0.000000
-33.841362	54.200001	-20.794090	-0.000000	1.000000	0.000000
-34.249092	54.200001	-20.794090	-0.000000	1.000000	0.000000
-34.656818	54.200001	-20.794090	-0.000000	1.000000	0.000000
-35.064545	54.200001	-20.794090	-0.000000	1.000000	0.000000
44.092667	54.200001	-20.794090	0.904466	0.000000	-0.426546
-35.472271	54.200001	-20.794090	-0.000000	1.000000	0.000000
-35.880001	54.200001	-20.794090	-0.000000	1.000000	0.000000
-36.287727	54.200001	-20.794090	-0.000000	1.000000	0.000000
-36.695454	54.200001	-20.794090	-0.000000	1.000000	0.000000
-37.103180	54.200001	-20.794090	-0.000000	1.000000	0.000000
-37.510910	54.200001	-20.794090	-0.000000	1.000000	0.000000
-37.918636	54.200001	-20.794090	-0.000000	1.000000	0.000000
-28.058107	54.200001	-20.794090	-0.000000	1.000000	0.000000
-38.326363	54.200001	-20.794090	-0.000000	1.000000	0.000000
-44.092251	54.200001	-20.794090	-0.904464	0.000000	-0.426549
-44.034546	54.200001	-20.794090	-0.000000	1.000000	0.000000
-38.734093	54.200001	-20.794090	-0.000000	1.000000	0.000000
-39.141819	54.200001	-20.794090	-0.000000	1.000000	0.000000
-39.549545	54.200001	-20.794090	-0.000000	1.000000	0.000000
-39.957272	54.200001	-20.794090	-0.000000	1.000000	0.000000
-40.365002	54.200001	-20.794090	-0.000000	1.000000	0.000000
-40.772728	54.200001	-20.794090	-0.000000	1.000000	0.000000
-41.180454	54.200001	-20.794090	-0.000000	1.000000	0.000000
-43.626820	54.200001	-20.794090	-0.000000	1.000000	0.000000
-41.588181	54.200001	-20.794090	-0.000000	1.000000	0.000000
-41.995911	54.200001	-20.794090	-0.000000	1.000000	0.000000
-42.403637	54.200001	-20.794090	-0.000000	1.000000	0.000000
-42.811363	54.200001	-20.794090	-0.000000	1.000000	0.000000
43.626820	54.200001	-20.794090	-0.000000	1.000000	0.000000
43.219090	54.200001	-20.794090	-0.000000	1.000000	0.000000
42.811363	54.200001	-20.794090	-0.000000	1.000000	0.000000
42.403637	54.200001	-20.794090	-0.000000	1.000000	0.000000
41.995911	54.200001	-20.794090	-0.000000	1.000000	0.000000
41.588181	54.200001	-20.794090	-0.000000	1.000000	0.000000
41.180454	54.200001	-20.794090	-0.000000	1.000000	0.000000
40.772728	54.200001	-20.794090	-0.000000	1.000000	0.000000
40.365002	54.200001	-20.794090	-0.000000	1.000000	0.000000
39.957272	54.200001	-20.794090	-0.000000	1.000000	0.000000
39.549545	54.200001	-20.794090	-0.000000	1.000000	0.000000
32.618183	54.200001	-20.794090	-0.000000	1.000000	0.000000
38.734093	54.200001	-20.794090	-0.000000	1.000000	0.000000
38.326363	54.200001	-20.794090	-0.000000	1.000000	0.000000
37.918636	54.200001	-20.794090	-0.000000	1.000000	0.000000
37.510910	54.200001	-20.794090	-0.000000	1.000000	0.000000
37.103180	54.200001	-20.794090	-0.000000	1.000000	0.000000
36.695454	54.200001	-20.794090	-0.000000	1.000000	0.000000
36.287727	54.200001	-20.794090	-0.000000	1.000000	0.000000
35.880001	54.200001	-20.794090	-0.000000	1.000000	0.000000
35.472271	54.200001	-20.794090	-0.000000	1.000000	0.000000
35.064545	54.200001	-20.794090	-0.000000	1.000000	0.000000
34.656818	54.200001	-20.794090	-0.000000	1.000000	0.000000
34.249092	54.200001	-20.794090	-0.000000	1.000000	0.000000
33.841362	54.200001	-20.794090	-0.000000	1.000000	0.000000
33.433636	54.200001	-20.794090	-0.000000	1.000000	0.000000
33.025909	54.200001	-20.794090	-0.000000	1.000000	0.000000
32.210453	54.200001	-20.794090	-0.000000	1.000000	0.000000
31.802727	54.200001	-20.794090	-0.000000	1.000000	0.000000
31.395000	54.200001	-20.794090	-0.000000	1.000000	0.000000
30.987272	54.200001	-20.794090	-0.000000	1.000000	0.000000
30.579546	54.200001	-20.794090	-0.000000	1.000000	0.000000
30.171818	54.200001	-20.794090	-0.000000	1.000000	0.000000
29.764091	54.200001	-20.794090	-0.000000	1.000000	0.000000
29.356363	54.200001	-20.794090	-0.000000	1.000000	0.000000
28.948637	54.200001	-20.794090	-0.000000	1.000000	0.000000
28.540909	54.200001	-20.794090	-0.000000	1.000000	0.000000
-28.948637	54.200001	-20.794090	-0.000000	1.000000	0.000000
44.034546	54.200001	-20.794090	-0.000000	1.000000	0.000000
-29.356363	54.200001	-20.794090	-0.000000	1.000000	0.000000
-29.764091	54.200001	-20.794090	-0.000000	1.000000	0.000000
-30.171818	54.200001	-20.794090	-0.000000	1.000000	0.000000
-30.579546	54.200001	-20.794090	-0.000000	1.000000	0.000000
-30.987272	54.200001	-20.794090	-0.000000	1.000000	0.000000
-31.395000	54.200001	-20.794090	-0.000000	1.000000	0.000000
28.058107	54.200001	-20.794090	-0.000000	1.000000	0.000000
44.098122	54.200001	-20.782639	0.904577	0.000000	-0.426311
44.098122	53.812298	-20.782639	0.904577	0.000000	-0.426311
44.098122	53.424599	-20.782639	0.904577	0.000000	-0.426311
44.098122	53.036900	-20.782639	0.904577	0.000000	-0.426311
44.098122	52.649197	-20.782639	0.904577	0.000000	-0.426311
44.098122	52.261497	-20.782639	0.904577	0.000000	-0.426311
44.098122	51.873798	-20.782639	0.904577	0.000000	-0.426311
44.098122	50.710697	-20.782639	0.904577	0.000000	-0.426311
44.098122	49.935295	-20.782639	0.904577	0.000000	-0.426311
44.098122	50.322994	-20.782639	0.904577	0.000000	-0.426311
44.098122	51.098396	-20.782639	0.904577	0.000000	-0.426311
44.098122	49.547596	-20.782639	0.904577	0.000000	-0.426311
44.098122	51.486095	-20.782639	0.904577	0.000000	-0.426311
-28.133183	54.200001	-20.694010	-0.000000	1.000000	0.000000
28.133183	54.200001	-20.694010	-0.000000	1.000000	0.000000
-28.165077	54.200001	-20.651489	-0.000000	1.000000	0.000000
28.165077	54.200001	-20.651489	-0.000000	1.000000	0.000000
-44.184906	53.812298	-20.597492	-0.906357	0.000000	-0.422513
-44.184906	49.547596	-20.597492	-0.906357	0.000000	-0.422513
-44.184906	49.935295	-20.597492	-0.906357	0.000000	-0.422513
-44.184906	50.322994	-20.597492	-0.906357	0.000000	-0.422513
-44.184906	50.710697	-20.597492	-0.906357	0.000000	-0.422513
-44.184906	51.486095	-20.597492	-0.906357	0.000000	-0.422513
-44.184906	51.873798	-20.597492	-0.906357	0.000000	-0.422513
-44.184906	52.261497	-20.597492	-0.906357	0.000000	-0.422513
-44.184906	54.200001	-20.597492	-0.906357	0.000000	-0.422513
-44.184906	52.649197	-20.597492	-0.906357	0.000000	-0.422513
-44.184906	53.036900	-20.597492	-0.906357	0.000000	-0.422513
-44.184906	51.098396	-20.597492	-0.906357	0.000000	-0.422513
-44.184906	53.424599	-20.597492	-0.906357	0.000000	-0.422513
44.270908	52.649197	-20.411983	0.908121	0.000000	-0.418707
44.270908	49.547596	-20.411983	0.908121	0.000000	-0.418707
44.270908	49.935295	-20.411983	0.908121	0.000000	-0.418707
44.270908	50.322994	-20.411983	0.908121	0.000000	-0.418707
44.270908	50.710697	-20.411983	0.908121	0.000000	-0.418707
44.270908	51.098396	-20.411983	0.908121	0.000000	-0.418707
44.270908	51.486095	-20.411983	0.908121	0.000000	-0.418707
44.270908	51.873798	-20.411983	0.908121	0.000000	-0.418707
44.270908	52.261497	-20.411983	0.908121	0.000000	-0.418707
44.270908	53.036900	-20.411983	0.908121	0.000000	-0.418707
44.270908	53.424599	-20.411983	0.908121	0.000000	-0.418707
44.270908	53.812298	-20.411983	0.908121	0.000000	-0.418707
44.270908	54.200001	-20.411983	0.908121	0.000000	-0.418707
43.219090	54.200001	-20.386364	-0.000000	1.000000	0.000000
42.811363	54.200001	-20.386364	-0.000000	1.000000	0.000000
42.403637	54.200001	-20.386364	-0.000000	1.000000	0.000000
-29.356363	54.200001	-20.386364	-0.000000	1.000000	0.000000
41.588181	54.200001	-20.386364	-0.000000	1.000000	0.000000
41.180454	54.200001	-20.386364	-0.000000	1.000000	0.000000
40.772728	54.200001	-20.386364	-0.000000	1.000000	0.000000
40.365002	54.200001	-20.386364	-0.000000	1.000000	0.000000
39.957272	54.200001	-20.386364	-0.000000	1.000000	0.000000
39.549545	54.200001	-20.386364	-0.000000	1.000000	0.000000
39.141819	54.200001	-20.386364	-0.000000	1.000000	0.000000
38.734093	54.200001	-20.386364	-0.000000	1.000000	0.000000
38.326363	54.200001	-20.386364	-0.000000	1.000000	0.000000
37.918636	54.200001	-20.386364	-0.000000	1.000000	0.000000
37.510910	54.200001	-20.386364	-0.000000	1.000000	0.000000
37.103180	54.200001	-20.386364	-0.000000	1.000000	0.000000
36.695454	54.200001	-20.386364	-0.000000	1.000000	0.000000
36.287727	54.200001	-20.386364	-0.000000	1.000000	0.000000
35.880001	54.200001	-20.386364	-0.000000	1.000000	0.000000
35.472271	54.200001	-20.386364	-0.000000	1.000000	0.000000
35.064545	54.200001	-20.386364	-0.000000	1.000000	0.000000
34.656818	54.200001	-20.386364	-0.000000	1.000000	0.000000
34.249092	54.200001	-20.386364	-0.000000	1.000000	0.000000
33.841362	54.200001	-20.386364	-0.000000	1.000000	0.000000
33.433636	54.200001	-20.386364	-0.000000	1.000000	0.000000
33.025909	54.200001	-20.386364	-0.000000	1.000000	0.000000
32.618183	54.200001	-20.386364	-0.000000	1.000000	0.000000
32.210453	54.200001	-20.386364	-0.000000	1.000000	0.000000
31.802727	54.200001	-20.386364	-0.000000	1.000000	0.000000
31.395000	54.200001	-20.386364	-0.000000	1.000000	0.000000
30.987272	54.200001	-20.386364	-0.000000	1.000000	0.000000
-36.695454	54.200001	-20.386364	-0.000000	1.000000	0.000000
-37.103180	54.200001	-20.386364	-0.000000	1.000000	0.000000
-37.510910	54.200001	-20.386364	-0.000000	1.000000	0.000000
-37.918636	54.200001	-20.386364	-0.000000	1.000000	0.000000
-38.326363	54.200001	-20.386364	-0.000000	1.000000	0.000000
-38.734093	54.200001	-20.386364	-0.000000	1.000000	0.000000
-39.141819	54.200001	-20.386364	-0.000000	1.000000	0.000000
-39.549545	54.200001	-20.386364	-0.000000	1.000000	0.000000
-39.957272	54.200001	-20.386364	-0.000000	1.000000	0.000000
-40.365002	54.200001	-20.386364	-0.000000	1.000000	0.000000
-40.772728	54.200001	-20.386364	-0.000000	1.000000	0.000000
-41.180454	54.200001	-20.386364	-0.000000	1.000000	0.000000
-41.588181	54.200001	-20.386364	-0.000000	1.000000	0.000000
-41.995911	54.200001	-20.386364	-0.000000	1.000000	0.000000
-42.403637	54.200001	-20.386364	-0.000000	1.000000	0.000000
-42.811363	54.200001	-20.386364	-0.000000	1.000000	0.000000
-43.219090	54.200001	-20.386364	-0.000000	1.000000	0.000000
-43.626820	54.200001	-20.386364	-0.000000	1.000000	0.000000
-44.034546	54.200001	-20.386364	-0.000000	1.000000	0.000000
44.034546	54.200001	-20.386364	-0.000000	1.000000	0.000000
44.282593	54.200001	-20.386364	0.908363	0.000000	-0.418183
-30.579546	54.200001	-20.386364	-0.000000	1.000000	0.000000
-30.987272	54.200001	-20.386364	-0.000000	1.000000	0.000000
28.540909	54.200001	-20.386364	-0.000000	1.000000	0.000000
-28.355064	54.200001	-20.386364	-0.000000	1.000000	0.000000
43.626820	54.200001	-20.386364	-0.000000	1.000000	0.000000
41.995911	54.200001	-20.386364	-0.000000	1.000000	0.000000
-35.064545	54.200001	-20.386364	-0.000000	1.000000	0.000000
-44.282249	54.200001	-20.386364	-0.908362	0.000000	-0.418185
-31.395000	54.200001	-20.386364	-0.000000	1.000000	0.000000
-31.802727	54.200001	-20.386364	-0.000000	1.000000	0.000000
-32.210453	54.200001	-20.386364	-0.000000	1.000000	0.000000
-32.618183	54.200001	-20.386364	-0.000000	1.000000	0.000000
-33.025909	54.200001	-20.386364	-0.000000	1.000000	0.000000
-33.433636	54.200001	-20.386364	-0.000000	1.000000	0.000000
-33.841362	54.200001	-20.386364	-0.000000	1.000000	0.000000
-34.249092	54.200001	-20.386364	-0.000000	1.000000	0.000000
-34.656818	54.200001	-20.386364	-0.000000	1.000000	0.000000
-35.472271	54.200001	-20.386364	-0.000000	1.000000	0.000000
-35.880001	54.200001	-20.386364	-0.000000	1.000000	0.000000
-30.171818	54.200001	-20.386364	-0.000000	1.000000	0.000000
-29.764091	54.200001	-20.386364	-0.000000	1.000000	0.000000
-36.287727	54.200001	-20.386364	-0.000000	1.000000	0.000000
28.948637	54.200001	-20.386364	-0.000000	1.000000	0.000000
29.356363	54.200001	-20.386364	-0.000000	1.000000	0.000000
29.764091	54.200001	-20.386364	-0.000000	1.000000	0.000000
30.171818	54.200001	-20.386364	-0.000000	1.000000	0.000000
30.579546	54.200001	-20.386364	-0.000000	1.000000	0.000000
-28.948637	54.200001	-20.386364	-0.000000	1.000000	0.000000
-28.540909	54.200001	-20.386364	-0.000000	1.000000	0.000000
28.355064	54.200001	-20.386364	-0.000000	1.000000	0.000000
-44.356136	49.935295	-20.226114	-0.909869	0.000000	-0.414895
-44.356136	50.322994	-20.226114	-0.909869	0.000000	-0.414895
-44.356136	50.710697	-20.226114	-0.909869	0.000000	-0.414895
-44.356136	51.098396	-20.226114	-0.909869	0.000000	-0.414895
-44.356136	51.873798	-20.226114	-0.909869	0.000000	-0.414895
-44.356136	52.261497	-20.226114	-0.909869	0.000000	-0.414895
-44.356136	52.649197	-20.226114	-0.909869	0.000000	-0.414895
-44.356136	49.547596	-20.226114	-0.909869	0.000000	-0.414895
-44.356136	51.486095	-20.226114	-0.909869	0.000000	-0.414895
-44.356136	53.036900	-20.226114	-0.909869	0.000000	-0.414895
-44.356136	53.812298	-20.226114	-0.909869	0.000000	-0.414895
-44.356136	53.424599	-20.226114	-0.909869	0.000000	-0.414895
-44.356136	54.200001	-20.226114	-0.909869	0.000000	-0.414895
-28.540909	54.200001	-20.127018	-0.000000	1.000000	0.000000
28.540909	54.200001	-20.127018	-0.000000	1.000000	0.000000
44.440582	49.547596	-20.039890	0.911602	0.000000	-0.411075
44.440582	49.935295	-20.039890	0.911602	0.000000	-0.411075
44.440582	50.322994	-20.039890	0.911602	0.000000	-0.411075
44.440582	50.710697	-20.039890	0.911602	0.000000	-0.411075
44.440582	51.098396	-20.039890	0.911602	0.000000	-0.411075
44.440582	51.486095	-20.039890	0.911602	0.000000	-0.411075
44.440582	51.873798	-20.039890	0.911602	0.000000	-0.411075
44.440582	52.261497	-20.039890	0.911602	0.000000	-0.411075
44.440582	52.649197	-20.039890	0.911602	0.000000	-0.411075
44.440582	53.036900	-20.039890	0.911602	0.000000	-0.411075
44.440582	54.200001	-20.039890	0.911602	0.000000	-0.411075
44.440582	53.424599	-20.039890	0.911602	0.000000	-0.411075
44.440582	53.812298	-20.039890	0.911602	0.000000	-0.411075
44.442272	54.200001	-20.036098	0.911637	0.000000	-0.410997
-44.442272	54.200001	-20.035097	-0.911644	0.000000	-0.410980
-28.608885	54.200001	-20.032158	-0.000000	1.000000	0.000000
28.608885	54.200001	-20.032158	-0.000000	1.000000	0.000000
28.645496	54.200001	-19.978636	-0.000000	1.000000	0.000000
44.467896	54.200001	-19.978636	0.912166	0.000000	-0.409820
-41.588181	54.200001	-19.978636	-0.000000	1.000000	0.000000
-41.180454	54.200001	-19.978636	-0.000000	1.000000	0.000000
-28.645496	54.200001	-19.978636	-0.000000	1.000000	0.000000
-40.772728	54.200001	-19.978636	-0.000000	1.000000	0.000000
-40.365002	54.200001	-19.978636	-0.000000	1.000000	0.000000
-39.957272	54.200001	-19.978636	-0.000000	1.000000	0.000000
-44.467731	54.200001	-19.978636	-0.912166	0.000000	-0.409821
-41.995911	54.200001	-19.978636	-0.000000	1.000000	0.000000
44.442272	54.200001	-19.978636	-0.000000	1.000000	0.000000
-28.948637	54.200001	-19.978636	-0.000000	1.000000	0.000000
39.957272	54.200001	-19.978636	-0.000000	1.000000	0.000000
44.034546	54.200001	-19.978636	-0.000000	1.000000	0.000000
-44.442272	54.200001	-19.978636	-0.000000	1.000000	0.000000
-44.034546	54.200001	-19.978636	-0.000000	1.000000	0.000000
-43.626820	54.200001	-19.978636	-0.000000	1.000000	0.000000
-43.219090	54.200001	-19.978636	-0.000000	1.000000	0.000000
-42.811363	54.200001	-19.978636	-0.000000	1.000000	0.000000
-42.403637	54.200001	-19.978636	-0.000000	1.000000	0.000000
43.626820	54.200001	-19.978636	-0.000000	1.000000	0.000000
43.219090	54.200001	-19.978636	-0.000000	1.000000	0.000000
42.811363	54.200001	-19.978636	-0.000000	1.000000	0.000000
42.403637	54.200001	-19.978636	-0.000000	1.000000	0.000000
41.995911	54.200001	-19.978636	-0.000000	1.000000	0.000000
41.588181	54.200001	-19.978636	-0.000000	1.000000	0.000000
41.180454	54.200001	-19.978636	-0.000000	1.000000	0.000000
39.141819	54.200001	-19.978636	-0.000000	1.000000	0.000000
38.734093	54.200001	-19.978636	-0.000000	1.000000	0.000000
38.326363	54.200001	-19.978636	-0.000000	1.000000	0.000000
37.918636	54.200001	-19.978636	-0.000000	1.000000	0.000000
37.510910	54.200001	-19.978636	-0.000000	1.000000	0.000000
37.103180	54.200001	-19.978636	-0.000000	1.000000	0.000000
36.695454	54.200001	-19.978636	-0.000000	1.000000	0.000000
36.287727	54.200001	-19.978636	-0.000000	1.000000	0.000000
35.880001	54.200001	-19.978636	-0.000000	1.000000	0.000000
35.472271	54.200001	-19.978636	-0.000000	1.000000	0.000000
35.064545	54.200001	-19.978636	-0.000000	1.000000	0.000000
34.656818	54.200001	-19.978636	-0.000000	1.000000	0.000000
34.249092	54.200001	-19.978636	-0.000000	1.000000	0.000000
33.841362	54.200001	-19.978636	-0.000000	1.000000	0.000000
33.433636	54.200001	-19.978636	-0.000000	1.000000	0.000000
33.025909	54.200001	-19.978636	-0.000000	1.000000	0.000000
32.618183	54.200001	-19.978636	-0.000000	1.000000	0.000000
32.210453	54.200001	-19.978636	-0.000000	1.000000	0.000000
31.802727	54.200001	-19.978636	-0.000000	1.000000	0.000000
31.395000	54.200001	-19.978636	-0.000000	1.000000	0.000000
30.987272	54.200001	-19.978636	-0.000000	1.000000	0.000000
30.579546	54.200001	-19.978636	-0.000000	1.000000	0.000000
30.171818	54.200001	-19.978636	-0.000000	1.000000	0.000000
29.764091	54.200001	-19.978636	-0.000000	1.000000	0.000000
29.356363	54.200001	-19.978636	-0.000000	1.000000	0.000000
40.772728	54.200001	-19.978636	-0.000000	1.000000	0.000000
28.948637	54.200001	-19.978636	-0.000000	1.000000	0.000000
40.365002	54.200001	-19.978636	-0.000000	1.000000	0.000000
-29.356363	54.200001	-19.978636	-0.000000	1.000000	0.000000
39.549545	54.200001	-19.978636	-0.000000	1.000000	0.000000
-29.764091	54.200001	-19.978636	-0.000000	1.000000	0.000000
-30.171818	54.200001	-19.978636	-0.000000	1.000000	0.000000
-30.579546	54.200001	-19.978636	-0.000000	1.000000	0.000000
-30.987272	54.200001	-19.978636	-0.000000	1.000000	0.000000
-31.395000	54.200001	-19.978636	-0.000000	1.000000	0.000000
-31.802727	54.200001	-19.978636	-0.000000	1.000000	0.000000
-32.210453	54.200001	-19.978636	-0.000000	1.000000	0.000000
-32.618183	54.200001	-19.978636	-0.000000	1.000000	0.000000
-33.025909	54.200001	-19.978636	-0.000000	1.000000	0.000000
-33.433636	54.200001	-19.978636	-0.000000	1.000000	0.000000
-33.841362	54.200001	-19.978636	-0.000000	1.000000	0.000000
-34.249092	54.200001	-19.978636	-0.000000	1.000000	0.000000
-34.656818	54.200001	-19.978636	-0.000000	1.000000	0.000000
-35.064545	54.200001	-19.978636	-0.000000	1.000000	0.000000
-35.472271	54.200001	-19.978636	-0.000000	1.000000	0.000000
