46.482586	41.889305	-14.694614	0.953489	0.000000	-0.301428
46.482586	41.501602	-14.694614	0.953489	0.000000	-0.301428
46.482586	40.338501	-14.694614	0.953489	0.000000	-0.301428
46.482586	38.787701	-14.694614	0.953489	0.000000	-0.301428
46.482586	38.400002	-14.694614	0.953489	0.000000	-0.301428
46.482586	43.052406	-14.694614	0.953489	0.000000	-0.301428
-46.487331	38.400002	-14.678182	-0.953595	0.000000	-0.301094
-41.995911	38.400002	-14.678182	0.000000	-1.000000	0.000000
39.549545	38.400002	-14.678182	0.000000	-1.000000	0.000000
-38.734093	38.400002	-14.678182	0.000000	-1.000000	0.000000
-41.180454	38.400002	-14.678182	0.000000	-1.000000	0.000000
-39.549545	38.400002	-14.678182	0.000000	-1.000000	0.000000
42.811363	38.400002	-14.678182	0.000000	-1.000000	0.000000
46.487705	38.400002	-14.678182	0.953595	0.000000	-0.301091
41.180454	38.400002	-14.678182	0.000000	-1.000000	0.000000
43.219090	38.400002	-14.678182	0.000000	-1.000000	0.000000
40.772728	38.400002	-14.678182	0.000000	-1.000000	0.000000
45.257729	38.400002	-14.678182	0.000000	-1.000000	0.000000
-39.141819	38.400002	-14.678182	0.000000	-1.000000	0.000000
39.957272	38.400002	-14.678182	0.000000	-1.000000	0.000000
37.918636	38.400002	-14.678182	0.000000	-1.000000	0.000000
37.510910	38.400002	-14.678182	0.000000	-1.000000	0.000000
-38.326363	38.400002	-14.678182	0.000000	-1.000000	0.000000
40.365002	38.400002	-14.678182	0.000000	-1.000000	0.000000
46.073181	38.400002	-14.678182	0.000000	-1.000000	0.000000
-39.957272	38.400002	-14.678182	0.000000	-1.000000	0.000000
-44.849998	38.400002	-14.678182	0.000000	-1.000000	0.000000
-42.811363	38.400002	-14.678182	0.000000	-1.000000	0.000000
-43.219090	38.400002	-14.678182	0.000000	-1.000000	0.000000
44.034546	38.400002	-14.678182	0.000000	-1.000000	0.000000
-40.365002	38.400002	-14.678182	0.000000	-1.000000	0.000000
-41.588181	38.400002	-14.678182	0.000000	-1.000000	0.000000
46.480907	38.400002	-14.678182	0.000000	-1.000000	0.000000
-45.257729	38.400002	-14.678182	0.000000	-1.000000	0.000000
44.442272	38.400002	-14.678182	0.000000	-1.000000	0.000000
41.588181	38.400002	-14.678182	0.000000	-1.000000	0.000000
44.849998	38.400002	-14.678182	0.000000	-1.000000	0.000000
41.995911	38.400002	-14.678182	0.000000	-1.000000	0.000000
-40.772728	38.400002	-14.678182	0.000000	-1.000000	0.000000
-42.403637	38.400002	-14.678182	0.000000	-1.000000	0.000000
-37.510910	38.400002	-14.678182	0.000000	-1.000000	0.000000
42.403637	38.400002	-14.678182	0.000000	-1.000000	0.000000
-43.626820	38.400002	-14.678182	0.000000	-1.000000	0.000000
45.665455	38.400002	-14.678182	0.000000	-1.000000	0.000000
-37.918636	38.400002	-14.678182	0.000000	-1.000000	0.000000
-46.073181	38.400002	-14.678182	0.000000	-1.000000	0.000000
38.734093	38.400002	-14.678182	0.000000	-1.000000	0.000000
-46.480907	38.400002	-14.678182	0.000000	-1.000000	0.000000
38.326363	38.400002	-14.678182	0.000000	-1.000000	0.000000
-44.442272	38.400002	-14.678182	0.000000	-1.000000	0.000000
43.626820	38.400002	-14.678182	0.000000	-1.000000	0.000000
-45.665455	38.400002	-14.678182	0.000000	-1.000000	0.000000
39.141819	38.400002	-14.678182	0.000000	-1.000000	0.000000
-44.034546	38.400002	-14.678182	0.000000	-1.000000	0.000000
-37.207336	38.400002	-14.678182	0.000000	-1.000000	0.000000
37.209366	38.400002	-14.678182	0.000000	-1.000000	0.000000
-46.543812	43.052406	-14.499519	-0.954745	0.000000	-0.297426
-46.543812	41.501602	-14.499519	-0.954745	0.000000	-0.297426
-46.543812	38.400002	-14.499519	-0.954745	0.000000	-0.297426
-46.543812	40.726204	-14.499519	-0.954745	0.000000	-0.297426
-46.543812	41.113903	-14.499519	-0.954745	0.000000	-0.297426
-46.543812	38.787701	-14.499519	-0.954745	0.000000	-0.297426
-46.543812	40.338501	-14.499519	-0.954745	0.000000	-0.297426
-46.543812	42.277004	-14.499519	-0.954745	0.000000	-0.297426
-46.543812	42.664703	-14.499519	-0.954745	0.000000	-0.297426
-46.543812	39.175400	-14.499519	-0.954745	0.000000	-0.297426
-46.543812	39.563103	-14.499519	-0.954745	0.000000	-0.297426
-46.543812	39.950802	-14.499519	-0.954745	0.000000	-0.297426
-46.543812	41.889305	-14.499519	-0.954745	0.000000	-0.297426
-37.350498	38.400002	-14.315733	0.000000	-1.000000	0.000000
46.604218	42.277004	-14.304170	0.955984	0.000000	-0.293419
46.604218	41.889305	-14.304170	0.955984	0.000000	-0.293419
46.604218	41.501602	-14.304170	0.955984	0.000000	-0.293419
46.604218	41.113903	-14.304170	0.955984	0.000000	-0.293419
46.604218	40.726204	-14.304170	0.955984	0.000000	-0.293419
46.604218	40.338501	-14.304170	0.955984	0.000000	-0.293419
46.604218	39.563103	-14.304170	0.955984	0.000000	-0.293419
46.604218	39.175400	-14.304170	0.955984	0.000000	-0.293419
46.604218	38.787701	-14.304170	0.955984	0.000000	-0.293419
46.604218	43.052406	-14.304170	0.955984	0.000000	-0.293419
46.604218	38.400002	-14.304170	0.955984	0.000000	-0.293419
46.604218	39.950802	-14.304170	0.955984	0.000000	-0.293419
46.604218	42.664703	-14.304170	0.955984	0.000000	-0.293419
42.811363	38.400002	-14.270454	0.000000	-1.000000	0.000000
41.180454	38.400002	-14.270454	0.000000	-1.000000	0.000000
-41.180454	38.400002	-14.270454	0.000000	-1.000000	0.000000
43.219090	38.400002	-14.270454	0.000000	-1.000000	0.000000
40.772728	38.400002	-14.270454	0.000000	-1.000000	0.000000
-43.219090	38.400002	-14.270454	0.000000	-1.000000	0.000000
-38.326363	38.400002	-14.270454	0.000000	-1.000000	0.000000
-42.811363	38.400002	-14.270454	0.000000	-1.000000	0.000000
40.365002	38.400002	-14.270454	0.000000	-1.000000	0.000000
-39.957272	38.400002	-14.270454	0.000000	-1.000000	0.000000
-44.034546	38.400002	-14.270454	0.000000	-1.000000	0.000000
-42.403637	38.400002	-14.270454	0.000000	-1.000000	0.000000
44.849998	38.400002	-14.270454	0.000000	-1.000000	0.000000
44.442272	38.400002	-14.270454	0.000000	-1.000000	0.000000
-37.510910	38.400002	-14.270454	0.000000	-1.000000	0.000000
-37.918636	38.400002	-14.270454	0.000000	-1.000000	0.000000
37.365639	38.400002	-14.270454	0.000000	-1.000000	0.000000
-37.367329	38.400002	-14.270454	0.000000	-1.000000	0.000000
-46.614120	38.400002	-14.270454	-0.956195	0.000000	-0.292730
44.034546	38.400002	-14.270454	0.000000	-1.000000	0.000000
-39.141819	38.400002	-14.270454	0.000000	-1.000000	0.000000
45.665455	38.400002	-14.270454	0.000000	-1.000000	0.000000
-43.626820	38.400002	-14.270454	0.000000	-1.000000	0.000000
46.480907	38.400002	-14.270454	0.000000	-1.000000	0.000000
-45.257729	38.400002	-14.270454	0.000000	-1.000000	0.000000
46.073181	38.400002	-14.270454	0.000000	-1.000000	0.000000
42.403637	38.400002	-14.270454	0.000000	-1.000000	0.000000
41.995911	38.400002	-14.270454	0.000000	-1.000000	0.000000
41.588181	38.400002	-14.270454	0.000000	-1.000000	0.000000
-41.588181	38.400002	-14.270454	0.000000	-1.000000	0.000000
-40.365002	38.400002	-14.270454	0.000000	-1.000000	0.000000
-40.772728	38.400002	-14.270454	0.000000	-1.000000	0.000000
-44.849998	38.400002	-14.270454	0.000000	-1.000000	0.000000
37.918636	38.400002	-14.270454	0.000000	-1.000000	0.000000
37.510910	38.400002	-14.270454	0.000000	-1.000000	0.000000
39.957272	38.400002	-14.270454	0.000000	-1.000000	0.000000
45.257729	38.400002	-14.270454	0.000000	-1.000000	0.000000
46.614414	38.400002	-14.270454	0.956196	0.000000	-0.292728
38.326363	38.400002	-14.270454	0.000000	-1.000000	0.000000
-45.665455	38.400002	-14.270454	0.000000	-1.000000	0.000000
39.549545	38.400002	-14.270454	0.000000	-1.000000	0.000000
-41.995911	38.400002	-14.270454	0.000000	-1.000000	0.000000
43.626820	38.400002	-14.270454	0.000000	-1.000000	0.000000
-44.442272	38.400002	-14.270454	0.000000	-1.000000	0.000000
-46.073181	38.400002	-14.270454	0.000000	-1.000000	0.000000
-46.480907	38.400002	-14.270454	0.000000	-1.000000	0.000000
38.734093	38.400002	-14.270454	0.000000	-1.000000	0.000000
39.141819	38.400002	-14.270454	0.000000	-1.000000	0.000000
-38.734093	38.400002	-14.270454	0.000000	-1.000000	0.000000
-39.549545	38.400002	-14.270454	0.000000	-1.000000	0.000000
-46.663807	40.338501	-14.108569	-0.957206	0.000000	-0.289407
-46.663807	39.950802	-14.108569	-0.957206	0.000000	-0.289407
-46.663807	43.052406	-14.108569	-0.957206	0.000000	-0.289407
-46.663807	41.113903	-14.108569	-0.957206	0.000000	-0.289407
-46.663807	38.787701	-14.108569	-0.957206	0.000000	-0.289407
-46.663807	39.563103	-14.108569	-0.957206	0.000000	-0.289407
-46.663807	39.175400	-14.108569	-0.957206	0.000000	-0.289407
-46.663807	40.726204	-14.108569	-0.957206	0.000000	-0.289407
-46.663807	41.501602	-14.108569	-0.957206	0.000000	-0.289407
-46.663807	38.400002	-14.108569	-0.957206	0.000000	-0.289407
-46.663807	42.664703	-14.108569	-0.957206	0.000000	-0.289407
-46.663807	42.277004	-14.108569	-0.957206	0.000000	-0.289407
-46.663807	41.889305	-14.108569	-0.957206	0.000000	-0.289407
37.494114	38.400002	-13.935258	0.000000	-1.000000	0.000000
46.722572	41.501602	-13.912720	0.958412	0.000000	-0.285389
46.722572	38.400002	-13.912720	0.958412	0.000000	-0.285389
46.722572	42.664703	-13.912720	0.958412	0.000000	-0.285389
46.722572	39.175400	-13.912720	0.958412	0.000000	-0.285389
46.722572	40.726204	-13.912720	0.958412	0.000000	-0.285389
46.722572	42.277004	-13.912720	0.958412	0.000000	-0.285389
46.722572	43.052406	-13.912720	0.958412	0.000000	-0.285389
46.722572	41.889305	-13.912720	0.958412	0.000000	-0.285389
46.722572	41.113903	-13.912720	0.958412	0.000000	-0.285389
46.722572	38.787701	-13.912720	0.958412	0.000000	-0.285389
46.722572	39.563103	-13.912720	0.958412	0.000000	-0.285389
46.722572	39.950802	-13.912720	0.958412	0.000000	-0.285389
46.722572	40.338501	-13.912720	0.958412	0.000000	-0.285389
37.510910	38.400002	-13.888622	0.000000	-1.000000	0.000000
-37.510910	38.400002	-13.884135	0.000000	-1.000000	0.000000
37.520233	38.400002	-13.862727	0.000000	-1.000000	0.000000
-40.772728	38.400002	-13.862727	0.000000	-1.000000	0.000000
-40.365002	38.400002	-13.862727	0.000000	-1.000000	0.000000
-43.626820	38.400002	-13.862727	0.000000	-1.000000	0.000000
42.403637	38.400002	-13.862727	0.000000	-1.000000	0.000000
40.365002	38.400002	-13.862727	0.000000	-1.000000	0.000000
-41.588181	38.400002	-13.862727	0.000000	-1.000000	0.000000
-44.849998	38.400002	-13.862727	0.000000	-1.000000	0.000000
46.073181	38.400002	-13.862727	0.000000	-1.000000	0.000000
39.957272	38.400002	-13.862727	0.000000	-1.000000	0.000000
-39.957272	38.400002	-13.862727	0.000000	-1.000000	0.000000
-42.811363	38.400002	-13.862727	0.000000	-1.000000	0.000000
-41.995911	38.400002	-13.862727	0.000000	-1.000000	0.000000
-38.326363	38.400002	-13.862727	0.000000	-1.000000	0.000000
45.665455	38.400002	-13.862727	0.000000	-1.000000	0.000000
40.772728	38.400002	-13.862727	0.000000	-1.000000	0.000000
-43.219090	38.400002	-13.862727	0.000000	-1.000000	0.000000
37.918636	38.400002	-13.862727	0.000000	-1.000000	0.000000
41.180454	38.400002	-13.862727	0.000000	-1.000000	0.000000
-39.549545	38.400002	-13.862727	0.000000	-1.000000	0.000000
-38.734093	38.400002	-13.862727	0.000000	-1.000000	0.000000
46.480907	38.400002	-13.862727	0.000000	-1.000000	0.000000
42.811363	38.400002	-13.862727	0.000000	-1.000000	0.000000
41.995911	38.400002	-13.862727	0.000000	-1.000000	0.000000
38.326363	38.400002	-13.862727	0.000000	-1.000000	0.000000
46.737232	38.400002	-13.862727	0.958716	0.000000	-0.284365
44.034546	38.400002	-13.862727	0.000000	-1.000000	0.000000
-45.257729	38.400002	-13.862727	0.000000	-1.000000	0.000000
45.257729	38.400002	-13.862727	0.000000	-1.000000	0.000000
-45.665455	38.400002	-13.862727	0.000000	-1.000000	0.000000
39.549545	38.400002	-13.862727	0.000000	-1.000000	0.000000
-44.442272	38.400002	-13.862727	0.000000	-1.000000	0.000000
43.626820	38.400002	-13.862727	0.000000	-1.000000	0.000000
41.588181	38.400002	-13.862727	0.000000	-1.000000	0.000000
-46.737011	38.400002	-13.862727	-0.958716	0.000000	-0.284366
-41.180454	38.400002	-13.862727	0.000000	-1.000000	0.000000
43.219090	38.400002	-13.862727	0.000000	-1.000000	0.000000
-37.918636	38.400002	-13.862727	0.000000	-1.000000	0.000000
38.734093	38.400002	-13.862727	0.000000	-1.000000	0.000000
44.849998	38.400002	-13.862727	0.000000	-1.000000	0.000000
-46.073181	38.400002	-13.862727	0.000000	-1.000000	0.000000
-46.480907	38.400002	-13.862727	0.000000	-1.000000	0.000000
-42.403637	38.400002	-13.862727	0.000000	-1.000000	0.000000
-37.518867	38.400002	-13.862727	0.000000	-1.000000	0.000000
-39.141819	38.400002	-13.862727	0.000000	-1.000000	0.000000
44.442272	38.400002	-13.862727	0.000000	-1.000000	0.000000
-44.034546	38.400002	-13.862727	0.000000	-1.000000	0.000000
39.141819	38.400002	-13.862727	0.000000	-1.000000	0.000000
-46.780518	42.277004	-13.716625	-0.959600	0.000000	-0.281367
-46.780518	39.950802	-13.716625	-0.959600	0.000000	-0.281367
-46.780518	40.338501	-13.716625	-0.959600	0.000000	-0.281367
-46.780518	38.787701	-13.716625	-0.959600	0.000000	-0.281367
-46.780518	42.664703	-13.716625	-0.959600	0.000000	-0.281367
-46.780518	43.052406	-13.716625	-0.959600	0.000000	-0.281367
-46.780518	39.175400	-13.716625	-0.959600	0.000000	-0.281367
-46.780518	40.726204	-13.716625	-0.959600	0.000000	-0.281367
-46.780518	38.400002	-13.716625	-0.959600	0.000000	-0.281367
-46.780518	41.501602	-13.716625	-0.959600	0.000000	-0.281367
-46.780518	39.563103	-13.716625	-0.959600	0.000000	-0.281367
-46.780518	41.889305	-13.716625	-0.959600	0.000000	-0.281367
-46.780518	41.113903	-13.716625	-0.959600	0.000000	-0.281367
-37.633854	38.400002	-13.553343	0.000000	-1.000000	0.000000
46.837639	38.787701	-13.520290	0.960772	0.000000	-0.277339
46.837639	38.400002	-13.520290	0.960772	0.000000	-0.277339
46.837639	42.664703	-13.520290	0.960772	0.000000	-0.277339
46.837639	42.277004	-13.520290	0.960772	0.000000	-0.277339
46.837639	41.889305	-13.520290	0.960772	0.000000	-0.277339
46.837639	41.501602	-13.520290	0.960772	0.000000	-0.277339
46.837639	41.113903	-13.520290	0.960772	0.000000	-0.277339
46.837639	40.726204	-13.520290	0.960772	0.000000	-0.277339
46.837639	40.338501	-13.520290	0.960772	0.000000	-0.277339
46.837639	39.950802	-13.520290	0.960772	0.000000	-0.277339
46.837639	39.563103	-13.520290	0.960772	0.000000	-0.277339
46.837639	43.052406	-13.520290	0.960772	0.000000	-0.277339
46.837639	39.175400	-13.520290	0.960772	0.000000	-0.277339
37.667072	38.400002	-13.455000	0.000000	-1.000000	0.000000
38.326363	38.400002	-13.455000	0.000000	-1.000000	0.000000
-46.856037	38.400002	-13.455000	-0.961157	0.000000	-0.276002
37.918636	38.400002	-13.455000	0.000000	-1.000000	0.000000
-41.995911	38.400002	-13.455000	0.000000	-1.000000	0.000000
-43.626820	38.400002	-13.455000	0.000000	-1.000000	0.000000
-42.403637	38.400002	-13.455000	0.000000	-1.000000	0.000000
-42.811363	38.400002	-13.455000	0.000000	-1.000000	0.000000
-43.219090	38.400002	-13.455000	0.000000	-1.000000	0.000000
43.219090	38.400002	-13.455000	0.000000	-1.000000	0.000000
-39.957272	38.400002	-13.455000	0.000000	-1.000000	0.000000
-39.549545	38.400002	-13.455000	0.000000	-1.000000	0.000000
42.811363	38.400002	-13.455000	0.000000	-1.000000	0.000000
42.403637	38.400002	-13.455000	0.000000	-1.000000	0.000000
41.995911	38.400002	-13.455000	0.000000	-1.000000	0.000000
41.588181	38.400002	-13.455000	0.000000	-1.000000	0.000000
-38.734093	38.400002	-13.455000	0.000000	-1.000000	0.000000
41.180454	38.400002	-13.455000	0.000000	-1.000000	0.000000
40.772728	38.400002	-13.455000	0.000000	-1.000000	0.000000
43.626820	38.400002	-13.455000	0.000000	-1.000000	0.000000
-38.326363	38.400002	-13.455000	0.000000	-1.000000	0.000000
40.365002	38.400002	-13.455000	0.000000	-1.000000	0.000000
-37.918636	38.400002	-13.455000	0.000000	-1.000000	0.000000
44.034546	38.400002	-13.455000	0.000000	-1.000000	0.000000
44.442272	38.400002	-13.455000	0.000000	-1.000000	0.000000
44.849998	38.400002	-13.455000	0.000000	-1.000000	0.000000
-41.180454	38.400002	-13.455000	0.000000	-1.000000	0.000000
-46.480907	38.400002	-13.455000	0.000000	-1.000000	0.000000
-46.073181	38.400002	-13.455000	0.000000	-1.000000	0.000000
45.257729	38.400002	-13.455000	0.000000	-1.000000	0.000000
39.957272	38.400002	-13.455000	0.000000	-1.000000	0.000000
-39.141819	38.400002	-13.455000	0.000000	-1.000000	0.000000
-45.665455	38.400002	-13.455000	0.000000	-1.000000	0.000000
45.665455	38.400002	-13.455000	0.000000	-1.000000	0.000000
-45.257729	38.400002	-13.455000	0.000000	-1.000000	0.000000
46.073181	38.400002	-13.455000	0.000000	-1.000000	0.000000
-41.588181	38.400002	-13.455000	0.000000	-1.000000	0.000000
-44.849998	38.400002	-13.455000	0.000000	-1.000000	0.000000
-40.365002	38.400002	-13.455000	0.000000	-1.000000	0.000000
39.549545	38.400002	-13.455000	0.000000	-1.000000	0.000000
46.480907	38.400002	-13.455000	0.000000	-1.000000	0.000000
-44.442272	38.400002	-13.455000	0.000000	-1.000000	0.000000
-40.772728	38.400002	-13.455000	0.000000	-1.000000	0.000000
39.141819	38.400002	-13.455000	0.000000	-1.000000	0.000000
-44.034546	38.400002	-13.455000	0.000000	-1.000000	0.000000
38.734093	38.400002	-13.455000	0.000000	-1.000000	0.000000
-37.668144	38.400002	-13.455000	0.000000	-1.000000	0.000000
46.856186	38.400002	-13.455000	0.961157	0.000000	-0.276001
-46.888638	38.400002	-13.342070	-0.961820	0.000000	-0.273684
46.888638	38.400002	-13.340795	0.961827	0.000000	-0.273660
-46.893936	38.787701	-13.323716	-0.961927	0.000000	-0.273307
-46.893936	39.175400	-13.323716	-0.961927	0.000000	-0.273307
-46.893936	39.563103	-13.323716	-0.961927	0.000000	-0.273307
-46.893936	39.950802	-13.323716	-0.961927	0.000000	-0.273307
-46.893936	40.338501	-13.323716	-0.961927	0.000000	-0.273307
-46.893936	40.726204	-13.323716	-0.961927	0.000000	-0.273307
-46.893936	41.113903	-13.323716	-0.961927	0.000000	-0.273307
-46.893936	41.501602	-13.323716	-0.961927	0.000000	-0.273307
-46.893936	41.889305	-13.323716	-0.961927	0.000000	-0.273307
-46.893936	42.277004	-13.323716	-0.961927	0.000000	-0.273307
-46.893936	42.664703	-13.323716	-0.961927	0.000000	-0.273307
-46.893936	38.400002	-13.323716	-0.961927	0.000000	-0.273307
-46.893936	43.052406	-13.323716	-0.961927	0.000000	-0.273307
37.769703	38.400002	-13.170027	0.000000	-1.000000	0.000000
46.949406	41.501602	-13.126909	0.963065	0.000000	-0.269270
46.949406	41.113903	-13.126909	0.963065	0.000000	-0.269270
46.949406	40.726204	-13.126909	0.963065	0.000000	-0.269270
46.949406	40.338501	-13.126909	0.963065	0.000000	-0.269270
46.949406	42.664703	-13.126909	0.963065	0.000000	-0.269270
46.949406	39.950802	-13.126909	0.963065	0.000000	-0.269270
46.949406	39.563103	-13.126909	0.963065	0.000000	-0.269270
46.949406	39.175400	-13.126909	0.963065	0.000000	-0.269270
46.949406	38.787701	-13.126909	0.963065	0.000000	-0.269270
46.949406	43.052406	-13.126909	0.963065	0.000000	-0.269270
46.949406	38.400002	-13.126909	0.963065	0.000000	-0.269270
46.949406	42.277004	-13.126909	0.963065	0.000000	-0.269270
46.949406	41.889305	-13.126909	0.963065	0.000000	-0.269270
-46.971226	38.400002	-13.047273	-0.963519	0.000000	-0.267638
-46.480907	38.400002	-13.047273	0.000000	-1.000000	0.000000
-45.665455	38.400002	-13.047273	0.000000	-1.000000	0.000000
-40.772728	38.400002	-13.047273	0.000000	-1.000000	0.000000
-44.442272	38.400002	-13.047273	0.000000	-1.000000	0.000000
-46.888638	38.400002	-13.047273	0.000000	-1.000000	0.000000
-42.811363	38.400002	-13.047273	0.000000	-1.000000	0.000000
-43.219090	38.400002	-13.047273	0.000000	-1.000000	0.000000
43.219090	38.400002	-13.047273	0.000000	-1.000000	0.000000
-45.257729	38.400002	-13.047273	0.000000	-1.000000	0.000000
-37.918636	38.400002	-13.047273	0.000000	-1.000000	0.000000
-39.549545	38.400002	-13.047273	0.000000	-1.000000	0.000000
44.442272	38.400002	-13.047273	0.000000	-1.000000	0.000000
42.811363	38.400002	-13.047273	0.000000	-1.000000	0.000000
46.971313	38.400002	-13.047273	0.963520	0.000000	-0.267638
37.811111	38.400002	-13.047273	0.000000	-1.000000	0.000000
-38.326363	38.400002	-13.047273	0.000000	-1.000000	0.000000
39.141819	38.400002	-13.047273	0.000000	-1.000000	0.000000
45.257729	38.400002	-13.047273	0.000000	-1.000000	0.000000
-38.734093	38.400002	-13.047273	0.000000	-1.000000	0.000000
40.365002	38.400002	-13.047273	0.000000	-1.000000	0.000000
41.180454	38.400002	-13.047273	0.000000	-1.000000	0.000000
40.772728	38.400002	-13.047273	0.000000	-1.000000	0.000000
43.626820	38.400002	-13.047273	0.000000	-1.000000	0.000000
-41.995911	38.400002	-13.047273	0.000000	-1.000000	0.000000
38.326363	38.400002	-13.047273	0.000000	-1.000000	0.000000
37.918636	38.400002	-13.047273	0.000000	-1.000000	0.000000
-40.365002	38.400002	-13.047273	0.000000	-1.000000	0.000000
-37.810318	38.400002	-13.047273	0.000000	-1.000000	0.000000
39.957272	38.400002	-13.047273	0.000000	-1.000000	0.000000
42.403637	38.400002	-13.047273	0.000000	-1.000000	0.000000
-44.849998	38.400002	-13.047273	0.000000	-1.000000	0.000000
46.888638	38.400002	-13.047273	0.000000	-1.000000	0.000000
39.549545	38.400002	-13.047273	0.000000	-1.000000	0.000000
44.034546	38.400002	-13.047273	0.000000	-1.000000	0.000000
-43.626820	38.400002	-13.047273	0.000000	-1.000000	0.000000
45.665455	38.400002	-13.047273	0.000000	-1.000000	0.000000
38.734093	38.400002	-13.047273	0.000000	-1.000000	0.000000
-41.588181	38.400002	-13.047273	0.000000	-1.000000	0.000000
-44.034546	38.400002	-13.047273	0.000000	-1.000000	0.000000
-39.957272	38.400002	-13.047273	0.000000	-1.000000	0.000000
-41.180454	38.400002	-13.047273	0.000000	-1.000000	0.000000
-46.073181	38.400002	-13.047273	0.000000	-1.000000	0.000000
44.849998	38.400002	-13.047273	0.000000	-1.000000	0.000000
-39.141819	38.400002	-13.047273	0.000000	-1.000000	0.000000
-42.403637	38.400002	-13.047273	0.000000	-1.000000	0.000000
41.995911	38.400002	-13.047273	0.000000	-1.000000	0.000000
46.073181	38.400002	-13.047273	0.000000	-1.000000	0.000000
41.588181	38.400002	-13.047273	0.000000	-1.000000	0.000000
46.480907	38.400002	-13.047273	0.000000	-1.000000	0.000000
-47.004051	38.787701	-12.929871	-0.964186	0.000000	-0.265228
-47.004051	39.175400	-12.929871	-0.964186	0.000000	-0.265228
-47.004051	39.563103	-12.929871	-0.964186	0.000000	-0.265228
-47.004051	39.950802	-12.929871	-0.964186	0.000000	-0.265228
-47.004051	40.338501	-12.929871	-0.964186	0.000000	-0.265228
-47.004051	40.726204	-12.929871	-0.964186	0.000000	-0.265228
-47.004051	41.113903	-12.929871	-0.964186	0.000000	-0.265228
-47.004051	41.501602	-12.929871	-0.964186	0.000000	-0.265228
-47.004051	41.889305	-12.929871	-0.964186	0.000000	-0.265228
-47.004051	42.664703	-12.929871	-0.964186	0.000000	-0.265228
-47.004051	38.400002	-12.929871	-0.964186	0.000000	-0.265228
-47.004051	42.277004	-12.929871	-0.964186	0.000000	-0.265228
-47.004051	43.052406	-12.929871	-0.964186	0.000000	-0.265228
-37.901646	38.400002	-12.785350	0.000000	-1.000000	0.000000
-37.918636	38.400002	-12.733242	0.000000	-1.000000	0.000000
47.057873	38.787701	-12.732604	0.965290	0.000000	-0.261182
47.057873	41.501602	-12.732604	0.965290	0.000000	-0.261182
47.057873	39.563103	-12.732604	0.965290	0.000000	-0.261182
47.057873	42.277004	-12.732604	0.965290	0.000000	-0.261182
47.057873	42.664703	-12.732604	0.965290	0.000000	-0.261182
47.057873	39.175400	-12.732604	0.965290	0.000000	-0.261182
47.057873	40.338501	-12.732604	0.965290	0.000000	-0.261182
47.057873	39.950802	-12.732604	0.965290	0.000000	-0.261182
47.057873	40.726204	-12.732604	0.965290	0.000000	-0.261182
47.057873	38.400002	-12.732604	0.965290	0.000000	-0.261182
47.057873	41.113903	-12.732604	0.965290	0.000000	-0.261182
47.057873	43.052406	-12.732604	0.965290	0.000000	-0.261182
47.057873	41.889305	-12.732604	0.965290	0.000000	-0.261182
37.918636	38.400002	-12.728518	0.000000	-1.000000	0.000000
-37.949184	38.400002	-12.639545	0.000000	-1.000000	0.000000
-47.082607	38.400002	-12.639545	-0.965804	0.000000	-0.259275
-46.888638	38.400002	-12.639545	0.000000	-1.000000	0.000000
39.141819	38.400002	-12.639545	0.000000	-1.000000	0.000000
-43.219090	38.400002	-12.639545	0.000000	-1.000000	0.000000
46.888638	38.400002	-12.639545	0.000000	-1.000000	0.000000
41.180454	38.400002	-12.639545	0.000000	-1.000000	0.000000
-41.995911	38.400002	-12.639545	0.000000	-1.000000	0.000000
43.219090	38.400002	-12.639545	0.000000	-1.000000	0.000000
-45.257729	38.400002	-12.639545	0.000000	-1.000000	0.000000
-39.549545	38.400002	-12.639545	0.000000	-1.000000	0.000000
-44.849998	38.400002	-12.639545	0.000000	-1.000000	0.000000
42.811363	38.400002	-12.639545	0.000000	-1.000000	0.000000
42.403637	38.400002	-12.639545	0.000000	-1.000000	0.000000
44.034546	38.400002	-12.639545	0.000000	-1.000000	0.000000
43.626820	38.400002	-12.639545	0.000000	-1.000000	0.000000
45.665455	38.400002	-12.639545	0.000000	-1.000000	0.000000
-39.141819	38.400002	-12.639545	0.000000	-1.000000	0.000000
39.957272	38.400002	-12.639545	0.000000	-1.000000	0.000000
41.995911	38.400002	-12.639545	0.000000	-1.000000	0.000000
41.588181	38.400002	-12.639545	0.000000	-1.000000	0.000000
-40.772728	38.400002	-12.639545	0.000000	-1.000000	0.000000
-46.073181	38.400002	-12.639545	0.000000	-1.000000	0.000000
-43.626820	38.400002	-12.639545	0.000000	-1.000000	0.000000
-40.365002	38.400002	-12.639545	0.000000	-1.000000	0.000000
-38.326363	38.400002	-12.639545	0.000000	-1.000000	0.000000
-44.442272	38.400002	-12.639545	0.000000	-1.000000	0.000000
38.326363	38.400002	-12.639545	0.000000	-1.000000	0.000000
-45.665455	38.400002	-12.639545	0.000000	-1.000000	0.000000
39.549545	38.400002	-12.639545	0.000000	-1.000000	0.000000
38.734093	38.400002	-12.639545	0.000000	-1.000000	0.000000
44.442272	38.400002	-12.639545	0.000000	-1.000000	0.000000
-41.588181	38.400002	-12.639545	0.000000	-1.000000	0.000000
45.257729	38.400002	-12.639545	0.000000	-1.000000	0.000000
-41.180454	38.400002	-12.639545	0.000000	-1.000000	0.000000
-44.034546	38.400002	-12.639545	0.000000	-1.000000	0.000000
-38.734093	38.400002	-12.639545	0.000000	-1.000000	0.000000
44.849998	38.400002	-12.639545	0.000000	-1.000000	0.000000
40.365002	38.400002	-12.639545	0.000000	-1.000000	0.000000
-42.403637	38.400002	-12.639545	0.000000	-1.000000	0.000000
-39.957272	38.400002	-12.639545	0.000000	-1.000000	0.000000
46.480907	38.400002	-12.639545	0.000000	-1.000000	0.000000
40.772728	38.400002	-12.639545	0.000000	-1.000000	0.000000
46.073181	38.400002	-12.639545	0.000000	-1.000000	0.000000
-42.811363	38.400002	-12.639545	0.000000	-1.000000	0.000000
-46.480907	38.400002	-12.639545	0.000000	-1.000000	0.000000
37.948650	38.400002	-12.639545	0.000000	-1.000000	0.000000
47.082634	38.400002	-12.639545	0.965804	0.000000	-0.259274
-47.110863	38.787701	-12.535114	-0.966377	0.000000	-0.257131
-47.110863	39.563103	-12.535114	-0.966377	0.000000	-0.257131
-47.110863	39.950802	-12.535114	-0.966377	0.000000	-0.257131
-47.110863	40.338501	-12.535114	-0.966377	0.000000	-0.257131
-47.110863	40.726204	-12.535114	-0.966377	0.000000	-0.257131
-47.110863	41.113903	-12.535114	-0.966377	0.000000	-0.257131
-47.110863	41.501602	-12.535114	-0.966377	0.000000	-0.257131
-47.110863	41.889305	-12.535114	-0.966377	0.000000	-0.257131
-47.110863	42.277004	-12.535114	-0.966377	0.000000	-0.257131
-47.110863	39.175400	-12.535114	-0.966377	0.000000	-0.257131
-47.110863	38.400002	-12.535114	-0.966377	0.000000	-0.257131
-47.110863	43.052406	-12.535114	-0.966377	0.000000	-0.257131
-47.110863	42.664703	-12.535114	-0.966377	0.000000	-0.257131
38.029675	38.400002	-12.399351	0.000000	-1.000000	0.000000
47.163025	40.338501	-12.337403	0.967447	0.000000	-0.253075
47.163025	39.563103	-12.337403	0.967447	0.000000	-0.253075
47.163025	38.400002	-12.337403	0.967447	0.000000	-0.253075
47.163025	41.501602	-12.337403	0.967447	0.000000	-0.253075
47.163025	43.052406	-12.337403	0.967447	0.000000	-0.253075
47.163025	42.664703	-12.337403	0.967447	0.000000	-0.253075
47.163025	38.787701	-12.337403	0.967447	0.000000	-0.253075
47.163025	41.113903	-12.337403	0.967447	0.000000	-0.253075
47.163025	41.889305	-12.337403	0.967447	0.000000	-0.253075
47.163025	40.726204	-12.337403	0.967447	0.000000	-0.253075
47.163025	39.175400	-12.337403	0.967447	0.000000	-0.253075
47.163025	42.277004	-12.337403	0.967447	0.000000	-0.253075
47.163025	39.950802	-12.337403	0.967447	0.000000	-0.253075
-47.190201	38.400002	-12.231818	-0.968010	0.000000	-0.250911
40.772728	38.400002	-12.231818	0.000000	-1.000000	0.000000
-39.957272	38.400002	-12.231818	0.000000	-1.000000	0.000000
38.734093	38.400002	-12.231818	0.000000	-1.000000	0.000000
41.180454	38.400002	-12.231818	0.000000	-1.000000	0.000000
-38.082123	38.400002	-12.231818	0.000000	-1.000000	0.000000
-40.365002	38.400002	-12.231818	0.000000	-1.000000	0.000000
40.365002	38.400002	-12.231818	0.000000	-1.000000	0.000000
-46.073181	38.400002	-12.231818	0.000000	-1.000000	0.000000
-38.734093	38.400002	-12.231818	0.000000	-1.000000	0.000000
41.588181	38.400002	-12.231818	0.000000	-1.000000	0.000000
-40.772728	38.400002	-12.231818	0.000000	-1.000000	0.000000
39.957272	38.400002	-12.231818	0.000000	-1.000000	0.000000
41.995911	38.400002	-12.231818	0.000000	-1.000000	0.000000
-39.141819	38.400002	-12.231818	0.000000	-1.000000	0.000000
45.665455	38.400002	-12.231818	0.000000	-1.000000	0.000000
42.403637	38.400002	-12.231818	0.000000	-1.000000	0.000000
43.626820	38.400002	-12.231818	0.000000	-1.000000	0.000000
42.811363	38.400002	-12.231818	0.000000	-1.000000	0.000000
-39.549545	38.400002	-12.231818	0.000000	-1.000000	0.000000
-45.257729	38.400002	-12.231818	0.000000	-1.000000	0.000000
43.219090	38.400002	-12.231818	0.000000	-1.000000	0.000000
45.257729	38.400002	-12.231818	0.000000	-1.000000	0.000000
-43.219090	38.400002	-12.231818	0.000000	-1.000000	0.000000
-44.442272	38.400002	-12.231818	0.000000	-1.000000	0.000000
-46.888638	38.400002	-12.231818	0.000000	-1.000000	0.000000
-46.480907	38.400002	-12.231818	0.000000	-1.000000	0.000000
-42.811363	38.400002	-12.231818	0.000000	-1.000000	0.000000
46.073181	38.400002	-12.231818	0.000000	-1.000000	0.000000
44.849998	38.400002	-12.231818	0.000000	-1.000000	0.000000
-42.403637	38.400002	-12.231818	0.000000	-1.000000	0.000000
-41.180454	38.400002	-12.231818	0.000000	-1.000000	0.000000
-41.588181	38.400002	-12.231818	0.000000	-1.000000	0.000000
-41.995911	38.400002	-12.231818	0.000000	-1.000000	0.000000
-43.626820	38.400002	-12.231818	0.000000	-1.000000	0.000000
-44.849998	38.400002	-12.231818	0.000000	-1.000000	0.000000
38.082420	38.400002	-12.231818	0.000000	-1.000000	0.000000
-45.665455	38.400002	-12.231818	0.000000	-1.000000	0.000000
38.326363	38.400002	-12.231818	0.000000	-1.000000	0.000000
39.549545	38.400002	-12.231818	0.000000	-1.000000	0.000000
-44.034546	38.400002	-12.231818	0.000000	-1.000000	0.000000
46.480907	38.400002	-12.231818	0.000000	-1.000000	0.000000
46.888638	38.400002	-12.231818	0.000000	-1.000000	0.000000
39.141819	38.400002	-12.231818	0.000000	-1.000000	0.000000
44.034546	38.400002	-12.231818	0.000000	-1.000000	0.000000
47.190174	38.400002	-12.231818	0.968010	0.000000	-0.250911
44.442272	38.400002	-12.231818	0.000000	-1.000000	0.000000
-38.326363	38.400002	-12.231818	0.000000	-1.000000	0.000000
-47.214359	38.787701	-12.139476	-0.968500	0.000000	-0.249015
-47.214359	39.175400	-12.139476	-0.968500	0.000000	-0.249015
-47.214359	39.563103	-12.139476	-0.968500	0.000000	-0.249015
-47.214359	39.950802	-12.139476	-0.968500	0.000000	-0.249015
-47.214359	40.338501	-12.139476	-0.968500	0.000000	-0.249015
-47.214359	40.726204	-12.139476	-0.968500	0.000000	-0.249015
-47.214359	41.113903	-12.139476	-0.968500	0.000000	-0.249015
-47.214359	41.501602	-12.139476	-0.968500	0.000000	-0.249015
-47.214359	41.889305	-12.139476	-0.968500	0.000000	-0.249015
-47.214359	42.277004	-12.139476	-0.968500	0.000000	-0.249015
-47.214359	42.664703	-12.139476	-0.968500	0.000000	-0.249015
-47.214359	38.400002	-12.139476	-0.968500	0.000000	-0.249015
-47.214359	43.052406	-12.139476	-0.968500	0.000000	-0.249015
-38.153770	38.400002	-12.012071	0.000000	-1.000000	0.000000
47.264862	41.501602	-11.941334	0.969536	0.000000	-0.244950
47.264862	39.563103	-11.941334	0.969536	0.000000	-0.244950
47.264862	41.889305	-11.941334	0.969536	0.000000	-0.244950
47.264862	39.175400	-11.941334	0.969536	0.000000	-0.244950
47.264862	41.113903	-11.941334	0.969536	0.000000	-0.244950
47.264862	39.950802	-11.941334	0.969536	0.000000	-0.244950
47.264862	38.400002	-11.941334	0.969536	0.000000	-0.244950
47.264862	40.338501	-11.941334	0.969536	0.000000	-0.244950
47.264862	40.726204	-11.941334	0.969536	0.000000	-0.244950
47.264862	42.664703	-11.941334	0.969536	0.000000	-0.244950
47.264862	43.052406	-11.941334	0.969536	0.000000	-0.244950
47.264862	38.787701	-11.941334	0.969536	0.000000	-0.244950
47.264862	42.277004	-11.941334	0.969536	0.000000	-0.244950
-42.811363	38.400002	-11.824091	0.000000	-1.000000	0.000000
-47.294041	38.400002	-11.824091	-0.970140	0.000000	-0.242547
39.957272	38.400002	-11.824091	0.000000	-1.000000	0.000000
-46.480907	38.400002	-11.824091	0.000000	-1.000000	0.000000
38.734093	38.400002	-11.824091	0.000000	-1.000000	0.000000
38.326363	38.400002	-11.824091	0.000000	-1.000000	0.000000
-44.849998	38.400002	-11.824091	0.000000	-1.000000	0.000000
-43.626820	38.400002	-11.824091	0.000000	-1.000000	0.000000
39.549545	38.400002	-11.824091	0.000000	-1.000000	0.000000
-41.588181	38.400002	-11.824091	0.000000	-1.000000	0.000000
-45.665455	38.400002	-11.824091	0.000000	-1.000000	0.000000
-41.180454	38.400002	-11.824091	0.000000	-1.000000	0.000000
-44.034546	38.400002	-11.824091	0.000000	-1.000000	0.000000
-42.403637	38.400002	-11.824091	0.000000	-1.000000	0.000000
46.480907	38.400002	-11.824091	0.000000	-1.000000	0.000000
40.365002	38.400002	-11.824091	0.000000	-1.000000	0.000000
-46.073181	38.400002	-11.824091	0.000000	-1.000000	0.000000
46.073181	38.400002	-11.824091	0.000000	-1.000000	0.000000
41.995911	38.400002	-11.824091	0.000000	-1.000000	0.000000
47.293961	38.400002	-11.824091	0.970140	0.000000	-0.242547
-46.888638	38.400002	-11.824091	0.000000	-1.000000	0.000000
-40.365002	38.400002	-11.824091	0.000000	-1.000000	0.000000
41.588181	38.400002	-11.824091	0.000000	-1.000000	0.000000
41.180454	38.400002	-11.824091	0.000000	-1.000000	0.000000
-43.219090	38.400002	-11.824091	0.000000	-1.000000	0.000000
46.888638	38.400002	-11.824091	0.000000	-1.000000	0.000000
43.219090	38.400002	-11.824091	0.000000	-1.000000	0.000000
-45.257729	38.400002	-11.824091	0.000000	-1.000000	0.000000
44.849998	38.400002	-11.824091	0.000000	-1.000000	0.000000
-39.549545	38.400002	-11.824091	0.000000	-1.000000	0.000000
44.442272	38.400002	-11.824091	0.000000	-1.000000	0.000000
40.772728	38.400002	-11.824091	0.000000	-1.000000	0.000000
39.141819	38.400002	-11.824091	0.000000	-1.000000	0.000000
-44.442272	38.400002	-11.824091	0.000000	-1.000000	0.000000
45.257729	38.400002	-11.824091	0.000000	-1.000000	0.000000
43.626820	38.400002	-11.824091	0.000000	-1.000000	0.000000
45.665455	38.400002	-11.824091	0.000000	-1.000000	0.000000
42.811363	38.400002	-11.824091	0.000000	-1.000000	0.000000
44.034546	38.400002	-11.824091	0.000000	-1.000000	0.000000
-41.995911	38.400002	-11.824091	0.000000	-1.000000	0.000000
-40.772728	38.400002	-11.824091	0.000000	-1.000000	0.000000
-39.957272	38.400002	-11.824091	0.000000	-1.000000	0.000000
-38.326363	38.400002	-11.824091	0.000000	-1.000000	0.000000
42.403637	38.400002	-11.824091	0.000000	-1.000000	0.000000
-38.734093	38.400002	-11.824091	0.000000	-1.000000	0.000000
-39.141819	38.400002	-11.824091	0.000000	-1.000000	0.000000
38.210785	38.400002	-11.824091	0.000000	-1.000000	0.000000
-38.210857	38.400002	-11.824091	0.000000	-1.000000	0.000000
-47.296364	38.400002	-11.814891	-0.970187	0.000000	-0.242358
47.296364	38.400002	-11.814403	0.970189	0.000000	-0.242349
-47.314529	39.175400	-11.742983	-0.970554	0.000000	-0.240882
-47.314529	40.338501	-11.742983	-0.970554	0.000000	-0.240882
-47.314529	41.113903	-11.742983	-0.970554	0.000000	-0.240882
-47.314529	42.277004	-11.742983	-0.970554	0.000000	-0.240882
-47.314529	40.726204	-11.742983	-0.970554	0.000000	-0.240882
-47.314529	43.052406	-11.742983	-0.970554	0.000000	-0.240882
-47.314529	38.400002	-11.742983	-0.970554	0.000000	-0.240882
-47.314529	39.950802	-11.742983	-0.970554	0.000000	-0.240882
-47.314529	39.563103	-11.742983	-0.970554	0.000000	-0.240882
-47.314529	42.664703	-11.742983	-0.970554	0.000000	-0.240882
-47.314529	38.787701	-11.742983	-0.970554	0.000000	-0.240882
-47.314529	41.501602	-11.742983	-0.970554	0.000000	-0.240882
-47.314529	41.889305	-11.742983	-0.970554	0.000000	-0.240882
38.273922	38.400002	-11.623548	0.000000	-1.000000	0.000000
47.363369	42.277004	-11.544425	0.971556	0.000000	-0.236809
47.363369	43.052406	-11.544425	0.971556	0.000000	-0.236809
47.363369	42.664703	-11.544425	0.971556	0.000000	-0.236809
47.363369	39.175400	-11.544425	0.971556	0.000000	-0.236809
47.363369	39.563103	-11.544425	0.971556	0.000000	-0.236809
47.363369	39.950802	-11.544425	0.971556	0.000000	-0.236809
47.363369	40.338501	-11.544425	0.971556	0.000000	-0.236809
47.363369	40.726204	-11.544425	0.971556	0.000000	-0.236809
47.363369	41.113903	-11.544425	0.971556	0.000000	-0.236809
47.363369	38.400002	-11.544425	0.971556	0.000000	-0.236809
47.363369	38.787701	-11.544425	0.971556	0.000000	-0.236809
47.363369	41.501602	-11.544425	0.971556	0.000000	-0.236809
47.363369	41.889305	-11.544425	0.971556	0.000000	-0.236809
38.326363	38.400002	-11.444337	0.000000	-1.000000	0.000000
-38.326363	38.400002	-11.443755	0.000000	-1.000000	0.000000
40.772728	38.400002	-11.416364	0.000000	-1.000000	0.000000
43.626820	38.400002	-11.416364	0.000000	-1.000000	0.000000
44.849998	38.400002	-11.416364	0.000000	-1.000000	0.000000
40.365002	38.400002	-11.416364	0.000000	-1.000000	0.000000
-40.772728	38.400002	-11.416364	0.000000	-1.000000	0.000000
47.296364	38.400002	-11.416364	0.000000	-1.000000	0.000000
-42.403637	38.400002	-11.416364	0.000000	-1.000000	0.000000
41.995911	38.400002	-11.416364	0.000000	-1.000000	0.000000
46.480907	38.400002	-11.416364	0.000000	-1.000000	0.000000
39.957272	38.400002	-11.416364	0.000000	-1.000000	0.000000
-46.073181	38.400002	-11.416364	0.000000	-1.000000	0.000000
-47.296364	38.400002	-11.416364	0.000000	-1.000000	0.000000
-41.180454	38.400002	-11.416364	0.000000	-1.000000	0.000000
42.403637	38.400002	-11.416364	0.000000	-1.000000	0.000000
-39.957272	38.400002	-11.416364	0.000000	-1.000000	0.000000
42.811363	38.400002	-11.416364	0.000000	-1.000000	0.000000
45.257729	38.400002	-11.416364	0.000000	-1.000000	0.000000
-41.995911	38.400002	-11.416364	0.000000	-1.000000	0.000000
-41.588181	38.400002	-11.416364	0.000000	-1.000000	0.000000
39.549545	38.400002	-11.416364	0.000000	-1.000000	0.000000
-43.626820	38.400002	-11.416364	0.000000	-1.000000	0.000000
-47.394142	38.400002	-11.416364	-0.972193	0.000000	-0.234183
45.665455	38.400002	-11.416364	0.000000	-1.000000	0.000000
-44.849998	38.400002	-11.416364	0.000000	-1.000000	0.000000
47.394016	38.400002	-11.416364	0.972192	0.000000	-0.234184
39.141819	38.400002	-11.416364	0.000000	-1.000000	0.000000
38.734093	38.400002	-11.416364	0.000000	-1.000000	0.000000
44.442272	38.400002	-11.416364	0.000000	-1.000000	0.000000
-38.334682	38.400002	-11.416364	0.000000	-1.000000	0.000000
-39.549545	38.400002	-11.416364	0.000000	-1.000000	0.000000
-45.257729	38.400002	-11.416364	0.000000	-1.000000	0.000000
43.219090	38.400002	-11.416364	0.000000	-1.000000	0.000000
46.888638	38.400002	-11.416364	0.000000	-1.000000	0.000000
-38.734093	38.400002	-11.416364	0.000000	-1.000000	0.000000
-46.888638	38.400002	-11.416364	0.000000	-1.000000	0.000000
-46.480907	38.400002	-11.416364	0.000000	-1.000000	0.000000
-43.219090	38.400002	-11.416364	0.000000	-1.000000	0.000000
41.588181	38.400002	-11.416364	0.000000	-1.000000	0.000000
41.180454	38.400002	-11.416364	0.000000	-1.000000	0.000000
-39.141819	38.400002	-11.416364	0.000000	-1.000000	0.000000
-40.365002	38.400002	-11.416364	0.000000	-1.000000	0.000000
-42.811363	38.400002	-11.416364	0.000000	-1.000000	0.000000
-44.034546	38.400002	-11.416364	0.000000	-1.000000	0.000000
46.073181	38.400002	-11.416364	0.000000	-1.000000	0.000000
-44.442272	38.400002	-11.416364	0.000000	-1.000000	0.000000
44.034546	38.400002	-11.416364	0.000000	-1.000000	0.000000
-45.665455	38.400002	-11.416364	0.000000	-1.000000	0.000000
38.334549	38.400002	-11.416364	0.000000	-1.000000	0.000000
-47.411373	41.501602	-11.345664	-0.972541	0.000000	-0.232732
-47.411373	41.113903	-11.345664	-0.972541	0.000000	-0.232732
-47.411373	42.664703	-11.345664	-0.972541	0.000000	-0.232732
-47.411373	38.400002	-11.345664	-0.972541	0.000000	-0.232732
-47.411373	40.338501	-11.345664	-0.972541	0.000000	-0.232732
-47.411373	39.950802	-11.345664	-0.972541	0.000000	-0.232732
-47.411373	42.277004	-11.345664	-0.972541	0.000000	-0.232732
-47.411373	43.052406	-11.345664	-0.972541	0.000000	-0.232732
-47.411373	41.889305	-11.345664	-0.972541	0.000000	-0.232732
-47.411373	39.563103	-11.345664	-0.972541	0.000000	-0.232732
-47.411373	39.175400	-11.345664	-0.972541	0.000000	-0.232732
-47.411373	38.787701	-11.345664	-0.972541	0.000000	-0.232732
-47.411373	40.726204	-11.345664	-0.972541	0.000000	-0.232732
-38.390118	38.400002	-11.233825	0.000000	-1.000000	0.000000
47.458546	40.338501	-11.146703	0.973509	0.000000	-0.228650
47.458546	38.787701	-11.146703	0.973509	0.000000	-0.228650
47.458546	39.950802	-11.146703	0.973509	0.000000	-0.228650
47.458546	39.563103	-11.146703	0.973509	0.000000	-0.228650
47.458546	39.175400	-11.146703	0.973509	0.000000	-0.228650
47.458546	40.726204	-11.146703	0.973509	0.000000	-0.228650
47.458546	41.113903	-11.146703	0.973509	0.000000	-0.228650
47.458546	41.501602	-11.146703	0.973509	0.000000	-0.228650
47.458546	41.889305	-11.146703	0.973509	0.000000	-0.228650
47.458546	42.277004	-11.146703	0.973509	0.000000	-0.228650
47.458546	42.664703	-11.146703	0.973509	0.000000	-0.228650
47.458546	38.400002	-11.146703	0.973509	0.000000	-0.228650
47.458546	43.052406	-11.146703	0.973509	0.000000	-0.228650
-46.480907	38.400002	-11.008636	0.000000	-1.000000	0.000000
-43.219090	38.400002	-11.008636	0.000000	-1.000000	0.000000
38.734093	38.400002	-11.008636	0.000000	-1.000000	0.000000
-40.365002	38.400002	-11.008636	0.000000	-1.000000	0.000000
-42.811363	38.400002	-11.008636	0.000000	-1.000000	0.000000
-44.034546	38.400002	-11.008636	0.000000	-1.000000	0.000000
44.849998	38.400002	-11.008636	0.000000	-1.000000	0.000000
46.073181	38.400002	-11.008636	0.000000	-1.000000	0.000000
-47.490532	38.400002	-11.008636	-0.974169	0.000000	-0.225819
45.257729	38.400002	-11.008636	0.000000	-1.000000	0.000000
47.296364	38.400002	-11.008636	0.000000	-1.000000	0.000000
39.549545	38.400002	-11.008636	0.000000	-1.000000	0.000000
40.365002	38.400002	-11.008636	0.000000	-1.000000	0.000000
40.772728	38.400002	-11.008636	0.000000	-1.000000	0.000000
-46.888638	38.400002	-11.008636	0.000000	-1.000000	0.000000
-47.296364	38.400002	-11.008636	0.000000	-1.000000	0.000000
41.180454	38.400002	-11.008636	0.000000	-1.000000	0.000000
44.442272	38.400002	-11.008636	0.000000	-1.000000	0.000000
-42.403637	38.400002	-11.008636	0.000000	-1.000000	0.000000
-38.734093	38.400002	-11.008636	0.000000	-1.000000	0.000000
41.588181	38.400002	-11.008636	0.000000	-1.000000	0.000000
44.034546	38.400002	-11.008636	0.000000	-1.000000	0.000000
46.480907	38.400002	-11.008636	0.000000	-1.000000	0.000000
-44.442272	38.400002	-11.008636	0.000000	-1.000000	0.000000
-40.772728	38.400002	-11.008636	0.000000	-1.000000	0.000000
-41.995911	38.400002	-11.008636	0.000000	-1.000000	0.000000
41.995911	38.400002	-11.008636	0.000000	-1.000000	0.000000
45.665455	38.400002	-11.008636	0.000000	-1.000000	0.000000
-39.957272	38.400002	-11.008636	0.000000	-1.000000	0.000000
-46.073181	38.400002	-11.008636	0.000000	-1.000000	0.000000
39.957272	38.400002	-11.008636	0.000000	-1.000000	0.000000
-39.141819	38.400002	-11.008636	0.000000	-1.000000	0.000000
-41.588181	38.400002	-11.008636	0.000000	-1.000000	0.000000
-41.180454	38.400002	-11.008636	0.000000	-1.000000	0.000000
43.626820	38.400002	-11.008636	0.000000	-1.000000	0.000000
42.403637	38.400002	-11.008636	0.000000	-1.000000	0.000000
42.811363	38.400002	-11.008636	0.000000	-1.000000	0.000000
-38.453537	38.400002	-11.008636	0.000000	-1.000000	0.000000
-43.626820	38.400002	-11.008636	0.000000	-1.000000	0.000000
39.141819	38.400002	-11.008636	0.000000	-1.000000	0.000000
-44.849998	38.400002	-11.008636	0.000000	-1.000000	0.000000
-39.549545	38.400002	-11.008636	0.000000	-1.000000	0.000000
-45.257729	38.400002	-11.008636	0.000000	-1.000000	0.000000
46.888638	38.400002	-11.008636	0.000000	-1.000000	0.000000
-45.665455	38.400002	-11.008636	0.000000	-1.000000	0.000000
43.219090	38.400002	-11.008636	0.000000	-1.000000	0.000000
38.453861	38.400002	-11.008636	0.000000	-1.000000	0.000000
47.490364	38.400002	-11.008636	0.974169	0.000000	-0.225820
-47.504883	42.664703	-10.947546	-0.974459	0.000000	-0.224565
-47.504883	42.277004	-10.947546	-0.974459	0.000000	-0.224565
-47.504883	41.889305	-10.947546	-0.974459	0.000000	-0.224565
-47.504883	41.501602	-10.947546	-0.974459	0.000000	-0.224565
-47.504883	41.113903	-10.947546	-0.974459	0.000000	-0.224565
-47.504883	38.787701	-10.947546	-0.974459	0.000000	-0.224565
-47.504883	40.726204	-10.947546	-0.974459	0.000000	-0.224565
-47.504883	40.338501	-10.947546	-0.974459	0.000000	-0.224565
-47.504883	39.950802	-10.947546	-0.974459	0.000000	-0.224565
-47.504883	39.563103	-10.947546	-0.974459	0.000000	-0.224565
-47.504883	39.175400	-10.947546	-0.974459	0.000000	-0.224565
-47.504883	38.400002	-10.947546	-0.974459	0.000000	-0.224565
-47.504883	43.052406	-10.947546	-0.974459	0.000000	-0.224565
38.502346	38.400002	-10.842939	0.000000	-1.000000	0.000000
47.550381	41.889305	-10.748197	0.975392	0.000000	-0.220476
47.550381	38.787701	-10.748197	0.975392	0.000000	-0.220476
47.550381	39.563103	-10.748197	0.975392	0.000000	-0.220476
47.550381	42.664703	-10.748197	0.975392	0.000000	-0.220476
47.550381	40.726204	-10.748197	0.975392	0.000000	-0.220476
47.550381	43.052406	-10.748197	0.975392	0.000000	-0.220476
47.550381	39.950802	-10.748197	0.975392	0.000000	-0.220476
47.550381	42.277004	-10.748197	0.975392	0.000000	-0.220476
47.550381	40.338501	-10.748197	0.975392	0.000000	-0.220476
47.550381	38.400002	-10.748197	0.975392	0.000000	-0.220476
47.550381	39.175400	-10.748197	0.975392	0.000000	-0.220476
47.550381	41.501602	-10.748197	0.975392	0.000000	-0.220476
47.550381	41.113903	-10.748197	0.975392	0.000000	-0.220476
38.567860	38.400002	-10.600909	0.000000	-1.000000	0.000000
-39.957272	38.400002	-10.600909	0.000000	-1.000000	0.000000
43.219090	38.400002	-10.600909	0.000000	-1.000000	0.000000
44.442272	38.400002	-10.600909	0.000000	-1.000000	0.000000
-39.549545	38.400002	-10.600909	0.000000	-1.000000	0.000000
-46.480907	38.400002	-10.600909	0.000000	-1.000000	0.000000
45.665455	38.400002	-10.600909	0.000000	-1.000000	0.000000
-47.583233	38.400002	-10.600909	-0.976070	0.000000	-0.217455
-43.219090	38.400002	-10.600909	0.000000	-1.000000	0.000000
41.995911	38.400002	-10.600909	0.000000	-1.000000	0.000000
39.141819	38.400002	-10.600909	0.000000	-1.000000	0.000000
-47.296364	38.400002	-10.600909	0.000000	-1.000000	0.000000
38.734093	38.400002	-10.600909	0.000000	-1.000000	0.000000
-44.034546	38.400002	-10.600909	0.000000	-1.000000	0.000000
-42.811363	38.400002	-10.600909	0.000000	-1.000000	0.000000
-40.365002	38.400002	-10.600909	0.000000	-1.000000	0.000000
-46.888638	38.400002	-10.600909	0.000000	-1.000000	0.000000
44.849998	38.400002	-10.600909	0.000000	-1.000000	0.000000
40.772728	38.400002	-10.600909	0.000000	-1.000000	0.000000
39.549545	38.400002	-10.600909	0.000000	-1.000000	0.000000
46.073181	38.400002	-10.600909	0.000000	-1.000000	0.000000
-45.665455	38.400002	-10.600909	0.000000	-1.000000	0.000000
40.365002	38.400002	-10.600909	0.000000	-1.000000	0.000000
41.180454	38.400002	-10.600909	0.000000	-1.000000	0.000000
47.583027	38.400002	-10.600909	0.976070	0.000000	-0.217456
39.957272	38.400002	-10.600909	0.000000	-1.000000	0.000000
43.626820	38.400002	-10.600909	0.000000	-1.000000	0.000000
-39.141819	38.400002	-10.600909	0.000000	-1.000000	0.000000
42.403637	38.400002	-10.600909	0.000000	-1.000000	0.000000
-40.772728	38.400002	-10.600909	0.000000	-1.000000	0.000000
46.480907	38.400002	-10.600909	0.000000	-1.000000	0.000000
47.296364	38.400002	-10.600909	0.000000	-1.000000	0.000000
