-0.23021901 0.39870501 0.16370100 5.000000
0.56036299 0.39870501 -0.06281700 5.000000
-0.07119300 0.39870501 -0.20505500 5.000000
0.38604900 0.39870501 0.56739599 5.000000
-0.48278400 0.39870501 -0.11796800 5.000000
0.03823500 0.39870501 0.53182101 5.000000
0.42789999 0.39870501 0.52057302 5.000000
0.34417900 0.39870501 0.63292402 5.000000
0.14349300 0.39870501 -0.14582300 5.000000
-0.08627000 0.39870501 0.27225599 5.000000
-0.64583403 0.39870501 0.47490200 5.000000
-0.21071100 0.39870501 0.40433899 5.000000
-0.45179999 0.39870501 0.23772000 5.000000
-0.22325000 0.39870501 0.01919300 5.000000
-0.49276501 0.39870501 -0.63914001 5.000000
-0.42606300 0.39870501 -0.59926701 5.000000
0.51380801 0.39870501 -0.31574601 5.000000
0.31121501 0.39870501 0.54646301 5.000000
-0.44410101 0.39870501 -0.20220800 5.000000
-0.28006300 0.39870501 -0.45230901 5.000000
0.52634799 0.39870501 -0.26689899 5.000000
-0.30459100 0.39870501 -0.65306902 5.000000
-0.17313300 0.39870501 0.09483500 5.000000
-0.35019100 0.39870501 -0.40865299 5.000000
-0.33631599 0.39870501 0.09632800 5.000000
-0.55567503 0.39870501 -0.63339603 5.000000
-0.41191900 0.39870501 -0.21541400 5.000000
0.39098600 0.39870501 0.35790199 5.000000
-0.01897500 0.39870501 0.27851000 5.000000
0.07654100 0.39870501 -0.44873101 5.000000
0.38394099 0.39870501 0.31982800 5.000000
0.48467699 0.39870501 -0.53883803 5.000000
0.16727801 0.39870501 -0.59357202 5.000000
-0.08097100 0.39870501 0.44514501 5.000000
0.53730500 0.39870501 0.22141200 5.000000
-0.56265199 0.39870501 0.40006199 5.000000
0.40619501 0.39870501 0.06994900 5.000000
0.59176803 0.39870501 0.01764900 5.000000
-0.04887600 0.39870501 -0.01772500 5.000000
0.09986900 0.39870501 -0.31966501 5.000000
-0.63208503 0.39870501 -0.34650400 5.000000
0.36028999 0.39870501 -0.57291198 5.000000
0.31731901 0.39870501 0.09272600 5.000000
0.37423599 0.39870501 -0.60204601 5.000000
-0.32167199 0.39870501 0.59014499 5.000000
-0.23095199 0.39870501 0.35658699 5.000000
0.61592501 0.39870501 -0.36122599 5.000000
-0.15386000 0.39870501 -0.13136800 5.000000
-0.16609401 0.39870501 -0.42380601 5.000000
0.38354701 0.39870501 -0.10435900 5.000000
-0.63269502 0.39870501 0.26481700 5.000000
0.10091500 0.39870501 0.35856101 5.000000
-0.53676099 0.39870501 -0.32864299 5.000000
0.29156601 0.39870501 0.39916000 5.000000
0.13328500 0.39870501 -0.57738799 5.000000
-0.16079199 0.39870501 -0.10164900 5.000000
0.05554900 0.39870501 -0.39205301 5.000000
0.27792600 0.39870501 0.15346301 5.000000
0.61568701 0.39870501 -0.03795700 5.000000
-0.42912701 0.39870501 0.62095702 5.000000
0.15096200 0.39870501 0.35938600 5.000000
-0.38016099 0.39870501 0.19252700 5.000000
-0.34864599 0.39870501 0.36302599 5.000000
-0.15030800 0.39870501 -0.06344200 5.000000
0.44392800 0.39870501 0.17271399 5.000000
-0.29773799 0.39870501 0.52481300 5.000000
-0.38130301 0.39870501 0.57039100 5.000000
-0.15206900 0.39870501 -0.34725299 5.000000
0.56660402 0.39870501 -0.22890200 5.000000
-0.10695800 0.39870501 -0.53488499 5.000000
-0.31835800 0.39870501 -0.59753102 5.000000
-0.59269398 0.39870501 0.52455997 5.000000
-0.11081900 0.39870501 -0.16896801 5.000000
-0.62975299 0.39870501 0.28122801 5.000000
0.35671601 0.39870501 -0.62408698 5.000000
0.36663899 0.39870501 -0.55163598 5.000000
-0.01360000 0.39870501 0.41403401 5.000000
0.07323300 0.39870501 0.27734599 5.000000
0.18745300 0.39870501 -0.05319900 5.000000
0.16980800 0.39870501 0.39940500 5.000000
0.03724400 0.39870501 -0.51010299 5.000000
-0.31086200 0.39870501 0.52727997 5.000000
0.19802700 0.39870501 -0.07073000 5.000000
-0.22205700 0.39870501 0.51279902 5.000000
0.45122799 0.39870501 0.46340701 5.000000
0.22296400 0.39870501 0.15896200 5.000000
-0.29880300 0.39870501 -0.21812201 5.000000
-0.39566001 0.39870501 -0.44595000 5.000000
0.03670400 0.39870501 -0.26393399 5.000000
-0.42939800 0.39870501 -0.09926000 5.000000
0.11608100 0.39870501 0.04284300 5.000000
0.37410101 0.39870501 -0.04859600 5.000000
0.27865899 0.39870501 0.56126201 5.000000
-0.41215000 0.39870501 -0.27356401 5.000000
0.48620701 0.39870501 -0.22271299 5.000000
0.06121500 0.39870501 -0.52307701 5.000000
0.36951301 0.39870501 0.03199500 5.000000
-0.11377800 0.39870501 0.52419001 5.000000
-0.19213299 0.39870501 -0.15182699 5.000000
0.11497300 0.39870501 0.42089000 5.000000
0.17679000 0.39870501 0.46006599 5.000000
-0.49733999 0.39870501 0.46273100 5.000000
-0.05656800 0.39870501 0.37148401 5.000000
0.28838900 0.39870501 -0.60645300 5.000000
-0.37304899 0.39870501 -0.43719199 5.000000
0.08530000 0.39870501 -0.01079600 5.000000
0.10247200 0.39870501 0.57874399 5.000000
-0.10342500 0.39870501 -0.47032201 5.000000
0.18064900 0.39870501 -0.57069701 5.000000
-0.41823301 0.39870501 -0.56651199 5.000000
0.04415700 0.39870501 0.19456699 5.000000
0.46518701 0.39870501 0.52359301 5.000000
-0.23375700 0.39870501 -0.44869700 5.000000
-0.23829900 0.39870501 -0.28548101 5.000000
0.34607700 0.39870501 -0.06398100 5.000000
-0.25648701 0.39870501 -0.50569701 5.000000
0.59627998 0.39870501 0.30369300 5.000000
0.04952000 0.39870501 0.09742900 5.000000
-0.31072801 0.39870501 -0.21943700 5.000000
-0.61495000 0.39870501 0.07122300 5.000000
-0.52894598 0.39870501 0.08719000 5.000000
-0.29205000 0.39870501 -0.12452400 5.000000
-0.48029700 0.39870501 0.60477602 5.000000
-0.02744500 0.39870501 -0.52082801 5.000000
-0.51987100 0.39870501 -0.33069599 5.000000
0.23036100 0.39870501 -0.05239500 5.000000
0.18409400 0.39870501 -0.60295302 5.000000
0.62341201 0.39870501 0.56290698 5.000000
-0.55285698 0.39870501 0.42210200 5.000000
0.48962200 0.39870501 0.52731103 5.000000
-0.63855398 0.39870501 -0.43562999 5.000000
-0.23023400 0.39870501 0.22887300 5.000000
-0.30689600 0.39870501 -0.61631799 5.000000
-0.37535301 0.39870501 -0.02276200 5.000000
0.62877899 0.39870501 -0.19241101 5.000000
0.41745600 0.39870501 -0.27293500 5.000000
-0.31539401 0.39870501 -0.49909401 5.000000
0.37385401 0.39870501 -0.63130301 5.000000
-0.39477399 0.39870501 0.30547801 5.000000
0.29686400 0.39870501 -0.63383102 5.000000
0.26067001 0.39870501 -0.44460899 5.000000
-0.34122601 0.39870501 0.34973699 5.000000
0.49504501 0.39870501 0.05021700 5.000000
0.38814601 0.39870501 0.48203599 5.000000
0.41436300 0.39870501 0.43829700 5.000000
0.06401400 0.39870501 0.25227499 5.000000
-0.20739900 0.39870501 -0.08258100 5.000000
-0.07126300 0.39870501 -0.26460201 5.000000
0.09282000 0.39870501 0.15901200 5.000000
-0.15210900 0.39870501 -0.15426899 5.000000
-0.02657200 0.39870501 0.36698401 5.000000
-0.62956798 0.39870501 -0.01524400 5.000000
-0.49298400 0.39870501 0.53246802 5.000000
0.45136100 0.39870501 0.07864100 5.000000
-0.50148398 0.39870501 0.27861199 5.000000
-0.30571800 0.39870501 0.14149600 5.000000
-0.54064602 0.39870501 -0.45662299 5.000000
0.23479700 0.39870501 -0.18818200 5.000000
-0.55735898 0.39870501 -0.25961500 5.000000
0.18749399 0.39870501 -0.12994100 5.000000
0.50042200 0.39870501 -0.34821200 5.000000
0.37790501 0.39870501 0.09005900 5.000000
-0.13150400 0.39870501 0.14355899 5.000000
0.15745300 0.39870501 0.26235601 5.000000
0.15820800 0.39870501 -0.41158700 5.000000
0.50915998 0.39870501 -0.47915599 5.000000
-0.31178501 0.39870501 0.53051299 5.000000
-0.60172600 0.39870501 -0.17480800 5.000000
0.42312801 0.39870501 -0.48002300 5.000000
0.05935600 0.39870501 0.08074100 5.000000
0.09691100 0.39870501 -0.48389399 5.000000
0.15503600 0.39870501 0.46365899 5.000000
0.30363500 0.39870501 -0.35646999 5.000000
-0.51613599 0.39870501 -0.23971801 5.000000
0.20621000 0.39870501 0.21979500 5.000000
-0.08670500 0.39870501 0.09757800 5.000000
0.25950399 0.39870501 0.12068100 5.000000
-0.20265700 0.39870501 0.61414599 5.000000
-0.23106600 0.39870501 0.47564900 5.000000
0.35146400 0.39870501 0.43312699 5.000000
0.02723700 0.39870501 -0.19706100 5.000000
0.59522599 0.39870501 -0.28461701 5.000000
-0.43676201 0.39870501 -0.18183900 5.000000
0.37783501 0.39870501 0.10787000 5.000000
-0.38744301 0.39870501 -0.19194099 5.000000
0.03035500 0.39870501 -0.43204400 5.000000
0.20984399 0.39870501 0.45695400 5.000000
0.20329900 0.39870501 0.45110601 5.000000
0.18601100 0.39870501 -0.17822801 5.000000
0.30566600 0.39870501 -0.50684202 5.000000
0.01001300 0.39870501 -0.56033802 5.000000
0.63107002 0.39870501 -0.30514401 5.000000
-0.05058700 0.39870501 -0.42092699 5.000000
-0.34751901 0.39870501 -0.18762200 5.000000
-0.51944202 0.39870501 -0.56071502 5.000000
0.46972200 0.39870501 0.32265699 5.000000
0.03437200 0.39870501 0.31766301 5.000000
0.16971500 0.39870501 -0.04104800 5.000000
-0.07750800 0.39870501 -0.24273200 5.000000
0.33384699 0.39870501 0.27022400 5.000000
0.19376899 0.39870501 -0.22662300 5.000000
-0.57301700 0.39870501 0.22363400 5.000000
0.24511801 0.39870501 -0.49065700 5.000000
-0.24885599 0.39870501 -0.36217001 5.000000
-0.42451701 0.39870501 -0.28566700 5.000000
0.33022100 0.39870501 -0.58015299 5.000000
-0.31499499 0.39870501 -0.18140900 5.000000
0.00339800 0.39870501 -0.41436300 5.000000
0.16033600 0.39870501 -0.54435301 5.000000
-0.10893000 0.39870501 -0.42095000 5.000000
0.33805001 0.39870501 0.60353303 5.000000
-0.28206599 0.39870501 0.37859499 5.000000
0.05199400 0.39870501 -0.26606399 5.000000
0.38797200 0.39870501 -0.31505299 5.000000
-0.10247200 0.39870501 -0.16964500 5.000000
-0.56996697 0.39870501 -0.03059500 5.000000
0.22126900 0.39870501 0.20727301 5.000000
-0.62019300 0.39870501 -0.63027602 5.000000
-0.49463001 0.39870501 -0.31211400 5.000000
0.44313699 0.39870501 -0.26286301 5.000000
0.19349800 0.39870501 0.51288497 5.000000
0.13162699 0.39870501 0.55020702 5.000000
-0.57768601 0.39870501 -0.42445701 5.000000
-0.09402200 0.39870501 -0.10712700 5.000000
-0.00188700 0.39870501 -0.01488400 5.000000
-0.01146200 0.39870501 0.50182301 5.000000
-0.49785101 0.39870501 0.07610500 5.000000
0.04004200 0.39870501 -0.33792400 5.000000
-0.12762000 0.39870501 -0.52520001 5.000000
-0.39022499 0.39870501 -0.39535400 5.000000
0.27108699 0.39870501 0.53466600 5.000000
-0.19181401 0.39870501 -0.26536301 5.000000
0.32340801 0.39870501 0.00536600 5.000000
-0.08307000 0.39870501 0.55593503 5.000000
0.27643400 0.39870501 -0.13578101 5.000000
-0.41478401 0.39870501 0.42968601 5.000000
0.14004500 0.39870501 0.13753600 5.000000
0.46599400 0.39870501 -0.47067899 5.000000
0.12809600 0.39870501 -0.10282700 5.000000
-0.33864400 0.39870501 0.18628000 5.000000
-0.59056097 0.39870501 0.38615200 5.000000
0.54873103 0.39870501 0.10273300 5.000000
-0.41575301 0.39870501 0.25217399 5.000000
-0.50128001 0.39870501 -0.12593600 5.000000
0.03878000 0.39870501 -0.39583501 5.000000
0.27658901 0.39870501 0.55775100 5.000000
0.34974900 0.39870501 -0.21434800 5.000000
-0.22515300 0.39870501 -0.60585201 5.000000
-0.46019199 0.39870501 0.06400700 5.000000
0.21993101 0.39870501 0.46984801 5.000000
-0.56281900 0.39870501 -0.21302600 5.000000
-0.20671400 0.39870501 0.60992599 5.000000
0.23689400 0.39870501 -0.17428100 5.000000
-0.38583300 0.39870501 -0.48033601 5.000000
-0.24145100 0.39870501 0.00867500 5.000000
-0.06372500 0.39870501 0.07036700 5.000000
-0.63190299 0.39870501 -0.11236400 5.000000
0.10022300 0.39870501 -0.46838400 5.000000
-0.47565100 0.39870501 0.37678799 5.000000
-0.36124501 0.39870501 -0.21270899 5.000000
0.59680599 0.39870501 -0.60688502 5.000000
-0.15757801 0.39870501 0.34810299 5.000000
-0.11967600 0.39870501 0.02977000 5.000000
0.37453401 0.39870501 0.29893699 5.000000
0.12335000 0.39870501 -0.42272100 5.000000
-0.30595100 0.39870501 0.51056200 5.000000
0.14096300 0.39870501 0.22380500 5.000000
-0.51291102 0.39870501 0.02772700 5.000000
0.55531800 0.39870501 -0.33597299 5.000000
-0.39140099 0.39870501 0.46564099 5.000000
0.33270800 0.39870501 -0.55243701 5.000000
0.60598701 0.39870501 0.00522400 5.000000
-0.62421298 0.39870501 -0.28365901 5.000000
0.22194400 0.39870501 -0.10051500 5.000000
0.15607899 0.39870501 0.19522400 5.000000
-0.62835699 0.39870501 0.58519799 5.000000
0.22844800 0.39870501 -0.63910300 5.000000
0.53341502 0.39870501 -0.28261501 5.000000
0.21067600 0.39870501 0.46951199 5.000000
0.08433900 0.39870501 0.22085699 5.000000
-0.10166400 0.39870501 -0.50158399 5.000000
0.36721700 0.39870501 -0.56114298 5.000000
0.24616900 0.39870501 0.26433000 5.000000
0.46764201 0.39870501 0.33167300 5.000000
0.43649000 0.39870501 0.26523200 5.000000
-0.42383000 0.39870501 0.05655100 5.000000
-0.54469401 0.39870501 0.09715000 5.000000
-0.16440500 0.39870501 -0.28992900 5.000000
0.23501600 0.39870501 -0.23316500 5.000000
-0.17235801 0.39870501 -0.46043000 5.000000
-0.31186700 0.39870501 -0.63973302 5.000000
0.16370399 0.39870501 0.03693000 5.000000
-0.13260099 0.39870501 -0.48847601 5.000000
0.49631801 0.39870501 -0.51278198 5.000000
0.43189499 0.39870501 -0.58017999 5.000000
-0.28092301 0.39870501 0.34687299 5.000000
-0.31253499 0.39870501 -0.47859001 5.000000
-0.14026600 0.39870501 -0.12575500 5.000000
0.31360301 0.39870501 -0.03582400 5.000000
-0.34809199 0.39870501 -0.41074401 5.000000
-0.41871899 0.39870501 -0.02376600 5.000000
-0.44745100 0.39870501 -0.02020300 5.000000
-0.28413799 0.39870501 -0.47397500 5.000000
-0.04362400 0.39870501 0.24751601 5.000000
-0.57468098 0.39870501 -0.09001800 5.000000
0.35024500 0.39870501 -0.16908200 5.000000
0.34736401 0.39870501 -0.57434702 5.000000
-0.15134799 0.39870501 0.45969599 5.000000
0.62382901 0.39870501 0.36470601 5.000000
-0.60434097 0.39870501 0.26941001 5.000000
-0.27352199 0.39870501 0.21155000 5.000000
-0.29217800 0.39870501 -0.45282599 5.000000
-0.44028801 0.39870501 -0.48000899 5.000000
-0.51560003 0.39870501 -0.59136200 5.000000
-0.63777602 0.39870501 -0.44240701 5.000000
0.03818100 0.39870501 -0.64525002 5.000000
0.07268300 0.39870501 0.41320401 5.000000
-0.49921501 0.39870501 -0.29453701 5.000000
0.38095799 0.39870501 -0.19792700 5.000000
0.34821999 0.39870501 0.44315401 5.000000
-0.23566499 0.39870501 0.04821000 5.000000
0.02170900 0.39870501 0.58302897 5.000000
-0.06539700 0.39870501 -0.42754301 5.000000
-0.51556599 0.39870501 0.16194899 5.000000
-0.43339199 0.39870501 0.63756800 5.000000
0.18545499 0.39870501 -0.13358600 5.000000
-0.18864000 0.39870501 -0.10500200 5.000000
0.37838799 0.39870501 0.48703301 5.000000
0.60939097 0.39870501 -0.51905102 5.000000
0.26702100 0.39870501 -0.29575899 5.000000
0.10649300 0.39870501 0.30293900 5.000000
0.17709500 0.39870501 -0.12556200 5.000000
0.21748200 0.39870501 -0.02365200 5.000000
-0.33276501 0.39870501 0.08643600 5.000000
-0.52719200 0.39870501 -0.46455801 5.000000
-0.06900200 0.39870501 0.41495001 5.000000
0.02480200 0.39870501 0.02997900 5.000000
-0.25166199 0.39870501 -0.02518900 5.000000
-0.20487000 0.39870501 -0.59306198 5.000000
0.24858300 0.39870501 -0.37895000 5.000000
-0.47326699 0.39870501 0.14464501 5.000000
0.25481600 0.39870501 -0.59976298 5.000000
-0.35058299 0.39870501 -0.17337500 5.000000
-0.16964200 0.39870501 0.17332999 5.000000
0.31396499 0.39870501 -0.43201301 5.000000
-0.17113701 0.39870501 -0.27877399 5.000000
0.52513200 0.39870501 0.10654300 5.000000
0.49151000 0.39870501 0.29144099 5.000000
0.03626900 0.39870501 0.30417600 5.000000
-0.29319799 0.39870501 0.52124703 5.000000
-0.07790800 0.39870501 -0.20870399 5.000000
-0.39500800 0.39870501 -0.16181800 5.000000
0.11088000 0.39870501 0.11154500 5.000000
0.05248800 0.39870501 -0.38859800 5.000000
0.02405300 0.39870501 -0.59371799 5.000000
0.54939997 0.39870501 0.30854800 5.000000
-0.48294100 0.39870501 0.27902499 5.000000
0.16637699 0.39870501 0.45578101 5.000000
-0.51682103 0.39870501 -0.50045198 5.000000
-0.05899200 0.39870501 0.56687301 5.000000
-0.04845300 0.39870501 0.11700200 5.000000
-0.01046000 0.39870501 0.57567799 5.000000
-0.08678500 0.39870501 0.08422100 5.000000
-0.55253398 0.39870501 0.33740199 5.000000
0.27070701 0.39870501 -0.50448400 5.000000
-0.54235703 0.39870501 -0.06331500 5.000000
0.14589900 0.39870501 -0.44034299 5.000000
0.10748600 0.39870501 0.64046299 5.000000
-0.16009900 0.39870501 -0.09537300 5.000000
-0.59520501 0.39870501 0.16599201 5.000000
-0.13750599 0.39870501 -0.53537297 5.000000
0.23005000 0.39870501 0.22104600 5.000000
-0.34899700 0.39870501 -0.54521602 5.000000
-0.28776300 0.39870501 -0.25824800 5.000000
0.32151899 0.39870501 -0.24020299 5.000000
-0.57500201 0.39870501 -0.52017897 5.000000
0.00206300 0.39870501 -0.17936200 5.000000
0.19158199 0.39870501 -0.42650300 5.000000
-0.25648400 0.39870501 0.02511000 5.000000
-0.45434099 0.39870501 0.10125700 5.000000
0.50893301 0.39870501 -0.60360700 5.000000
0.43406799 0.39870501 0.57959700 5.000000
-0.04171700 0.39870501 0.37108999 5.000000
0.53815699 0.39870501 -0.02642800 5.000000
-0.19335900 0.39870501 0.28797001 5.000000
0.48747501 0.39870501 -0.26734099 5.000000
0.15234999 0.39870501 0.61419898 5.000000
-0.29959601 0.39870501 0.13097800 5.000000
-0.13257000 0.39870501 -0.51316100 5.000000
0.17260300 0.39870501 -0.34829500 5.000000
-0.19056199 0.39870501 0.24119100 5.000000
-0.20847000 0.39870501 -0.09201100 5.000000
-0.17866500 0.39870501 0.46949700 5.000000
-0.33513501 0.39870501 -0.62067097 5.000000
-0.35534501 0.39870501 0.14198799 5.000000
0.37158501 0.39870501 0.20861299 5.000000
-0.12238800 0.39870501 -0.39404100 5.000000
-0.39937401 0.39870501 0.31959701 5.000000
0.17918199 0.39870501 -0.01126300 5.000000
-0.28899601 0.39870501 0.13430201 5.000000
0.03667700 0.39870501 0.27501199 5.000000
-0.42629099 0.39870501 -0.58546799 5.000000
0.07500800 0.39870501 0.30153200 5.000000
-0.59962600 0.39870501 0.50461203 5.000000
0.34511000 0.39870501 0.50104803 5.000000
0.14437300 0.39870501 -0.45882300 5.000000
0.02101200 0.39870501 -0.57487899 5.000000
0.05699800 0.39870501 0.54392600 5.000000
-0.32606101 0.39870501 -0.54489702 5.000000
-0.26058799 0.39870501 0.53693902 5.000000
-0.05915700 0.39870501 -0.37042800 5.000000
0.29790199 0.39870501 -0.10092400 5.000000
-0.16601899 0.39870501 -0.27762300 5.000000
0.09828000 0.39870501 0.41882601 5.000000
0.50194502 0.39870501 0.53644103 5.000000
-0.03509300 0.39870501 -0.61884099 5.000000
0.49803200 0.39870501 0.60522300 5.000000
-0.07351400 0.39870501 -0.34790999 5.000000
0.54914999 0.39870501 -0.28394300 5.000000
-0.52254802 0.39870501 -0.39075100 5.000000
-0.40200001 0.39870501 0.26437899 5.000000
0.16232701 0.39870501 -0.36314201 5.000000
0.44776300 0.39870501 0.19222000 5.000000
-0.46048900 0.39870501 -0.21469200 5.000000
0.20073700 0.39870501 -0.04079000 5.000000
-0.12359500 0.39870501 0.23556501 5.000000
-0.08063000 0.39870501 -0.48168600 5.000000
-0.31463400 0.39870501 -0.54404700 5.000000
0.09185300 0.39870501 0.59947699 5.000000
0.23225200 0.39870501 -0.48894200 5.000000
-0.07854700 0.39870501 -0.34898999 5.000000
0.56892198 0.39870501 -0.22775000 5.000000
-0.52138501 0.39870501 -0.53921998 5.000000
0.60778600 0.39870501 0.39974701 5.000000
0.30414999 0.39870501 0.21833099 5.000000
-0.35994300 0.39870501 -0.19620100 5.000000
-0.04361600 0.39870501 -0.04231400 5.000000
-0.25286001 0.39870501 -0.55916202 5.000000
0.48351201 0.39870501 0.46515000 5.000000
0.03513100 0.39870501 0.58282501 5.000000
0.13703600 0.39870501 -0.04562300 5.000000
0.29974899 0.39870501 -0.28513300 5.000000
-0.58994102 0.39870501 -0.16954100 5.000000
-0.48745599 0.39870501 -0.03270200 5.000000
-0.34742701 0.39870501 -0.33239201 5.000000
-0.26868501 0.39870501 -0.15402500 5.000000
0.49217400 0.39870501 0.36419499 5.000000
0.58919001 0.39870501 -0.09119300 5.000000
0.45686901 0.39870501 -0.07103900 5.000000
0.62545800 0.39870501 0.07583900 5.000000
0.25888199 0.39870501 0.33185601 5.000000
0.17502201 0.39870501 0.25492299 5.000000
-0.64806300 0.39870501 0.11848700 5.000000
-0.00562100 0.39870501 0.17146499 5.000000
0.20232600 0.39870501 -0.43547201 5.000000
-0.50711501 0.39870501 -0.39437401 5.000000
-0.20618200 0.39870501 0.32846999 5.000000
-0.53903800 0.39870501 0.40897200 5.000000
0.00905800 0.39870501 0.55126297 5.000000
-0.19430600 0.39870501 0.05619200 5.000000
0.47104299 0.39870501 -0.29194701 5.000000
0.05158100 0.39870501 -0.13720500 5.000000
-0.41558400 0.39870501 -0.23878500 5.000000
0.41425601 0.39870501 0.22515100 5.000000
0.63115299 0.39870501 0.62876898 5.000000
-0.61017603 0.39870501 0.55831301 5.000000
-0.25372899 0.39870501 0.62396502 5.000000
-0.15996200 0.39870501 -0.10610800 5.000000
-0.00163100 0.39870501 -0.59307897 5.000000
0.09131000 0.39870501 0.18757400 5.000000
0.09863400 0.39870501 0.55592501 5.000000
-0.31796199 0.39870501 0.58394200 5.000000
0.25574601 0.39870501 -0.51364499 5.000000
0.02729500 0.39870501 -0.23468301 5.000000
0.09698600 0.39870501 -0.22944801 5.000000
0.50236499 0.39870501 -0.15729900 5.000000
-0.42677799 0.39870501 -0.27452001 5.000000
0.10450400 0.39870501 0.13335501 5.000000
0.09902500 0.39870501 -0.06915700 5.000000
0.49008101 0.39870501 -0.60694498 5.000000
-0.32074401 0.39870501 0.03573000 5.000000
0.51347101 0.39870501 0.32194400 5.000000
0.32738000 0.39870501 0.46299800 5.000000
-0.52319199 0.39870501 0.15493000 5.000000
-0.56098700 0.39870501 0.28656101 5.000000
-0.63914698 0.39870501 0.54228902 5.000000
0.51819098 0.39870501 -0.43405399 5.000000
0.45305899 0.39870501 0.27505699 5.000000
-0.28922999 0.39870501 -0.65274602 5.000000
-0.00570500 0.39870501 -0.35958001 5.000000
0.40867999 0.39870501 0.27185199 5.000000
-0.00629800 0.39870501 0.63431299 5.000000
-0.56816000 0.39870501 -0.06652400 5.000000
0.34146899 0.39870501 -0.15877500 5.000000
-0.17624100 0.39870501 -0.21014300 5.000000
-0.06395600 0.39870501 -0.65574902 5.000000
0.30845299 0.39870501 -0.22923701 5.000000
-0.53872597 0.39870501 -0.07895200 5.000000
-0.12699001 0.39870501 -0.45974401 5.000000
0.53517002 0.39870501 0.09344400 5.000000
-0.54909998 0.39870501 -0.17338100 5.000000
-0.59138399 0.39870501 -0.65285099 5.000000
-0.60992098 0.39870501 0.13251500 5.000000
-0.06680900 0.39870501 0.08260400 5.000000
0.40908000 0.39870501 -0.41964799 5.000000
0.34740201 0.39870501 -0.10197700 5.000000
0.04560100 0.39870501 -0.13269900 5.000000
-0.62189502 0.39870501 -0.21912199 5.000000
0.29525101 0.39870501 0.56503099 5.000000
-0.35683200 0.39870501 0.45000100 5.000000
-0.39855000 0.39870501 -0.22789200 5.000000
0.06056500 0.39870501 0.33783299 5.000000
-0.09552200 0.39870501 0.34768501 5.000000
0.54865199 0.39870501 -0.46901599 5.000000
-0.04583800 0.39870501 -0.04892700 5.000000
-0.51676297 0.39870501 0.35059500 5.000000
-0.00051000 0.39870501 0.43300101 5.000000
0.10895800 0.39870501 -0.43649599 5.000000
-0.05107800 0.39870501 -0.35629499 5.000000
0.25404799 0.39870501 -0.54010201 5.000000
-0.01226800 0.39870501 0.38939300 5.000000
0.52034599 0.39870501 -0.21754999 5.000000
0.63332802 0.39870501 0.04561900 5.000000
-0.16362000 0.39870501 -0.33001301 5.000000
-0.00888800 0.39870501 0.33503801 5.000000
0.62040699 0.39870501 -0.48828000 5.000000
-0.41752300 0.39870501 0.35507900 5.000000
0.33355901 0.39870501 -0.11823100 5.000000
-0.34533200 0.39870501 -0.39242199 5.000000
0.43928799 0.39870501 -0.31877401 5.000000
0.55153197 0.39870501 -0.42993101 5.000000
0.13016000 0.39870501 -0.46133399 5.000000
-0.37197801 0.39870501 -0.32424700 5.000000
-0.00256000 0.39870501 0.23798899 5.000000
-0.54592502 0.39870501 -0.05249900 5.000000
-0.47314900 0.39870501 0.17123100 5.000000
0.57952499 0.39870501 -0.37231699 5.000000
0.32208300 0.39870501 0.38455400 5.000000
0.36011699 0.39870501 0.43177500 5.000000
0.44621700 0.39870501 0.17573600 5.000000
0.13685200 0.39870501 0.60446799 5.000000
-0.45754701 0.39870501 0.28340799 5.000000
0.24090700 0.39870501 -0.09647800 5.000000
-0.33830699 0.39870501 0.19334400 5.000000
0.22568800 0.39870501 -0.25641999 5.000000
0.37176201 0.39870501 -0.25325799 5.000000
-0.29028499 0.39870501 0.14010499 5.000000
0.06167600 0.39870501 0.09167800 5.000000
0.07502400 0.39870501 -0.36109400 5.000000
0.42252401 0.39870501 0.07364800 5.000000
-0.06830500 0.39870501 0.54983801 5.000000
-0.47996899 0.39870501 -0.12003000 5.000000
0.36406299 0.39870501 0.58338797 5.000000
0.62832499 0.39870501 -0.30405301 5.000000
-0.48821700 0.39870501 -0.64582503 5.000000
0.48481101 0.39870501 0.49609101 5.000000
-0.59407997 0.39870501 -0.47484401 5.000000
-0.59331000 0.39870501 0.59937102 5.000000
0.30547500 0.39870501 0.21714801 5.000000
-0.32174799 0.39870501 -0.00357700 5.000000
-0.44176501 0.39870501 0.12693501 5.000000
-0.60222900 0.39870501 -0.50284100 5.000000
-0.29404801 0.39870501 0.37586099 5.000000
0.32016301 0.39870501 0.09760500 5.000000
0.63878500 0.39870501 -0.57889700 5.000000
-0.30691001 0.39870501 0.25815701 5.000000
-0.42503300 0.39870501 -0.50228298 5.000000
-0.16647500 0.39870501 0.45441201 5.000000
-0.00963600 0.39870501 0.49164799 5.000000
0.07823500 0.39870501 -0.38744900 5.000000
0.09897500 0.39870501 0.48958600 5.000000
-0.17078900 0.39870501 -0.20739400 5.000000
0.32536599 0.39870501 -0.10396800 5.000000
-0.30188501 0.39870501 -0.42621100 5.000000
-0.22191900 0.39870501 0.37746400 5.000000
-0.05909500 0.39870501 0.37611401 5.000000
-0.41130301 0.39870501 -0.41618001 5.000000
-0.55268300 0.39870501 -0.30464900 5.000000
0.13332500 0.39870501 0.23660900 5.000000
-0.39427900 0.39870501 -0.31050399 5.000000
0.17229199 0.39870501 -0.41193101 5.000000
0.47163001 0.39870501 0.37755400 5.000000
-0.58076400 0.39870501 0.01025300 5.000000
-0.51610702 0.39870501 0.12978099 5.000000
-0.18085501 0.39870501 -0.20239300 5.000000
0.25473100 0.39870501 0.62133402 5.000000
-0.50218803 0.39870501 -0.31239200 5.000000
0.05138400 0.39870501 0.53474897 5.000000
-0.53964502 0.39870501 0.37913001 5.000000
-0.22147299 0.39870501 -0.13028701 5.000000
0.39677399 -0.21210501 0.50917298 6.000000
0.41045001 -0.21210501 0.11078700 6.000000
0.55833399 -0.21210501 -0.62797600 6.000000
-0.58598500 -0.21210501 0.59293300 6.000000
-0.48852900 -0.21210501 0.41232100 6.000000
-0.57008499 -0.21210501 -0.49498501 6.000000
0.49399200 -0.21210501 -0.59083003 6.000000
-0.41992700 -0.21210501 -0.49571300 6.000000
-0.48490801 -0.21210501 0.54845703 6.000000
0.63843602 -0.21210501 -0.04336300 6.000000
-0.48694399 -0.21210501 0.03991200 6.000000
0.42414200 -0.21210501 -0.12204200 6.000000
0.46248001 -0.21210501 0.00213500 6.000000
-0.64050198 -0.21210501 0.28118899 6.000000
-0.63103700 -0.21210501 0.50813699 6.000000
-0.45328400 -0.21210501 -0.10450600 6.000000
-0.62529403 -0.21210501 -0.19533899 6.000000
0.45354900 -0.21210501 -0.09364200 6.000000
0.62168097 -0.21210501 0.60181499 6.000000
0.63472402 -0.21210501 -0.56937402 6.000000
-0.54292399 -0.21210501 0.58156699 6.000000
-0.61279100 -0.21210501 -0.21908399 6.000000
0.56254900 -0.21210501 -0.61426198 6.000000
0.40202600 -0.21210501 0.30039901 6.000000
0.40281799 -0.21210501 0.32341501 6.000000
-0.57564098 -0.21210501 0.13438800 6.000000
0.58350402 -0.21210501 -0.22279000 6.000000
-0.50645602 -0.21210501 0.17140000 6.000000
0.44202101 -0.21210501 -0.34689900 6.000000
0.51352501 -0.21210501 -0.27376199 6.000000
0.51972902 -0.21210501 0.40466401 6.000000
-0.56853801 -0.21210501 0.24383600 6.000000
0.58488601 -0.21210501 0.11780600 6.000000
0.56178701 -0.21210501 0.42562300 6.000000
0.48882800 -0.21210501 -0.13899200 6.000000
-0.51208103 -0.21210501 -0.61059803 6.000000
-0.57236803 -0.21210501 -0.15482900 6.000000
0.43946499 -0.21210501 -0.14501099 6.000000
-0.61817598 -0.21210501 -0.39171499 6.000000
-0.62120599 -0.21210501 -0.15258700 6.000000
-0.49320900 -0.21210501 0.29653400 6.000000
-0.56723702 -0.21210501 0.61637998 6.000000
0.57248902 -0.21210501 0.01203100 6.000000
-0.48322901 -0.21210501 0.10264800 6.000000
0.40924099 -0.21210501 -0.07592700 6.000000
-0.39910099 -0.21210501 0.55825198 6.000000
0.63456601 -0.21210501 0.56800300 6.000000
-0.39066499 -0.20827900 0.26493400 6.000000
-0.63340998 -0.21210501 -0.31607899 6.000000
0.54938000 -0.21210501 0.14759500 6.000000
0.59443301 -0.21210501 -0.15020099 6.000000
0.50001800 -0.21210501 0.45115501 6.000000
0.49898699 -0.21210501 0.36562401 6.000000
-0.48373100 -0.21210501 0.20303500 6.000000
0.59593099 -0.21210501 0.52722299 6.000000
-0.45752400 -0.21210501 -0.26136199 6.000000
0.62036300 -0.21210501 0.54108500 6.000000
-0.55650097 -0.21210501 -0.29318899 6.000000
-0.43259400 -0.21210501 -0.04161500 6.000000
0.53285903 -0.21210501 -0.17252600 6.000000
0.42035800 -0.21210501 0.57460099 6.000000
-0.53983098 -0.21210501 0.63456100 6.000000
0.62369299 -0.21210501 0.02271600 6.000000
-0.50262302 -0.21210501 -0.48769501 6.000000
-0.44336900 -0.21210501 0.33283800 6.000000
-0.49904799 -0.21210501 -0.26662800 6.000000
0.49939001 -0.21210501 0.21441300 6.000000
-0.60593498 -0.21210501 0.50943899 6.000000
0.64863402 -0.21210501 -0.15662500 6.000000
0.41777101 -0.21210501 0.08804400 6.000000
-0.52252299 -0.21210501 -0.23307900 6.000000
0.53799701 -0.21210501 0.58682197 6.000000
0.55314201 -0.21210501 0.55719799 6.000000
0.45669401 -0.21210501 -0.13450600 6.000000
0.47184801 -0.21210501 -0.45103300 6.000000
-0.52115601 -0.21210501 0.26386800 6.000000
0.50641203 -0.21210501 0.20330900 6.000000
-0.59400100 -0.21210501 -0.00608700 6.000000
-0.46954501 -0.21210501 0.62660098 6.000000
-0.46685201 -0.21210501 0.42691299 6.000000
-0.45895699 -0.21210501 -0.28603700 6.000000
0.61156601 -0.21210501 0.22458100 6.000000
0.64827198 -0.21210501 0.60625100 6.000000
-0.60153198 -0.21210501 -0.14659099 6.000000
0.58099002 -0.21210501 -0.55812597 6.000000
0.52306598 -0.21210501 0.15718000 6.000000
0.55921000 -0.21210501 0.17817700 6.000000
0.61315000 -0.21210501 -0.63722700 6.000000
0.41078001 -0.21210501 0.06286200 6.000000
-0.45913601 -0.21210501 -0.53625000 6.000000
-0.47043899 -0.21210501 0.17999500 6.000000
0.57611901 -0.21210501 0.15005000 6.000000
0.50097501 -0.21210501 -0.60488403 6.000000
0.47876000 -0.21210501 0.02339100 6.000000
-0.49388200 -0.21210501 -0.13359299 6.000000
-0.40805501 -0.21210501 -0.06366900 6.000000
0.63351601 -0.21210501 0.59046602 6.000000
0.61535800 -0.21210501 -0.50901997 6.000000
-0.42621201 -0.21210501 0.50349599 6.000000
0.50840801 -0.21210501 0.47827199 6.000000
-0.63662499 -0.21210501 -0.07330300 6.000000
0.60263097 -0.21210501 -0.55562699 6.000000
0.44148099 -0.21210501 0.07335800 6.000000
-0.60615402 -0.21210501 -0.41058201 6.000000
0.50759298 -0.21210501 0.51887298 6.000000
0.61465198 -0.21210501 0.38533500 6.000000
0.39647800 -0.21210501 -0.19623500 6.000000
0.62581998 -0.21210501 -0.06650900 6.000000
0.43008000 -0.21210501 0.44327599 6.000000
-0.63398701 -0.21210501 0.06160100 6.000000
0.58380502 -0.21210501 -0.25785401 6.000000
-0.57613802 -0.21210501 0.46191999 6.000000
-0.39485401 -0.21210501 0.55150402 6.000000
0.41011301 -0.21210501 0.49258700 6.000000
0.54193097 -0.21210501 0.59479499 6.000000
-0.61073202 -0.21210501 -0.15121201 6.000000
0.61417103 -0.21210501 0.45458001 6.000000
0.39494601 -0.21210501 -0.49878800 6.000000
-0.61575502 -0.21210501 0.47679901 6.000000
0.59561300 -0.21210501 0.31445900 6.000000
-0.56971401 -0.21210501 -0.10003800 6.000000
0.41508201 -0.21210501 0.26586100 6.000000
0.57585198 -0.21210501 -0.36107099 6.000000
-0.51379400 -0.21210501 -0.17199200 6.000000
0.58372301 -0.21210501 0.09006600 6.000000
-0.63313502 -0.21210501 -0.15539099 6.000000
-0.57024199 -0.21210501 -0.56533998 6.000000
-0.58214200 -0.21210501 -0.17381801 6.000000
0.56389302 -0.21210501 0.00793900 6.000000
0.41936800 -0.21210501 -0.34834501 6.000000
0.48033300 -0.21210501 -0.51752800 6.000000
0.64689600 -0.21210501 0.11656200 6.000000
-0.50862402 -0.21210501 -0.61479098 6.000000
-0.44606999 -0.21210501 0.31118500 6.000000
0.60376501 -0.21210501 -0.05733800 6.000000
-0.52983803 -0.21210501 -0.19476900 6.000000
0.55020702 -0.21210501 -0.02798300 6.000000
0.41799599 -0.21210501 0.32984701 6.000000
0.58047801 -0.21210501 0.39571100 6.000000
0.42269501 -0.21210501 0.07585500 6.000000
-0.57334799 -0.21210501 0.29453799 6.000000
-0.42621499 -0.21210501 -0.33706799 6.000000
-0.43935800 -0.21210501 0.22863200 6.000000
0.39466101 -0.21203899 -0.31708601 6.000000
-0.50714397 -0.21210501 0.28362200 6.000000
-0.42238399 -0.21210501 -0.22453301 6.000000
-0.42674899 -0.21210501 -0.54174799 6.000000
0.57898200 -0.21210501 -0.19873300 6.000000
-0.57305998 -0.21210501 0.13114700 6.000000
0.53660500 -0.21210501 -0.29755399 6.000000
0.59229201 -0.21210501 0.50716901 6.000000
0.58679700 -0.21210501 0.54128498 6.000000
0.61983699 -0.21210501 0.11100800 6.000000
-0.56832802 -0.21210501 0.60806102 6.000000
-0.41372699 -0.21210501 0.16066800 6.000000
0.49962500 -0.21210501 -0.28367701 6.000000
-0.62332201 -0.21210501 0.35665300 6.000000
-0.39066499 -0.20725501 0.00039000 6.000000
-0.39970499 -0.21210501 0.14842400 6.000000
0.63195997 -0.21210501 0.13488400 6.000000
0.61118197 -0.21210501 0.46871799 6.000000
-0.51391101 -0.21210501 0.51428503 6.000000
0.61392897 -0.21210501 0.54133803 6.000000
-0.51119798 -0.21210501 0.16889200 6.000000
-0.52425098 -0.21210501 -0.47886899 6.000000
-0.61606801 -0.21210501 -0.17179400 6.000000
-0.56467801 -0.21210501 0.33817101 6.000000
-0.39066499 -0.20951600 -0.11434200 6.000000
-0.61094099 -0.21210501 0.00011200 6.000000
-0.61210698 -0.21210501 -0.35531399 6.000000
0.55043799 -0.21210501 -0.36298001 6.000000
-0.47073200 -0.21210501 -0.14552499 6.000000
0.63878202 -0.21210501 -0.48250201 6.000000
0.52195501 -0.21210501 0.44910300 6.000000
0.53967100 -0.21210501 0.18362500 6.000000
0.48026201 -0.21210501 -0.23195300 6.000000
-0.50825900 -0.21210501 0.08958700 6.000000
0.52736098 -0.21210501 0.48356399 6.000000
-0.54925400 -0.21210501 0.26560301 6.000000
0.46443000 -0.21210501 -0.29625499 6.000000
0.47793999 -0.21210501 -0.52120697 6.000000
0.44294500 -0.21210501 0.23583999 6.000000
-0.48499301 -0.21210501 -0.52187699 6.000000
-0.41712901 -0.21210501 0.27043101 6.000000
-0.57946002 -0.21210501 -0.23312800 6.000000
-0.44601101 -0.21210501 -0.21940500 6.000000
-0.48784700 -0.21210501 0.06222200 6.000000
-0.48560700 -0.21210501 0.40193501 6.000000
0.56226301 -0.21210501 -0.59649599 6.000000
-0.47927800 -0.21210501 -0.45271900 6.000000
-0.39066499 -0.20655100 0.11614100 6.000000
0.39987001 -0.21210501 -0.52733397 6.000000
0.61233902 -0.21210501 0.25696000 6.000000
-0.58960801 -0.21210501 0.30213299 6.000000
0.63216799 -0.21210501 -0.15920800 6.000000
0.41888100 -0.21210501 0.31013399 6.000000
0.61247498 -0.21210501 -0.59542298 6.000000
-0.41081801 -0.21210501 -0.65056401 6.000000
0.59596199 -0.21210501 0.08255200 6.000000
-0.45453101 -0.21210501 0.04707600 6.000000
0.50607401 -0.21210501 0.01493800 6.000000
-0.56547898 -0.21210501 0.19866399 6.000000
-0.46143699 -0.21210501 -0.49995601 6.000000
-0.41829899 -0.21210501 0.23948400 6.000000
0.42797801 -0.21210501 -0.41179001 6.000000
0.50678998 -0.21210501 -0.17643200 6.000000
0.47719499 -0.21210501 -0.41597399 6.000000
0.45775300 -0.21210501 -0.45232099 6.000000
-0.64041102 -0.21210501 -0.36698601 6.000000
-0.54408097 -0.21210501 0.52676600 6.000000
-0.43629399 -0.21210501 0.34108800 6.000000
-0.48213300 -0.21210501 -0.03298300 6.000000
0.43486601 -0.21210501 -0.05355000 6.000000
-0.53178799 -0.21210501 0.51013499 6.000000
0.55764002 -0.21210501 -0.00003600 6.000000
0.42254701 -0.21210501 0.09950600 6.000000
0.46825099 -0.21210501 -0.60348099 6.000000
0.50403500 -0.21210501 0.38831800 6.000000
-0.46235099 -0.21210501 -0.15926100 6.000000
0.48347199 -0.21210501 -0.59225202 6.000000
-0.49048701 -0.21210501 0.58694702 6.000000
0.59399998 -0.21210501 -0.01962700 6.000000
-0.59907401 -0.21210501 -0.01269100 6.000000
-0.55128098 -0.21210501 0.59647000 6.000000
0.40959799 -0.21210501 -0.05936300 6.000000
0.62763202 -0.21210501 0.41927201 6.000000
0.51404798 -0.21210501 -0.27434501 6.000000
-0.61114502 -0.21210501 -0.28247499 6.000000
-0.58306301 -0.21210501 -0.16173001 6.000000
-0.45319000 -0.21210501 0.29265201 6.000000
-0.53777897 -0.21210501 0.36318901 6.000000
-0.61736298 -0.21210501 0.17914100 6.000000
-0.43459401 -0.21210501 -0.56500900 6.000000
-0.49728999 -0.21210501 -0.14880700 6.000000
-0.47603801 -0.21210501 0.07841700 6.000000
-0.43519500 -0.21210501 0.53372997 6.000000
-0.54648298 -0.21210501 0.41696799 6.000000
-0.53939098 -0.21210501 0.15158100 6.000000
0.44803500 -0.21210501 0.05233400 6.000000
-0.41638201 -0.21210501 -0.06765200 6.000000
0.39748800 -0.21210501 0.51173902 6.000000
0.64710897 -0.21210501 0.42551401 6.000000
-0.63678902 -0.21210501 -0.30064201 6.000000
0.52040100 -0.21210501 0.61920500 6.000000
0.56473500 -0.21210501 -0.14854200 6.000000
0.46167901 -0.21210501 0.46777201 6.000000
0.45025101 -0.21210501 0.03552800 6.000000
-0.50670302 -0.21210501 0.52431202 6.000000
-0.61878198 -0.21210501 0.22207800 6.000000
0.58981502 -0.21210501 -0.38038701 6.000000
0.39466101 -0.21055099 0.27872601 6.000000
-0.43607101 -0.21210501 0.09363600 6.000000
-0.41946501 -0.21210501 -0.62237000 6.000000
-0.39655399 -0.21210501 0.53894103 6.000000
0.62681699 -0.21210501 -0.37168500 6.000000
-0.40185601 -0.21210501 0.14947300 6.000000
0.39784601 -0.21210501 0.30281499 6.000000
0.51425701 -0.21210501 0.20246799 6.000000
0.60888797 -0.21210501 0.36087900 6.000000
-0.46906200 -0.21210501 -0.17944700 6.000000
0.39466101 -0.21120000 0.53623801 6.000000
0.61335200 -0.21210501 -0.44586900 6.000000
-0.55026400 -0.21210501 0.15701900 6.000000
-0.46441600 -0.21210501 -0.44031900 6.000000
-0.44566900 -0.21210501 -0.27168700 6.000000
0.40715000 -0.21210501 0.62057000 6.000000
0.46317500 -0.21210501 0.57634801 6.000000
0.52571398 -0.21210501 -0.02084900 6.000000
0.63826001 -0.21210501 0.41125801 6.000000
-0.60442901 -0.21210501 0.19394000 6.000000
0.44784901 -0.21210501 -0.01650000 6.000000
0.64304900 -0.21210501 0.02435200 6.000000
-0.49247500 -0.21210501 0.57268101 6.000000
-0.61039603 -0.21210501 0.60783303 6.000000
-0.62045699 -0.21210501 0.28562400 6.000000
0.45355299 -0.21210501 -0.53904402 6.000000
-0.64006102 -0.21210501 -0.59121698 6.000000
0.56437898 -0.21210501 0.33666101 6.000000
-0.54347098 -0.21210501 -0.60973901 6.000000
-0.40992200 -0.21210501 -0.45882699 6.000000
-0.56981099 -0.21210501 -0.35464501 6.000000
0.56495100 -0.21210501 -0.51165003 6.000000
-0.60022199 -0.21210501 0.32204100 6.000000
-0.47401199 -0.21210501 0.38524699 6.000000
-0.48419899 -0.21210501 -0.17813499 6.000000
-0.53554302 -0.21210501 -0.63620001 6.000000
0.45754001 -0.21210501 -0.16562200 6.000000
-0.46274400 -0.21210501 0.61699402 6.000000
-0.51362002 -0.21210501 0.24085200 6.000000
0.52705002 -0.21210501 0.39212200 6.000000
-0.53604299 -0.21210501 0.37625900 6.000000
-0.59200102 -0.21210501 0.07528800 6.000000
-0.52290499 -0.21210501 0.59446400 6.000000
0.44224599 -0.21210501 -0.41892600 6.000000
0.52869898 -0.21210501 -0.59040499 6.000000
-0.60556400 -0.21210501 -0.14476900 6.000000
0.48760599 -0.21210501 0.16091301 6.000000
-0.59959900 -0.21210501 0.08279500 6.000000
-0.59740198 -0.21210501 -0.44793600 6.000000
0.42232999 -0.21210501 0.27274600 6.000000
-0.57871598 -0.21210501 -0.54162103 6.000000
0.59981602 -0.21210501 0.09964900 6.000000
0.40755901 -0.21210501 0.52377301 6.000000
-0.50255001 -0.21210501 0.26186800 6.000000
-0.55126601 -0.21210501 0.24065000 6.000000
-0.41108999 -0.21210501 -0.20034100 6.000000
0.40118301 -0.21210501 0.11365200 6.000000
0.45225501 -0.21210501 0.22508501 6.000000
0.51129597 -0.21210501 -0.06793200 6.000000
0.52932900 -0.21210501 -0.18757100 6.000000
0.50005800 -0.21210501 -0.63296998 6.000000
-0.57488900 -0.21210501 -0.35152799 6.000000
0.57585800 -0.21210501 -0.24001101 6.000000
0.56870103 -0.21210501 0.23888600 6.000000
-0.51095301 -0.21210501 0.32844600 6.000000
-0.45569101 -0.21210501 0.00597600 6.000000
0.43464801 -0.21210501 -0.23767400 6.000000
0.39466101 -0.20926000 0.37945500 6.000000
0.56089801 -0.21210501 -0.18469501 6.000000
-0.64238203 -0.21210501 0.28972700 6.000000
0.62733299 -0.21210501 -0.42080301 6.000000
-0.63052702 -0.21210501 -0.00109900 6.000000
-0.64192301 -0.21210501 0.23744200 6.000000
-0.62807900 -0.21210501 0.62224799 6.000000
0.46657601 -0.21210501 0.46129900 6.000000
-0.56578302 -0.21210501 -0.01846300 6.000000
-0.61176300 -0.21210501 0.34022000 6.000000
-0.64102203 -0.21210501 0.25845399 6.000000
-0.57216501 -0.21210501 0.57518202 6.000000
0.44485700 -0.21210501 -0.64537901 6.000000
-0.58369398 -0.21210501 -0.18075900 6.000000
0.48688999 -0.21210501 -0.03062200 6.000000
-0.62188900 -0.21210501 -0.04609200 6.000000
0.50002998 -0.21210501 -0.61100000 6.000000
0.61727899 -0.21210501 0.54541302 6.000000
-0.45706999 -0.21210501 -0.37364101 6.000000
-0.61011201 -0.21210501 -0.51783597 6.000000
-0.59608102 -0.21210501 -0.61409098 6.000000
-0.39066499 -0.20699801 0.46516001 6.000000
0.48904699 -0.21210501 -0.45647699 6.000000
0.40686300 -0.21210501 0.17051899 6.000000
-0.43765599 -0.21210501 0.31619900 6.000000
0.44715899 -0.21210501 0.34250000 6.000000
0.59041798 -0.21210501 0.37326601 6.000000
0.39466101 -0.20550200 -0.46289501 6.000000
-0.53695399 -0.21210501 -0.40841299 6.000000
-0.39510101 -0.21210501 0.46238700 6.000000
0.62619698 -0.21210501 -0.11841000 6.000000
-0.45625499 -0.21210501 0.24238400 6.000000
0.63416302 -0.21210501 -0.52898198 6.000000
0.62295401 -0.21210501 0.56418198 6.000000
-0.41441500 -0.21210501 -0.45073900 6.000000
-0.52041203 -0.21210501 0.63160300 6.000000
0.53091300 -0.21210501 0.10038600 6.000000
0.50487697 -0.21210501 -0.07452500 6.000000
-0.39066499 -0.20766500 0.63912600 6.000000
-0.60560101 -0.21210501 -0.58994102 6.000000
0.53607702 -0.21210501 0.24497700 6.000000
0.48265401 -0.21210501 0.51955003 6.000000
-0.62404901 -0.21210501 -0.04992000 6.000000
0.45693201 -0.21210501 -0.56830001 6.000000
0.41525501 -0.21210501 -0.52394098 6.000000
0.63497400 -0.21210501 -0.32654601 6.000000
0.53898400 -0.21210501 -0.41873500 6.000000
-0.43317300 -0.21210501 0.56203401 6.000000
0.46675599 -0.21210501 -0.27365801 6.000000
-0.54231000 -0.21210501 -0.46043101 6.000000
0.41432700 -0.21210501 0.15246600 6.000000
0.57410198 -0.21210501 -0.25671199 6.000000
-0.49298501 -0.21210501 0.15551700 6.000000
-0.57936198 -0.21210501 0.36607599 6.000000
-0.46715900 -0.21210501 -0.39008099 6.000000
0.64076400 -0.21210501 -0.33735800 6.000000
0.45362699 -0.21210501 0.03808000 6.000000
0.62498701 -0.21210501 0.26909599 6.000000
-0.55245697 -0.21210501 0.31457800 6.000000
-0.44645399 -0.21210501 -0.48353899 6.000000
0.50590700 -0.21210501 0.26989201 6.000000
0.57963598 -0.21210501 -0.35446200 6.000000
-0.44632199 -0.21210501 -0.30377901 6.000000
0.58408302 -0.21210501 -0.29545501 6.000000
0.58109599 -0.21210501 0.23705700 6.000000
-0.53752702 -0.21210501 -0.28139201 6.000000
-0.64174700 -0.21210501 0.04828200 6.000000
-0.47317201 -0.21210501 -0.57029498 6.000000
0.50434202 -0.21210501 0.01768300 6.000000
0.54676002 -0.21210501 0.50950903 6.000000
0.55954802 -0.21210501 0.05765700 6.000000
0.50989902 -0.21210501 0.50314498 6.000000
-0.48976001 -0.21210501 0.09273400 6.000000
-0.51876599 -0.21210501 -0.15999900 6.000000
0.59122002 -0.21210501 0.42273501 6.000000
0.60866302 -0.21210501 -0.01548300 6.000000
-0.50026900 -0.21210501 -0.42319301 6.000000
0.42753300 -0.21210501 -0.29445201 6.000000
0.62421697 -0.21210501 0.53317398 6.000000
0.47169000 -0.21210501 -0.40139201 6.000000
0.47079501 -0.21210501 -0.04672700 6.000000
0.45777699 -0.21210501 0.29227301 6.000000
-0.41983899 -0.21210501 0.30644199 6.000000
0.53052402 -0.21210501 -0.39823699 6.000000
0.50137699 -0.21210501 -0.17389899 6.000000
0.39562300 -0.21210501 -0.22697900 6.000000
-0.62816697 -0.21210501 0.01576100 6.000000
0.55190998 -0.21210501 -0.54096001 6.000000
-0.44234401 -0.21210501 -0.34505999 6.000000
0.46558800 -0.21210501 -0.38268799 6.000000
-0.62160498 -0.21210501 0.10763400 6.000000
-0.61837298 -0.21210501 0.19134200 6.000000
-0.50025201 -0.21210501 -0.23633000 6.000000
0.48901299 -0.21210501 0.12285000 6.000000
-0.58018702 -0.21210501 0.47648400 6.000000
-0.60328197 -0.21210501 0.12342500 6.000000
-0.63338202 -0.21210501 -0.52006501 6.000000
0.39466101 -0.21030700 0.31880701 6.000000
-0.41032100 -0.21210501 0.23935100 6.000000
0.55388403 -0.21210501 0.34550399 6.000000
0.46666300 -0.21210501 0.21986000 6.000000
-0.50345898 -0.21210501 0.56160700 6.000000
-0.54335898 -0.21210501 0.45778099 6.000000
-0.58239198 -0.21210501 -0.16381200 6.000000
0.51481497 -0.21210501 0.21646500 6.000000
0.63957602 -0.21210501 0.23289800 6.000000
0.63985300 -0.21210501 0.59303403 6.000000
0.52281302 -0.21210501 0.58520597 6.000000
0.57938099 -0.21210501 0.42566600 6.000000
0.47110900 -0.21210501 0.47893101 6.000000
0.63316298 -0.21210501 0.00543900 6.000000
0.57389700 -0.21210501 -0.14926501 6.000000
-0.64440203 -0.21210501 0.38159999 6.000000
0.41947299 -0.21210501 -0.48530000 6.000000
0.60346299 -0.21210501 0.54223502 6.000000
-0.52565402 -0.21210501 0.31742799 6.000000
0.51786900 -0.21210501 0.62890297 6.000000
-0.62447000 -0.21210501 0.46311501 6.000000
0.56780702 -0.21210501 -0.20939800 6.000000
-0.53148502 -0.21210501 0.61632800 6.000000
-0.49289101 -0.21210501 -0.09690400 6.000000
-0.42233801 -0.21210501 -0.08766400 6.000000
0.41134000 -0.21210501 0.28940299 6.000000
0.55278301 -0.21210501 0.46279001 6.000000
-0.50395298 -0.21210501 0.33424601 6.000000
-0.63873398 -0.21210501 0.19428600 6.000000
0.61029398 -0.21210501 -0.49026901 6.000000
0.43162301 -0.21210501 0.11728200 6.000000
0.39466101 -0.21129100 0.31649500 6.000000
-0.57753497 -0.21210501 -0.48419699 6.000000
0.42651701 -0.21210501 0.17570500 6.000000
0.60451698 -0.21210501 -0.12445500 6.000000
-0.43316099 -0.21210501 0.59398800 6.000000
-0.58747000 -0.21210501 0.29243901 6.000000
0.61710900 -0.21210501 0.54360598 6.000000
-0.54932898 -0.21210501 -0.55740201 6.000000
-0.39066499 -0.20877500 0.01348100 6.000000
-0.45491901 -0.21210501 -0.17484300 6.000000
0.60183197 -0.21210501 0.05737300 6.000000
-0.64156300 -0.21210501 0.41396201 6.000000
0.43751600 -0.21210501 -0.12761500 6.000000
0.57561201 -0.21210501 0.08100300 6.000000
-0.47419101 -0.21210501 -0.03358400 6.000000
-0.51339501 -0.21210501 0.18887000 6.000000
0.59269297 -0.21210501 -0.53855097 6.000000
-0.45157900 -0.21210501 0.14020200 6.000000
-0.45417500 -0.21210501 0.04596400 6.000000
0.58625799 -0.21210501 -0.59948099 6.000000
-0.56001502 -0.21210501 -0.47075701 6.000000
0.49214700 -0.21210501 -0.17636700 6.000000
-0.39066499 -0.20745000 0.21639800 6.000000
0.60386902 -0.21210501 0.03875600 6.000000
0.57173401 -0.21210501 -0.05451500 6.000000
0.51084602 -0.21210501 -0.50620699 6.000000
-0.55479002 -0.21210501 -0.01529900 6.000000
0.46946099 -0.21210501 0.47287601 6.000000
0.48696801 -0.21210501 -0.04528800 6.000000
0.39716801 -0.21210501 0.10827100 6.000000
-0.55284297 -0.21210501 -0.42586899 6.000000
0.63621098 -0.21210501 0.16905700 6.000000
-0.39066499 -0.21003300 0.14894301 6.000000
0.54076600 -0.21210501 0.44988301 6.000000
-0.46753800 -0.21210501 0.55513400 6.000000
-0.42457101 -0.21210501 0.37475100 6.000000
0.55535400 -0.21210501 0.11687600 6.000000
0.54741102 -0.21210501 0.48530301 6.000000
0.64859802 -0.21210501 0.22155200 6.000000
0.59317201 -0.21210501 -0.16014700 6.000000
-0.61095703 -0.21210501 -0.01733100 6.000000
0.61744100 -0.21210501 -0.31726599 6.000000
-0.40534499 -0.21210501 -0.62550402 6.000000
-0.44606099 -0.21210501 -0.47758800 6.000000
-0.54313803 -0.21210501 -0.37281001 6.000000
-0.52947700 -0.21210501 -0.30997300 6.000000
0.39466101 -0.20774500 -0.60496700 6.000000
-0.56860000 -0.21210501 0.29826000 6.000000
-0.56671798 -0.21210501 0.49075499 6.000000
0.48844299 -0.21210501 -0.18512800 6.000000
0.55309302 -0.21210501 0.19088900 6.000000
-0.57712799 -0.21210501 -0.19119699 6.000000
0.39952999 -0.21210501 -0.18721300 6.000000
-0.52758402 -0.21210501 -0.19358601 6.000000
0.64188999 -0.21210501 -0.10584200 6.000000
0.39466101 -0.20685300 -0.20078699 6.000000
0.46172699 -0.21210501 0.31460801 6.000000
-0.53725803 -0.21210501 0.44332200 6.000000
-0.44593900 -0.21210501 0.24993099 6.000000
-0.55661201 -0.21210501 0.50993299 6.000000
-0.39066499 -0.20796300 0.23849000 6.000000
0.56905699 -0.21210501 0.09140400 6.000000
-0.50705701 -0.21210501 0.27579999 6.000000
-0.60491002 -0.21210501 -0.29672399 6.000000
0.49845099 -0.21210501 -0.52188402 6.000000
-0.45334801 -0.21210501 0.48388699 6.000000
-0.56498301 -0.21210501 -0.35410100 6.000000
-0.41584399 -0.21210501 -0.40525299 6.000000
-0.45366299 -0.21210501 -0.19114700 6.000000
