0.07027800 0.21771000 0.16495401 0.000000
0.13965400 -0.58894098 -0.11977900 0.000000
0.09078900 0.51392901 -0.15956400 0.000000
-0.12063000 -0.34837800 -0.13713600 0.000000
0.14158501 0.38292700 -0.11700400 0.000000
-0.10686100 0.34209400 -0.14779299 0.000000
0.08635800 0.25125000 0.15764500 0.000000
-0.16855600 -0.55572999 0.06212800 0.000000
-0.08781400 0.32831201 -0.16040599 0.000000
0.04512600 -0.53013903 -0.17865300 0.000000
-0.10649600 0.28578600 -0.14807500 0.000000
0.11863300 -0.69191098 0.13543600 0.000000
-0.04189600 -0.41645899 -0.17820700 0.000000
-0.05288100 -0.45768201 0.17068300 0.000000
0.00996600 0.51070601 0.17933100 0.000000
0.11423300 -0.53479701 0.13961899 0.000000
0.16772901 -0.33526099 -0.07248800 0.000000
-0.08620500 0.47446001 -0.16119500 0.000000
0.15863700 0.13288100 0.08782500 0.000000
0.17200400 0.55173600 -0.06252700 0.000000
0.02812000 -0.64881200 0.17657800 0.000000
0.17971900 -0.52819097 -0.03121700 0.000000
-0.13540700 -0.96563601 0.11673000 0.000000
0.17286199 -0.56227303 0.05584700 0.000000
-0.18065900 0.01370300 0.00119100 0.000000
0.02104400 -0.45818999 0.17766200 0.000000
0.01019900 -0.44967800 0.17932400 0.000000
-0.10955200 -0.01712800 0.14103000 0.000000
-0.17292500 -0.55650198 -0.05288500 0.000000
0.07066100 0.14147800 -0.16949300 0.000000
-0.15974601 0.36015201 -0.08584100 0.000000
-0.17649999 0.22980601 -0.04149000 0.000000
0.18187200 0.06240800 0.00661300 0.000000
-0.17977799 -0.85476702 -0.01452800 0.000000
-0.00083500 -0.91288900 0.17878300 0.000000
-0.01120700 -0.49843299 0.17825700 0.000000
-0.17518900 -0.56156999 -0.04566600 0.000000
0.04509700 0.50554198 -0.17865799 0.000000
0.14763600 -0.14402001 -0.10831000 0.000000
0.15414400 -0.05235000 0.09428000 0.000000
-0.18067300 0.04443700 0.00105400 0.000000
0.12634900 -0.64171201 -0.13278200 0.000000
-0.16140200 -0.05329000 -0.08285800 0.000000
0.00944900 -0.48528799 0.17930400 0.000000
0.16595700 0.54397601 -0.07661800 0.000000
0.10143600 0.40145001 0.14824700 0.000000
-0.06015400 -0.55249602 0.16879900 0.000000
0.01201800 0.19343100 0.17904501 0.000000
0.17616200 -0.67447698 -0.04852500 0.000000
0.15340801 -0.31531799 -0.10001700 0.000000
-0.05257300 -0.05896600 0.17076200 0.000000
-0.08973900 0.18720300 -0.15946101 0.000000
-0.17935701 -0.97481698 0.01399000 0.000000
0.09168500 -0.87450999 0.15432499 0.000000
0.08185500 0.53034198 0.16045199 0.000000
-0.14174099 0.04246000 0.10935200 0.000000
-0.06217200 -0.34973800 -0.17295700 0.000000
-0.14914700 -0.60223699 -0.10493700 0.000000
-0.15442100 -0.68054998 -0.09543500 0.000000
0.16915500 -0.30952600 0.06448600 0.000000
0.12099000 -0.25677699 -0.13787600 0.000000
0.08679800 -0.92916900 0.15737100 0.000000
-0.06665200 0.13175900 -0.17078599 0.000000
-0.01722300 0.43166599 0.17795201 0.000000
-0.12921099 0.46413100 0.12394700 0.000000
0.14908300 -0.83436900 -0.10623100 0.000000
0.18055201 0.45043901 -0.02716700 0.000000
0.06344900 0.07012400 -0.17216399 0.000000
0.09005300 0.15165500 0.15534200 0.000000
-0.17930900 -0.06528200 -0.01914300 0.000000
-0.17930999 -0.60432899 -0.01913600 0.000000
0.17578800 -0.30314201 0.04566900 0.000000
-0.05189900 -0.35804999 0.17093700 0.000000
0.06841700 -0.75325900 -0.17032300 0.000000
0.14867499 -0.47895601 0.10213800 0.000000
-0.17834000 0.50003302 0.02399300 0.000000
-0.15034300 0.08861000 -0.10278300 0.000000
-0.13498500 -0.77739000 0.11722100 0.000000
0.13677301 -0.02824500 0.11819300 0.000000
0.02520100 -0.22039300 -0.18170600 0.000000
0.08762300 -0.72390300 -0.16153701 0.000000
-0.15274701 0.20479099 -0.09845200 0.000000
-0.02124000 -0.13094500 -0.18242800 0.000000
0.17822701 -0.72668898 0.03379800 0.000000
-0.16875900 0.30674401 0.06148100 0.000000
0.06839100 0.08894200 0.16565301 0.000000
-0.10081100 0.20878400 -0.15247700 0.000000
-0.09039400 -0.95082903 -0.15914001 0.000000
-0.11082300 0.08175900 0.14004600 0.000000
-0.16968200 -0.83700901 -0.06321800 0.000000
0.12410600 -0.17913599 -0.13491400 0.000000
0.03659400 -0.33469099 0.17528000 0.000000
0.17646401 0.16816700 0.04237600 0.000000
-0.15731600 -0.42472100 -0.09021900 0.000000
0.13274001 -0.07972600 0.12202700 0.000000
0.12336800 -0.59637499 0.13093600 0.000000
0.08394600 -0.52563101 -0.16382900 0.000000
-0.14025600 -0.80849898 0.11108100 0.000000
-0.17945400 -0.65832102 -0.01771300 0.000000
-0.05031100 -0.26759800 0.17134801 0.000000
-0.15267301 0.34812799 -0.09858400 0.000000
-0.12241000 -0.50076199 0.13107701 0.000000
0.03602700 -0.50578302 0.17536700 0.000000
-0.11195000 -0.03816100 -0.14385401 0.000000
0.15455800 -0.41244501 -0.09836500 0.000000
-0.17836300 -0.52813298 -0.02844200 0.000000
0.14599501 0.06375200 0.10598800 0.000000
-0.17300600 0.06618600 -0.05262700 0.000000
0.17823100 -0.49379501 0.03377800 0.000000
0.06666600 -0.76154798 0.16629200 0.000000
0.09338100 -0.69267303 -0.15794800 0.000000
0.06622400 0.32624900 0.16645500 0.000000
-0.17946801 -0.89595300 0.01289600 0.000000
-0.16203000 0.50300503 -0.08172700 0.000000
-0.02319300 -0.25742900 -0.18232900 0.000000
0.16803600 -0.52320302 -0.07177300 0.000000
0.15737300 -0.74820000 -0.09432100 0.000000
-0.08104400 -0.92540801 0.15904599 0.000000
0.08481100 -0.74802899 -0.16328900 0.000000
-0.17810699 0.36300600 0.02628100 0.000000
-0.16560100 -0.12428100 0.07061300 0.000000
-0.00361700 0.08347300 -0.18332200 0.000000
0.13703400 -0.44983301 -0.12262500 0.000000
-0.01884900 -0.87535399 0.17786901 0.000000
0.07478000 -0.60526597 0.16328700 0.000000
-0.17828900 0.15751199 -0.02917200 0.000000
0.05497800 -0.95764399 -0.17530100 0.000000
0.11017600 -0.18067101 0.14279900 0.000000
0.17747600 0.33972099 -0.04213200 0.000000
0.08272400 -0.12920199 -0.16459000 0.000000
-0.13829900 -0.66051602 0.11336100 0.000000
-0.08879700 -0.94005901 0.15524299 0.000000
0.18187200 -0.82251197 0.00949000 0.000000
0.17752200 -0.13235199 -0.04191000 0.000000
-0.14477800 0.42808601 0.10581400 0.000000
-0.17814100 -0.23926800 0.02595000 0.000000
0.08984800 -0.37422401 0.15547000 0.000000
-0.16049100 0.49622601 -0.08450000 0.000000
0.14658900 0.24238600 -0.10981400 0.000000
0.16608900 -0.22163200 -0.07630900 0.000000
-0.07723900 -0.72723502 -0.16559300 0.000000
-0.08832300 -0.53950602 0.15547501 0.000000
0.05780200 0.53073901 0.16957501 0.000000
-0.13815300 -0.45621401 0.11353100 0.000000
-0.17635500 -0.06257500 0.03727200 0.000000
-0.05781400 0.09818100 -0.17408501 0.000000
0.16847600 0.21103100 -0.07074800 0.000000
0.15630400 0.47694999 0.09117600 0.000000
0.16690300 -0.15621500 0.06973300 0.000000
0.18187200 -0.19030701 -0.01915100 0.000000
0.01077400 -0.65246397 -0.18391600 0.000000
0.17730001 0.41688201 -0.04299000 0.000000
0.08392600 -0.78963000 -0.16384099 0.000000
0.00133000 -0.32092899 0.17889300 0.000000
0.04626600 0.19841699 -0.17847900 0.000000
-0.16481499 -0.20198999 -0.07670800 0.000000
-0.12293200 -0.70053202 0.13067301 0.000000
-0.10048900 -0.08679900 0.14804500 0.000000
0.05430200 -0.67162198 -0.17555100 0.000000
-0.14094800 0.31151000 0.11027500 0.000000
-0.11224200 0.06294500 0.13894700 0.000000
0.05722200 -0.51992399 -0.17447001 0.000000
-0.15285900 -0.19924700 -0.09824900 0.000000
-0.03438700 -0.79516399 0.17547099 0.000000
0.13818599 -0.15808600 -0.12153000 0.000000
0.13249999 0.14416499 0.12225500 0.000000
0.11653500 0.33695799 0.13743100 0.000000
0.13910300 0.39036500 0.11589000 0.000000
-0.11140700 0.22081099 -0.14427400 0.000000
-0.02410300 0.47411901 -0.18228300 0.000000
0.07667500 -0.53434801 0.16258501 0.000000
0.17145699 -0.14978400 0.05912000 0.000000
-0.16180500 -0.23230700 0.07745200 0.000000
0.11163000 0.20296299 -0.14657301 0.000000
-0.08515400 -0.79114097 0.15703000 0.000000
-0.14365700 -0.63118899 0.10711900 0.000000
-0.18067200 -0.31586799 -0.00573500 0.000000
0.08059800 0.31110600 0.16113199 0.000000
0.05416800 0.13038699 -0.17560101 0.000000
0.17647199 -0.38578901 -0.04701800 0.000000
-0.05765700 -0.71646398 0.16944601 0.000000
0.08591100 -0.81500298 0.15792300 0.000000
0.17857800 -0.16775700 -0.03677200 0.000000
-0.17244101 -0.49200401 0.04974700 0.000000
0.17812800 -0.45621499 0.03428000 0.000000
-0.16159999 0.54086101 0.07782000 0.000000
-0.06007300 -0.35906601 -0.17350100 0.000000
0.18187200 0.16181999 0.00486600 0.000000
-0.16706701 -0.08173700 -0.07155400 0.000000
0.17611501 -0.00261900 -0.04875600 0.000000
-0.03151100 -0.95392102 0.17621499 0.000000
0.02670400 0.18059801 -0.18147500 0.000000
0.07022800 -0.02127700 -0.16965300 0.000000
0.06267000 0.19410799 0.16777200 0.000000
0.15076600 0.00833700 -0.10381300 0.000000
-0.01187900 0.37327999 0.17822300 0.000000
0.07517800 0.45005000 -0.16782001 0.000000
0.09443800 -0.20484500 -0.15728900 0.000000
-0.02925100 -0.31433499 0.17680100 0.000000
0.18049200 -0.47386000 -0.02745600 0.000000
0.14911801 -0.28906101 0.10150100 0.000000
0.07198000 -0.97275198 -0.16900399 0.000000
0.02094100 0.08452000 0.17767800 0.000000
-0.13681599 -0.69768298 0.11508900 0.000000
0.14673901 -0.03453500 -0.10959900 0.000000
-0.17171800 0.01043800 0.05205000 0.000000
0.06392900 -0.46535599 -0.17198600 0.000000
-0.16619401 -0.52696800 -0.07422400 0.000000
0.13452600 -0.13823400 -0.12500900 0.000000
-0.14216600 0.04653800 -0.11353700 0.000000
-0.17530499 -0.51934201 -0.04529900 0.000000
0.09034600 -0.82382298 0.15515900 0.000000
-0.01028800 -0.15729900 0.17830300 0.000000
0.17710900 0.25374499 0.03924100 0.000000
-0.16494100 0.54810101 -0.07648300 0.000000
-0.11051100 -0.37156200 0.14028800 0.000000
0.06382900 0.19792700 -0.17202300 0.000000
0.17472200 0.53513998 -0.05553600 0.000000
-0.16120300 -0.20923400 -0.08321600 0.000000
0.15413500 -0.44747001 -0.09897200 0.000000
-0.17214100 -0.90837997 0.05070200 0.000000
0.18187200 -0.54535300 0.01566000 0.000000
0.18187200 -0.11432000 0.00683000 0.000000
0.03337800 -0.33538699 -0.18045300 0.000000
0.18075900 0.30839801 -0.02615900 0.000000
0.15825400 0.13790600 -0.09305500 0.000000
-0.00696700 -0.47045001 -0.18315201 0.000000
-0.16423200 -0.49284399 0.07307900 0.000000
0.15019600 0.32089999 -0.10463300 0.000000
0.07281900 0.11474200 -0.16869301 0.000000
-0.08379400 0.15691400 -0.16237700 0.000000
0.06440600 -0.11727100 0.16712900 0.000000
-0.16623899 0.43215299 0.06946300 0.000000
0.01201500 -0.46091899 -0.18372600 0.000000
-0.05033400 -0.04898200 -0.17602199 0.000000
0.16417100 -0.52322298 0.07609900 0.000000
-0.17742100 -0.35817000 -0.03770600 0.000000
0.14721200 -0.30582899 0.10424000 0.000000
-0.17145900 0.45408201 -0.05755800 0.000000
-0.15351900 -0.93881798 -0.09705900 0.000000
-0.13703200 0.50928199 -0.11951700 0.000000
0.18187200 -0.55983102 -0.01737600 0.000000
0.11250100 -0.12535299 -0.14594600 0.000000
0.00392800 0.17232201 -0.18370500 0.000000
0.14980701 0.48352900 0.10051100 0.000000
0.12781700 0.28133100 -0.13138700 0.000000
0.16084500 -0.09430800 -0.08852900 0.000000
0.09698100 -0.75216901 -0.15570401 0.000000
0.04733000 -0.09186800 -0.17813300 0.000000
0.09203400 -0.85017699 0.15410700 0.000000
0.17305000 0.02401900 0.05540900 0.000000
-0.12857001 -0.21843500 -0.12937400 0.000000
0.07536500 -0.22901700 0.16306999 0.000000
0.16616100 -0.61628997 0.07146300 0.000000
-0.17864200 -0.10239600 -0.02570000 0.000000
-0.04658400 0.40589300 0.17231300 0.000000
-0.11049000 0.06933100 0.14030400 0.000000
-0.15672000 -0.35945299 -0.09129200 0.000000
-0.12821800 0.30559301 0.12510300 0.000000
0.16892800 0.43546399 0.06501400 0.000000
0.15728299 0.51165098 -0.09445000 0.000000
-0.13760200 -0.81018603 -0.11885300 0.000000
-0.15109199 -0.30578500 -0.10143300 0.000000
0.01247100 0.39603600 0.17897600 0.000000
0.01534700 0.50058103 -0.18321501 0.000000
0.03827500 0.20896100 -0.17970300 0.000000
-0.14776000 -0.26377299 0.10234000 0.000000
-0.14454800 0.15784200 0.10608200 0.000000
0.07516600 0.34584799 0.16314401 0.000000
0.10325300 0.29267800 -0.15179500 0.000000
-0.15437800 -0.93581599 0.09083200 0.000000
-0.16654000 -0.49150199 0.06855400 0.000000
-0.16983500 -0.52279502 0.05805200 0.000000
-0.07851700 -0.35894701 -0.16496600 0.000000
-0.14420800 -0.45756999 0.10647800 0.000000
0.00349000 -0.66563600 0.17900200 0.000000
0.05248900 -0.11382800 0.17154200 0.000000
0.15049601 -0.31991500 0.09952100 0.000000
-0.01956700 0.24065199 0.17783301 0.000000
0.14191300 0.47398201 -0.11653300 0.000000
0.17618500 0.28344399 0.04373500 0.000000
-0.05303100 0.02057800 -0.17532399 0.000000
0.15895700 -0.52621400 -0.09204400 0.000000
-0.17361000 0.03484100 -0.05069900 0.000000
0.09981200 -0.44526300 -0.15393899 0.000000
0.17972600 -0.62185001 0.02650500 0.000000
-0.05306100 -0.88664299 0.17063600 0.000000
-0.09342700 -0.88566798 -0.15765201 0.000000
0.17883500 -0.55178797 0.03083800 0.000000
-0.15681501 -0.64392698 0.08644200 0.000000
-0.07567900 -0.44952899 0.16167800 0.000000
-0.11409000 0.33718699 0.13751800 0.000000
0.14567500 -0.78693801 -0.11112700 0.000000
0.13494200 -0.57329202 0.11993400 0.000000
-0.01636700 0.44615501 -0.18267500 0.000000
-0.15742201 0.53507602 0.08534800 0.000000
-0.07502000 -0.24458601 0.16200100 0.000000
-0.02174000 -0.04658000 0.17772301 0.000000
-0.04464500 0.50312001 0.17281500 0.000000
0.05779700 0.28250799 0.16957600 0.000000
-0.15797099 -0.18118399 0.08435900 0.000000
-0.02409400 0.37622401 -0.18228300 0.000000
0.18187200 0.05402400 0.00740100 0.000000
0.08789000 -0.82920003 -0.16137099 0.000000
0.15914200 -0.04513800 0.08709900 0.000000
-0.13819200 -0.75868899 0.11348600 0.000000
-0.18024200 -0.84936398 -0.00996900 0.000000
0.07167500 -0.57107300 0.16443700 0.000000
-0.12649500 -0.54706800 0.12711100 0.000000
-0.18033700 0.40041399 0.00435000 0.000000
-0.16961201 -0.20373800 0.05876200 0.000000
-0.07234400 -0.13231599 0.16331300 0.000000
0.12773301 -0.84735203 -0.13146700 0.000000
-0.17605400 -0.58741301 0.03823100 0.000000
0.17520800 -0.68636101 -0.05316800 0.000000
-0.08965500 0.23073500 -0.15950200 0.000000
-0.05512500 0.05507000 -0.17478199 0.000000
-0.02307700 -0.01371800 0.17765500 0.000000
-0.02395400 -0.06268000 -0.18229100 0.000000
0.10600500 0.27348500 0.14539900 0.000000
0.18187200 -0.92385000 -0.00878600 0.000000
-0.09838000 0.42781401 -0.15435800 0.000000
-0.07862300 -0.12860900 0.16023301 0.000000
-0.04324000 0.13678101 0.17317900 0.000000
-0.08312500 -0.63130999 0.15802500 0.000000
-0.17744400 0.05010200 -0.03748400 0.000000
-0.13468599 0.06329700 -0.12225000 0.000000
0.00281600 -0.64607298 -0.18364801 0.000000
-0.14730200 0.04799500 0.10287400 0.000000
-0.04119700 -0.84661603 -0.17838800 0.000000
-0.17802800 0.49309200 -0.03174400 0.000000
0.15668701 -0.02739200 0.09062600 0.000000
0.17781401 -0.30759099 -0.04048700 0.000000
-0.02634900 0.33306101 -0.18216901 0.000000
-0.01353900 -0.57586497 -0.18281899 0.000000
0.15397000 -0.08784100 0.09453000 0.000000
0.09406200 0.28622901 0.15284300 0.000000
0.18187200 -0.22608300 0.01140100 0.000000
0.12870800 -0.50211197 -0.13054000 0.000000
0.15830900 -0.54280901 0.08829500 0.000000
0.13188200 0.54288399 0.12284200 0.000000
-0.17166100 -0.01051600 -0.05691200 0.000000
0.15272200 -0.89195198 -0.10100200 0.000000
-0.17127700 0.01909600 0.05345700 0.000000
0.01232100 -0.49788901 -0.18367900 0.000000
0.00143100 -0.32813001 -0.18357800 0.000000
0.01667600 0.32712299 0.17833100 0.000000
-0.14737301 0.16225401 0.10279100 0.000000
0.13739000 0.41486701 -0.12228700 0.000000
0.08277000 -0.87600899 -0.16456200 0.000000
0.01276600 0.40423599 0.17893000 0.000000
-0.13213600 -0.36941499 0.12053900 0.000000
-0.08820900 -0.39469001 0.15553100 0.000000
0.16022700 -0.41540501 0.08529000 0.000000
0.09483600 -0.93759298 0.15236101 0.000000
0.00556900 0.14905401 0.17910799 0.000000
0.13946301 0.03268100 0.11537200 0.000000
0.00671200 -0.95111799 0.17916600 0.000000
0.09195300 -0.31806901 0.15415800 0.000000
0.12004300 -0.35191801 -0.13877600 0.000000
-0.15994200 -0.83779901 0.08080700 0.000000
0.03685300 0.05992900 0.17524000 0.000000
0.07125600 0.41939801 -0.16927201 0.000000
-0.16752200 -0.60232002 -0.07010400 0.000000
0.15718800 -0.96298701 0.08990700 0.000000
-0.04412900 -0.89843398 -0.17762899 0.000000
0.17622200 -0.73121500 -0.04823700 0.000000
0.02517700 -0.09101700 -0.18170901 0.000000
-0.10245200 -0.39905301 -0.15120600 0.000000
-0.08638000 -0.21426000 0.15642899 0.000000
0.13681801 -0.34804401 -0.12283100 0.000000
-0.12926400 -0.58729100 0.12388600 0.000000
-0.05915400 -0.59039700 -0.17373900 0.000000
-0.17714900 0.08310300 -0.03942000 0.000000
-0.17869200 0.54321897 0.02053500 0.000000
0.16456300 -0.05755400 -0.07986700 0.000000
0.12548999 0.49878499 0.12891901 0.000000
0.13909499 0.19278400 -0.12058200 0.000000
-0.17201801 0.05257100 -0.05577400 0.000000
-0.13930300 -0.17332099 -0.11687200 0.000000
-0.05411400 -0.43979600 -0.17504400 0.000000
0.12603401 -0.92124599 0.12840199 0.000000
0.09206800 -0.31443399 0.15408599 0.000000
0.05379800 -0.65826398 0.17105800 0.000000
-0.04373200 0.44574800 0.17305100 0.000000
0.18032800 0.03922000 0.02357300 0.000000
-0.17746800 -0.41908300 0.03256700 0.000000
-0.17575701 0.19863699 -0.04385700 0.000000
-0.17977700 0.01889800 -0.01454100 0.000000
0.04469700 0.31650001 0.17403901 0.000000
-0.16725500 -0.93368900 0.06627600 0.000000
0.09426700 0.18145600 0.15271500 0.000000
0.16734500 0.46842000 0.06870200 0.000000
-0.07531000 -0.27175400 -0.16653900 0.000000
0.15413800 -0.12389100 0.09428800 0.000000
-0.16974400 -0.32847399 0.05834300 0.000000
0.03379400 -0.16795699 -0.18038900 0.000000
-0.16424400 -0.96572697 0.07305700 0.000000
0.02166000 0.02872700 0.17756800 0.000000
0.16427600 0.10709500 -0.08053400 0.000000
0.11263600 -0.26043200 0.14113700 0.000000
0.15444100 -0.40357900 -0.09853200 0.000000
-0.11991900 -0.45183200 0.13300499 0.000000
-0.17017300 -0.20062999 0.05697500 0.000000
0.13978601 0.48936900 -0.11958800 0.000000
-0.15619400 -0.55923802 0.08756100 0.000000
0.13694800 -0.08698200 -0.12270700 0.000000
-0.18005000 0.19909801 0.00718100 0.000000
0.16966400 -0.45490599 0.06329800 0.000000
0.18187200 0.09300000 0.00377900 0.000000
-0.16015700 0.28219000 0.08042100 0.000000
0.06083700 -0.52549201 -0.17313100 0.000000
0.01067100 -0.36731499 -0.18393201 0.000000
-0.18063501 -0.18116701 0.00142800 0.000000
-0.14909200 -0.90484500 0.10035500 0.000000
-0.09327900 0.10726400 0.15304400 0.000000
-0.14294200 0.09548100 -0.11263300 0.000000
-0.04767700 -0.34339300 -0.17670999 0.000000
-0.02928900 0.02914600 -0.18147101 0.000000
-0.06307800 0.19092700 -0.17253900 0.000000
0.09426600 -0.56659299 -0.15739600 0.000000
0.13799500 -0.48372099 -0.12171200 0.000000
0.04600000 0.09031500 0.17383900 0.000000
0.14888100 0.37016600 -0.10652100 0.000000
0.18187200 0.23646800 0.01462800 0.000000
-0.10350100 0.17302400 0.14571400 0.000000
-0.17591301 0.24394500 -0.04335900 0.000000
-0.18024100 -0.81317502 0.00529800 0.000000
-0.16464700 -0.55380303 -0.07701200 0.000000
0.18150000 -0.10728600 0.01787300 0.000000
-0.02821400 -0.20629300 -0.18175000 0.000000
-0.13484401 0.53666800 -0.12206600 0.000000
0.14947601 -0.20886600 0.10098700 0.000000
-0.03900800 -0.52746600 0.17427400 0.000000
0.14718300 -0.95011401 0.10428100 0.000000
-0.10394500 0.54373503 -0.15005000 0.000000
-0.17812300 -0.49279299 -0.03080900 0.000000
-0.14294700 -0.45228800 -0.11262700 0.000000
0.18187200 0.42418200 -0.01868700 0.000000
-0.07500900 0.16429999 -0.16668700 0.000000
-0.09706500 -0.01190000 0.15069599 0.000000
0.12931199 -0.64467102 -0.12996601 0.000000
0.16994700 -0.22951400 -0.06732000 0.000000
0.08158200 0.25385100 -0.16530199 0.000000
0.16202900 -0.84384298 0.08109100 0.000000
0.07995500 -0.30451900 -0.16605000 0.000000
-0.15303200 -0.97910398 0.09325700 0.000000
-0.07867700 0.27733299 -0.16488700 0.000000
0.12575901 0.50273299 0.12866300 0.000000
-0.14995500 0.36228999 0.09880100 0.000000
-0.03743500 0.03975000 -0.17936200 0.000000
-0.10107000 -0.87358803 0.14759500 0.000000
0.11021800 -0.17815500 0.14277300 0.000000
0.16663601 0.13130499 -0.07503600 0.000000
0.11157900 0.43528500 0.14192501 0.000000
-0.15108500 -0.90655202 -0.10144500 0.000000
0.08429400 0.33886001 0.15893100 0.000000
0.16634700 -0.70537102 -0.07571000 0.000000
0.11461600 -0.77821398 0.13925500 0.000000
0.18109600 0.31133500 0.01983900 0.000000
0.17754599 -0.22361000 0.03711300 0.000000
-0.06444400 -0.46918100 -0.17186899 0.000000
-0.11158600 0.39912099 -0.14413600 0.000000
0.16777401 0.20681500 0.06770300 0.000000
-0.11329900 -0.28958100 0.13812900 0.000000
-0.13472000 0.50640202 0.11753000 0.000000
-0.13202401 -0.23559400 0.12067100 0.000000
-0.14494900 -0.33477601 -0.11029500 0.000000
-0.09318500 0.30955201 -0.15777101 0.000000
0.16042300 0.18445300 -0.08951300 0.000000
-0.04765300 -0.59445101 0.17203601 0.000000
-0.14556000 -0.15145500 -0.10958300 0.000000
-0.18076800 -0.09367100 0.00011600 0.000000
-0.16814400 -0.07410700 0.06344200 0.000000
-0.06406500 -0.47295499 0.16737500 0.000000
-0.17768000 0.03046300 -0.03516100 0.000000
0.18068799 0.47661600 -0.02650200 0.000000
-0.17948100 -0.29037899 0.01277000 0.000000
0.17721701 -0.50662398 -0.04339600 0.000000
-0.05488000 -0.26651800 0.17016500 0.000000
0.18187200 0.01765300 -0.02050900 0.000000
0.09266100 0.53362501 -0.15839700 0.000000
-0.12161400 0.01912200 -0.13637300 0.000000
-0.10202500 0.43232399 0.14685600 0.000000
0.10067200 0.04906300 -0.15340300 0.000000
0.14223801 -0.73628002 -0.11606600 0.000000
-0.17907800 -0.94411600 0.01673300 0.000000
-0.09899900 -0.95666897 -0.15387900 0.000000
-0.01027300 -0.41441599 0.17830400 0.000000
-0.08285300 0.24226300 -0.16283900 0.000000
0.16650601 -0.67772299 -0.07533900 0.000000
-0.16012301 -0.60867798 0.08048200 0.000000
0.16811299 0.13567100 0.06691300 0.000000
0.02883200 0.28401101 -0.18114901 0.000000
-0.09681600 -0.29601401 -0.15556800 0.000000
0.18187200 -0.24384101 -0.01917500 0.000000
-0.14816500 0.19432700 0.10186900 0.000000
0.06543800 -0.53868902 0.16674601 0.000000
-0.17020901 0.22295800 0.05686000 0.000000
0.15222301 -0.93576401 0.09703900 0.000000
-0.06499200 -0.23644200 0.16692001 0.000000
-0.05975400 -0.15305699 -0.17358300 0.000000
-0.17295299 0.21913099 0.04811500 0.000000
0.17807800 -0.63789803 0.03452400 0.000000
0.14889200 0.10002800 0.10182500 0.000000
-0.09193000 -0.89121401 0.15370600 0.000000
0.18026499 -0.79652798 0.02388400 0.000000
0.09601200 -0.50915998 0.15162800 0.000000
0.18187200 -0.88375700 -0.01922900 0.000000
0.16478200 -0.58828199 0.07467600 0.000000
-0.11359600 -0.62709099 -0.14258000 0.000000
0.11387400 -0.92362100 -0.14464100 0.000000
0.13509700 -0.87009901 -0.12446700 0.000000
0.10367600 -0.02721300 0.14685000 0.000000
-0.16373099 0.35787499 0.07398100 0.000000
0.15076999 -0.13986200 0.09912600 0.000000
0.07324900 -0.88472402 -0.16853400 0.000000
-0.14960501 -0.46687600 -0.10411200 0.000000
0.06940100 -0.40289000 0.16527900 0.000000
-0.14906199 -0.65731800 0.10041100 0.000000
0.17031699 -0.28026399 -0.06645800 0.000000
-0.01880600 -0.45880699 0.17787100 0.000000
0.03854900 0.36380100 0.17498100 0.000000
0.04101700 -0.32102001 -0.17928299 0.000000
0.16400400 -0.71595597 -0.08117000 0.000000
0.16244000 -0.60798103 -0.08481300 0.000000
0.04900300 -0.57970202 -0.17751400 0.000000
-0.17860700 -0.73176301 -0.02604400 0.000000
0.00196200 0.52955300 -0.18360500 0.000000
0.16490801 -0.03787200 0.07438200 0.000000
0.00754700 0.47523400 0.17920800 0.000000
0.16233400 -0.67721599 -0.08506100 0.000000
-0.13558200 -0.30170199 0.11652600 0.000000
-0.06067400 -0.32052699 0.16866501 0.000000
-0.05170600 -0.32984400 -0.17566700 0.000000
-0.07133900 -0.21920800 0.16380601 0.000000
0.02666900 0.42535099 0.17680100 0.000000
-0.11057800 -0.83621103 0.14023601 0.000000
-0.02907500 -0.63166600 -0.18152700 0.000000
0.14100499 0.19777600 0.11315700 0.000000
0.15439001 -0.89322501 0.09392700 0.000000
-0.15676400 0.21699400 -0.09121300 0.000000
0.07927600 -0.83745003 0.16162200 0.000000
0.00973200 -0.68677300 0.17931899 0.000000
0.03240900 0.18119401 -0.18060200 0.000000
-0.05517300 -0.50250798 -0.17476900 0.000000
-0.05436500 -0.88216501 0.17029800 0.000000
0.18187200 -0.39625600 -0.00055800 0.000000
-0.08405200 -0.46225500 0.15757000 0.000000
-0.15469000 0.46122399 0.09027000 0.000000
0.16627400 -0.83622199 0.07119800 0.000000
0.11241900 -0.89687800 0.14134400 0.000000
-0.13719700 -0.67560899 -0.11932500 0.000000
0.13674399 0.43207300 0.11822100 0.000000
-0.16305199 -0.85784799 -0.07988500 0.000000
-0.07828300 -0.34369400 0.16040000 0.000000
0.03030200 -0.70494598 -0.18092400 0.000000
-0.17316000 0.47703001 0.04745300 0.000000
0.16678400 -0.93188900 0.07001000 0.000000
-0.00201800 -0.07175900 0.17872301 0.000000
-0.16047400 -0.57206100 0.07985000 0.000000
-0.14311799 -0.45907900 -0.11242800 0.000000
0.03579400 -0.73669398 0.17540300 0.000000
-0.16963799 0.24056900 0.05868000 0.000000
-0.09782500 -0.82290000 0.15010700 0.000000
-0.16687800 0.53252602 0.06747600 0.000000
0.16464899 0.17885201 0.07498500 0.000000
-0.07935600 -0.24384101 -0.16455400 0.000000
0.12695999 -0.97641301 -0.13220100 0.000000
-0.15871900 -0.72462797 -0.08769200 0.000000
-0.17796201 -0.33339301 -0.03239000 0.000000
0.09139600 0.16535699 -0.15918501 0.000000
-0.12404600 -0.32726201 0.12981100 0.000000
0.18187200 -0.37533200 -0.00933600 0.000000
0.02255900 -0.47460300 -0.18211000 0.000000
-0.17844599 -0.25533399 0.02295400 0.000000
0.17828400 0.18998700 -0.03820000 0.000000
0.08408100 -0.47672200 -0.16374400 0.000000
-0.14322899 -0.73547900 -0.11229900 0.000000
-0.06646000 -0.67494398 0.16620000 0.000000
-0.04383800 -0.44005400 -0.17770401 0.000000
0.18187200 -0.05745500 0.01274500 0.000000
0.14212200 0.32992399 -0.11623200 0.000000
-0.04568200 0.34977800 0.17254700 0.000000
-0.02458300 -0.73026901 -0.18225899 0.000000
-0.02313800 -0.41920900 -0.18233199 0.000000
-0.17951500 -0.76468003 0.01243600 0.000000
0.13986300 -0.31585601 -0.11947800 0.000000
0.16478799 -0.37834099 -0.07934300 0.000000
-0.00187900 0.23757200 0.17873000 0.000000
-0.11612600 0.31238100 -0.14062101 0.000000
-0.17108899 0.14514001 -0.05873600 0.000000
-0.16667400 0.38319799 0.06812700 0.000000
0.08233200 0.54340798 0.16015400 0.000000
0.04917200 0.53317899 0.17277101 0.000000
0.06872700 -0.25395799 -0.17020901 0.000000
0.18187200 -0.92817998 -0.01951400 0.000000
-0.16702300 0.06801700 -0.07169500 0.000000
0.16201100 -0.40204200 -0.08581200 0.000000
-0.16709900 -0.15000001 0.06677200 0.000000
-0.07568600 -0.73705298 0.16167399 0.000000
0.18111201 -0.43212500 0.01976100 0.000000
-0.06023500 -0.40588900 0.16877800 0.000000
0.09437900 -0.62225002 -0.15732600 0.000000
0.18187200 -0.42114601 0.01342800 0.000000
-0.03448700 0.29323700 -0.18012500 0.000000
0.04306400 0.22673300 0.17428900 0.000000
0.16414100 -0.49394199 -0.08084900 0.000000
-0.10486200 0.52307498 -0.14934000 0.000000
0.16430099 0.17445800 -0.08047700 0.000000
0.13063601 -0.72834301 0.12402700 0.000000
0.16628499 -0.64187902 -0.07585400 0.000000
-0.07048600 -0.35526499 0.16422500 0.000000
0.17122699 0.51399797 -0.06433800 0.000000
-0.15195800 0.30103901 -0.09987200 0.000000
-0.05422700 0.52767497 0.17033400 0.000000
0.04248900 -0.20784500 0.17437699 0.000000
0.15338001 0.07934000 -0.10005800 0.000000
-0.17090000 0.24757200 0.05465800 0.000000
0.13367400 0.41407499 0.12113900 0.000000
0.10891400 -0.31219500 -0.14826600 0.000000
-0.05875500 -0.61177897 0.16916201 0.000000
0.11715700 0.26833600 0.13683900 0.000000
0.01697500 -0.35807100 0.17828600 0.000000
0.00475900 -0.53250301 -0.18374699 0.000000
0.01870200 -0.35310501 -0.18270101 0.000000
0.08287900 0.03959500 0.15981300 0.000000
0.05247300 -0.74017298 -0.17622800 0.000000
0.12951100 -0.11923300 0.12509599 0.000000
0.18187200 0.32553399 -0.00587400 0.000000
-0.04605100 -0.02856400 0.17245100 0.000000
-0.09538200 -0.08498600 -0.15667801 0.000000
-0.03236100 -0.93289000 0.17599601 0.000000
-0.07215600 0.30882499 0.16340600 0.000000
-0.01480100 0.13142399 0.17807500 0.000000
0.15527400 -0.90999001 0.09265700 0.000000
-0.12486700 -0.17566900 0.12900700 0.000000
0.09861400 0.03980800 0.15000600 0.000000
-0.01256900 -0.34882000 -0.18286800 0.000000
-0.01371000 0.10304700 0.17813000 0.000000
0.02478300 0.15431200 0.17708901 0.000000
0.07647300 0.50750500 -0.16734000 0.000000
0.16845000 -0.71173400 -0.07080900 0.000000
0.15213101 0.33155701 0.09717200 0.000000
-0.12395700 -0.83779001 0.12988000 0.000000
-0.09899400 -0.77686900 -0.15388200 0.000000
-0.03665600 0.12108300 -0.17956400 0.000000
0.17075001 -0.07355300 -0.06544800 0.000000
0.10166400 -0.76342100 -0.15278500 0.000000
-0.16717599 -0.90186602 -0.07120500 0.000000
-0.17515700 -0.16098399 -0.04577100 0.000000
0.01145800 0.06526000 0.17913100 0.000000
0.12955500 -0.25192001 0.12505400 0.000000
-0.17170399 -0.61587697 -0.05677400 0.000000
-0.09437100 -0.12686300 0.15250900 0.000000
0.04652900 -0.19361700 -0.17843001 0.000000
0.13550700 0.51537597 -0.12407700 0.000000
0.17926601 0.41639900 -0.03342300 0.000000
-0.16303700 -0.73385602 -0.07991300 0.000000
0.14695300 -0.48054600 0.10461100 0.000000
0.17891300 -0.25276899 0.03046100 0.000000
-0.10567700 0.00785500 -0.14871000 0.000000
-0.13069201 -0.69046003 0.12222200 0.000000
-0.16613200 -0.30665600 0.06965600 0.000000
-0.16257900 -0.55826199 0.07605700 0.000000
0.07398200 -0.92500699 -0.16826200 0.000000
-0.17077000 -0.19353899 0.05507200 0.000000
0.13879301 0.01269000 0.11627300 0.000000
-0.10452800 -0.69765300 -0.14959900 0.000000
-0.00163100 -0.94393098 -0.18342300 0.000000
0.17017899 0.54480201 -0.06678000 0.000000
0.16188100 0.22935399 -0.08611500 0.000000
0.08718700 0.00755000 0.15712801 0.000000
-0.07908000 -0.36267501 -0.16469000 0.000000
-0.15982500 0.07301500 0.08101900 0.000000
0.02747800 -0.78581703 0.17667700 0.000000
0.08134300 0.10593700 -0.16545101 0.000000
0.12806100 -0.83894700 -0.13115500 0.000000
-0.16837201 -0.71842903 0.06271400 0.000000
0.11023100 -0.64575702 0.14276500 0.000000
0.14947399 -0.19342300 0.10098900 0.000000
0.16340300 -0.77370203 -0.08256800 0.000000
-0.14608800 -0.66227698 0.10428800 0.000000
0.13056700 -0.18014701 -0.12877201 0.000000
0.05868900 -0.76286298 -0.17392699 0.000000
-0.10787300 -0.31086299 -0.14700900 0.000000
0.12497600 -0.39026499 -0.13408700 0.000000
0.17463200 -0.27261001 0.05129200 0.000000
-0.11794800 -0.50312400 0.13453101 0.000000
0.17560899 -0.52830899 -0.05121900 0.000000
0.09791300 0.29158199 -0.15512300 0.000000
0.08705300 0.14047600 0.15721200 0.000000
-0.00423000 0.21715800 -0.18329100 0.000000
-0.09388600 0.46640101 0.15274701 0.000000
-0.10705700 -0.10665400 0.14296100 0.000000
0.13487799 -0.39291200 -0.12467500 0.000000
0.17855801 0.03619500 0.03218900 0.000000
-0.13857500 0.42673299 -0.11772000 0.000000
-0.14818700 -0.97265297 0.10184200 0.000000
0.18144700 -0.38538700 0.01812800 0.000000
0.18187200 0.32806900 -0.00583300 0.000000
0.03027200 0.13281700 0.17624900 0.000000
0.18187200 0.47975999 -0.01216200 0.000000
0.10173900 0.37273601 -0.15273800 0.000000
0.01575600 -0.13768500 -0.18315300 0.000000
0.18042000 -0.79046202 -0.02780600 0.000000
0.17058700 0.36692801 -0.06582900 0.000000
-0.12767000 -0.09577300 0.12574300 0.000000
0.03496000 -0.48070699 0.17553000 0.000000
0.14895201 -0.04618100 -0.10642000 0.000000
-0.12640899 -0.08668000 0.12721100 0.000000
-0.12189900 -0.55587298 -0.13615300 0.000000
0.06650700 -0.68959302 -0.17103100 0.000000
-0.11402500 -0.52880198 0.13756700 0.000000
-0.12689801 -0.63840300 -0.13132200 0.000000
-0.12925400 -0.74073601 0.12389700 0.000000
-0.07346300 0.36124200 -0.16744500 0.000000
-0.14094000 0.05136100 0.11028500 0.000000
-0.16495501 -0.57921398 0.07177700 0.000000
0.04291300 -0.69599599 0.17431200 0.000000
-0.14191701 0.07000800 0.10914600 0.000000
0.17828199 -0.71953899 0.03353300 0.000000
-0.01603500 -0.73231900 -0.18269201 0.000000
-0.17834400 -0.87540001 -0.02863500 0.000000
-0.00076300 -0.12597001 -0.18346700 0.000000
0.04709200 -0.08331900 0.17354099 0.000000
0.15867500 -0.14684600 -0.09245000 0.000000
-0.16271000 -0.23643200 -0.08050200 0.000000
0.18029000 -0.75837302 0.02375900 0.000000
-0.16862300 -0.73807198 0.06191400 0.000000
0.17583500 0.28513500 0.04544000 0.000000
0.16696499 -0.70816100 0.06958800 0.000000
0.15764700 0.17299400 -0.09392700 0.000000
0.00283900 -0.95371401 0.17896900 0.000000
0.17588399 0.31948799 0.04520100 0.000000
-0.02387800 0.06287100 -0.18229400 0.000000
0.17937800 -0.53735203 0.02819600 0.000000
-0.02907400 0.12960000 0.17684700 0.000000
0.00266700 0.03027000 0.17896000 0.000000
0.03174600 -0.83825898 0.17602301 0.000000
0.10717400 -0.16715300 0.14466999 0.000000
-0.01431200 -0.61110598 -0.18278000 0.000000
0.18187200 0.39902800 -0.01772600 0.000000
0.14953500 0.35196799 0.10090100 0.000000
-0.10189600 -0.15022500 0.14695600 0.000000
-0.08525600 -0.91340297 0.15697999 0.000000
0.17423500 -0.70478302 0.05264700 0.000000
0.16371000 0.00269500 -0.08185400 0.000000
-0.03508400 0.04960900 -0.17997099 0.000000
-0.16692600 -0.42732900 0.06732400 0.000000
-0.10101800 -0.14814800 0.14763600 0.000000
0.17926100 0.42990199 0.02876900 0.000000
0.06823100 -0.60196799 0.16571200 0.000000
-0.03201800 -0.50349402 0.17608400 0.000000
-0.18074800 -0.80791903 -0.00499200 0.000000
-0.04035800 0.22253899 -0.17860501 0.000000
-0.13823800 0.49600399 -0.11811300 0.000000
0.11395400 -0.52991301 0.13988400 0.000000
-0.00082600 -0.87177002 -0.18346401 0.000000
0.16744199 0.22975101 0.06847800 0.000000
0.17882299 -0.92546701 0.03089600 0.000000
-0.10237100 0.18078201 -0.15126900 0.000000
0.03735100 0.52291298 0.17516400 0.000000
-0.00830200 -0.09070100 0.17840400 0.000000
0.18187200 0.42592099 -0.00506600 0.000000
-0.14281900 -0.59486902 0.10809600 0.000000
-0.05405900 0.22218700 -0.17505801 0.000000
-0.06651800 -0.33884799 0.16617100 0.000000
0.02422100 -0.57662499 -0.18185601 0.000000
0.02062500 -0.24210100 -0.18240701 0.000000
-0.01056500 -0.58738297 0.17828900 0.000000
0.17155100 -0.42765099 -0.06358300 0.000000
0.15640500 0.37828800 -0.09571100 0.000000
-0.03722700 -0.38698399 -0.17941600 0.000000
-0.16191199 -0.77084601 0.07725900 0.000000
-0.09982100 -0.92000598 0.14856200 0.000000
0.11718300 -0.01822900 -0.14149500 0.000000
-0.16445801 0.14700800 -0.07735200 0.000000
0.10059600 0.36483499 -0.15345100 0.000000
-0.09304300 -0.05350100 0.15316001 0.000000
0.13766700 -0.82236898 -0.12202400 0.000000
-0.10202200 0.40977001 -0.15153900 0.000000
-0.06805800 0.24726801 0.16541600 0.000000
-0.10734600 0.02532900 0.14273700 0.000000
-0.16351600 -0.46774900 0.07436900 0.000000
-0.11743000 0.51113701 0.13493200 0.000000
0.06035800 0.38682801 0.16862801 0.000000
-0.15351300 -0.24913800 0.09239100 0.000000
-0.18029200 0.33296299 -0.00947900 0.000000
-0.10264800 0.23909099 0.14637400 0.000000
-0.17787801 -0.28244400 -0.03321800 0.000000
0.17808700 -0.27193999 -0.03916300 0.000000
-0.16644400 -0.76079297 0.06886100 0.000000
-0.05047200 -0.20130500 -0.17598701 0.000000
-0.04035400 0.06324700 0.17392600 0.000000
0.12368200 -0.19743501 0.13063700 0.000000
-0.02246800 -0.79092902 -0.18236600 0.000000
-0.14035000 0.40492299 -0.11565200 0.000000
0.08017600 -0.97839397 0.16128799 0.000000
0.14193401 -0.87228000 0.11182300 0.000000
0.13248800 -0.15758300 0.12226700 0.000000
0.08702200 -0.43143800 0.15723100 0.000000
-0.06650100 -0.72161901 -0.17086001 0.000000
-0.17216399 -0.59868002 -0.05531000 0.000000
-0.06468000 -0.08343600 0.16707300 0.000000
-0.15924001 -0.15686500 0.08207300 0.000000
-0.17824300 0.39805999 -0.02962400 0.000000
-0.10876000 0.36641800 0.14164300 0.000000
0.11744100 -0.85685301 -0.14125000 0.000000
-0.16847999 -0.12517899 0.06237000 0.000000
-0.09885300 -0.52257699 -0.15399200 0.000000
-0.16214199 -0.36346400 -0.08152500 0.000000
-0.17873999 -0.07606500 -0.02474000 0.000000
-0.18027900 0.52361602 0.00492100 0.000000
-0.01760300 0.39381701 -0.18261300 0.000000
-0.02215500 0.52701598 -0.18238200 0.000000
-0.15600900 0.36012399 0.08789400 0.000000
-0.11825300 -0.74291599 0.13429500 0.000000
0.11776500 -0.26316199 0.13626100 0.000000
-0.10065100 -0.70082998 -0.15260001 0.000000
0.15728500 -0.30939099 -0.09444700 0.000000
0.13015400 -0.55808997 0.12448500 0.000000
-0.00270400 -0.44502199 0.17868800 0.000000
-0.00524300 0.46616101 -0.18324000 0.000000
-0.15187100 -0.19244100 -0.10002900 0.000000
-0.16897300 -0.79813403 0.06080000 0.000000
0.17748401 0.22542500 -0.04209500 0.000000
-0.07898000 -0.86772501 0.16005801 0.000000
0.16807701 0.19538300 0.06699800 0.000000
0.17852300 -0.93533599 -0.03703700 0.000000
0.08254100 -0.05206000 -0.16470499 0.000000
0.09063600 0.27946800 -0.15965900 0.000000
-0.10352700 0.40686399 -0.15037400 0.000000
-0.05301800 0.52810299 0.17064700 0.000000
-0.10238200 -0.82024699 0.14658000 0.000000
0.11152000 0.33401400 -0.14664100 0.000000
-0.17522800 -0.88971299 -0.04554500 0.000000
-0.03624000 0.02746200 -0.17967200 0.000000
-0.17219400 0.29149199 0.05053300 0.000000
-0.17944600 -0.21824899 -0.01780000 0.000000
-0.05582600 -0.45223001 0.16992000 0.000000
-0.03218100 0.10349600 0.17604201 0.000000
-0.18089600 -0.61868298 -0.00354200 0.000000
0.17692401 -0.06143400 -0.04481800 0.000000
-0.04829700 0.41937500 0.17186899 0.000000
-0.14482901 -0.42858699 -0.11043500 0.000000
0.12998000 -0.79076898 -0.12933099 0.000000
0.18187200 -0.79026401 0.00376500 0.000000
0.18187200 -0.54306799 0.00472800 0.000000
0.07770100 -0.74414402 0.16220500 0.000000
0.16367000 -0.92494798 -0.08194700 0.000000
0.17835601 0.23148900 -0.03785100 0.000000
0.17216800 0.39199200 0.05746300 0.000000
0.01774300 -0.00770100 -0.18284801 0.000000
0.10074300 -0.35536101 -0.15335900 0.000000
0.14319400 0.36562100 0.11001100 0.000000
-0.18012699 -0.47060901 0.00641600 0.000000
0.01051300 -0.00407200 0.17927600 0.000000
0.18187200 -0.19832900 -0.01744300 0.000000
0.08005700 -0.20929000 -0.16601200 0.000000
-0.09885400 0.23983701 0.14931101 0.000000
-0.00901900 -0.50203800 -0.18304799 0.000000
0.17698500 0.35997200 -0.04452000 0.000000
-0.15234400 0.30294001 0.09449700 0.000000
0.12102500 0.12305800 0.13316301 0.000000
-0.11409800 -0.55983901 -0.14219099 0.000000
0.15777700 -0.63938498 0.08906000 0.000000
-0.15310900 0.48082000 0.09311900 0.000000
0.16256800 0.18099700 0.07983400 0.000000
0.08082300 -0.65199399 0.16104899 0.000000
0.06899500 -0.13439301 0.16542900 0.000000
0.05241500 -0.13336100 0.17157000 0.000000
-0.12310200 -0.76983601 0.13054100 0.000000
-0.10925200 -0.45058101 0.14126199 0.000000
0.12665799 -0.85816300 -0.13248900 0.000000
-0.01981800 0.37349400 -0.18250000 0.000000
-0.16887800 0.22880501 0.06110200 0.000000
0.13089301 -0.81187397 -0.12846200 0.000000
0.09462000 0.49965400 0.15249500 0.000000
-0.12608600 -0.17173199 -0.13226700 0.000000
0.17619599 0.30271199 0.04368400 0.000000
-0.10820900 -0.86255002 -0.14675000 0.000000
0.18140800 -0.68228298 -0.02300000 0.000000
0.16527100 0.46470901 -0.07821700 0.000000
0.04211100 0.03730600 -0.17911500 0.000000
0.10693400 -0.67277801 0.14482000 0.000000
0.07937900 -0.77887499 -0.16626400 0.000000
0.13946500 -0.80711198 -0.12005000 0.000000
-0.09876800 -0.15007000 0.14937800 0.000000
0.17796300 -0.58003098 0.03508100 0.000000
-0.08735300 -0.34514701 0.15595099 0.000000
0.12770800 0.10440700 0.12681000 0.000000
-0.02297400 0.43020499 0.17766000 0.000000
-0.18023400 0.18884300 0.00536400 0.000000
-0.12952100 -0.62475902 -0.12826601 0.000000
-0.03620500 0.06879000 0.17500000 0.000000
0.13946700 0.48842299 0.11536700 0.000000
-0.15489300 -0.11080600 -0.09458500 0.000000
0.09707300 -0.17465600 0.15096600 0.000000
-0.17745200 -0.63208503 0.03272200 0.000000
-0.16305600 0.51858097 -0.07987800 0.000000
0.02105800 0.01350500 0.17766000 0.000000
-0.05843100 0.49626699 -0.17392600 0.000000
-0.05579100 -0.07748700 0.16992900 0.000000
0.02006900 0.04466200 0.17781200 0.000000
0.18072000 0.07275100 -0.02634700 0.000000
-0.16781101 -0.13183700 0.06450200 0.000000
0.17187200 -0.49174401 0.05815300 0.000000
-0.11015600 -0.09367400 0.14056200 0.000000
0.06669300 0.43547201 -0.17096201 0.000000
-0.06769600 -0.90130299 0.16559300 0.000000
0.17334200 0.40594000 -0.05940800 0.000000
-0.01220400 -0.72422200 -0.18288600 0.000000
-0.04425800 -0.96492499 0.17291500 0.000000
0.17854799 -0.31106201 0.03223900 0.000000
-0.17097300 -0.43268201 -0.05910400 0.000000
0.03060100 -0.12249300 -0.18087800 0.000000
-0.16692100 -0.00817300 0.06734000 0.000000
-0.09306000 -0.48793101 -0.15783200 0.000000
-0.06903400 -0.34006500 0.16493700 0.000000
0.05072600 -0.67940301 0.17219500 0.000000
-0.01900600 0.16256601 -0.18254200 0.000000
0.17899300 -0.85864103 -0.03475200 0.000000
0.15507700 0.03291800 -0.09762000 0.000000
-0.04463700 -0.60065800 0.17281701 0.000000
-0.12768900 0.46752501 0.12571999 0.000000
0.08968300 0.32355800 0.15557300 0.000000
0.11063900 -0.24491499 -0.14719100 0.000000
-0.12960701 -0.10950400 -0.12816601 0.000000
0.09987700 0.27324501 0.14921901 0.000000
-0.17489301 -0.09840000 -0.04661000 0.000000
-0.14136100 0.29868600 0.10979400 0.000000
-0.06187000 0.32052800 0.16835500 0.000000
-0.02593300 0.02357900 -0.18219000 0.000000
-0.15648100 -0.84529901 0.08704300 0.000000
0.14156599 0.06847500 0.11235000 0.000000
0.17408200 -0.75427902 0.05300300 0.000000
-0.06435500 0.52679098 -0.17191300 0.000000
-0.17512000 0.39932799 0.04120800 0.000000
0.08407900 -0.53395599 -0.16374600 0.000000
0.13969800 0.27623200 -0.11971500 0.000000
-0.00016900 -0.35874701 0.17881700 0.000000
0.18187200 -0.33200601 -0.00082800 0.000000
0.09517300 -0.18787999 -0.15683100 0.000000
-0.18033800 0.09305500 0.00434000 0.000000
-0.15478501 0.08002500 0.09009900 0.000000
0.08274600 -0.67385697 -0.16457701 0.000000
0.08678100 -0.02090800 -0.16206101 0.000000
0.06336200 -0.44169900 -0.17219600 0.000000
0.17991699 -0.88246602 -0.03025700 0.000000
-0.17835400 -0.04285600 -0.02853900 0.000000
0.04413400 0.32272801 -0.17880499 0.000000
0.17360200 -0.68861097 0.05412300 0.000000
-0.17822801 0.14988500 0.02509700 0.000000
0.08087300 0.12280600 0.16102999 0.000000
0.13780200 -0.03152500 -0.12189500 0.000000
0.00333000 -0.53153801 -0.18367399 0.000000
-0.08588100 -0.36265200 0.15667300 0.000000
-0.14924900 -0.21696199 -0.10475300 0.000000
0.12828600 0.32225001 -0.13094100 0.000000
-0.17988300 -0.22723900 0.00881900 0.000000
0.12267200 -0.90381402 0.13159700 0.000000
0.07493300 -0.63290602 -0.16790999 0.000000
-0.16983400 -0.42772901 -0.06273700 0.000000
0.15627500 0.39198101 -0.09589900 0.000000
-0.11239900 0.39576599 0.13882700 0.000000
-0.11420400 -0.78403002 -0.14210901 0.000000
0.15517800 -0.52547997 -0.09747500 0.000000
-0.04736400 0.09779900 0.17211100 0.000000
0.13070600 -0.72578102 0.12396000 0.000000
0.05632000 0.30971500 -0.17480400 0.000000
-0.14314701 -0.88285202 0.10771400 0.000000
0.05832400 -0.00040700 0.16938099 0.000000
0.17499600 -0.76800400 -0.05420100 0.000000
0.18187200 -0.73440099 0.00200200 0.000000
0.05913800 0.03062400 -0.17376000 0.000000
0.14648300 -0.17566700 0.10528700 0.000000
-0.17606100 0.27288499 -0.04288900 0.000000
-0.16999499 -0.06529500 0.05754200 0.000000
0.10555000 -0.36480501 0.14568301 0.000000
0.18022400 -0.18958700 -0.02876200 0.000000
0.18187200 0.21524100 -0.00939900 0.000000
-0.12853500 -0.93089497 0.12473400 0.000000
0.08919800 -0.01862000 0.15587500 0.000000
0.17031100 -0.33596000 -0.06647100 0.000000
0.17688701 -0.13977900 -0.04500100 0.000000
0.06717100 -0.70996702 0.16610500 0.000000
-0.01133000 -0.66366601 0.17825100 0.000000
-0.18062800 -0.28167701 0.00149100 0.000000
0.17626600 -0.91850698 -0.04802200 0.000000
-0.16019399 -0.92493099 0.08035400 0.000000
-0.05164300 -0.52869397 0.17100300 0.000000
-0.09336600 -0.49760699 0.15300199 0.000000
0.07587300 0.24451400 0.16288200 0.000000
0.17881601 -0.83095098 -0.03561400 0.000000
0.13541400 -0.96959502 0.11948500 0.000000
-0.00145400 0.08551800 -0.18343200 0.000000
-0.08986800 0.36487201 0.15471800 0.000000
-0.17492400 0.09085000 -0.04651300 0.000000
0.03424500 -0.18924800 0.17564000 0.000000
0.12229200 -0.83875102 -0.13663900 0.000000
0.00072200 -0.95891100 -0.18354200 0.000000
-0.17420501 0.53266901 0.04412200 0.000000
0.16105400 -0.44868800 0.08336200 0.000000
0.16478901 -0.97829401 -0.07934000 0.000000
0.16450800 0.07964800 -0.07999300 0.000000
-0.16774100 0.49972501 0.06472500 0.000000
-0.18064199 -0.01616100 -0.00603200 0.000000
-0.18017800 -0.53111899 -0.01059400 0.000000
-0.00284200 0.33502001 -0.18336099 0.000000
-0.13964701 -0.27229401 0.11179000 0.000000
0.02663900 -0.61992103 -0.18148500 0.000000
0.09551200 -0.40736899 -0.15662000 0.000000
0.09830300 0.17853500 -0.15488000 0.000000
-0.17646100 -0.73863602 -0.04161300 0.000000
0.01677400 -0.33828601 0.17831600 0.000000
-0.03103100 -0.34759900 0.17634000 0.000000
-0.10015300 -0.12135600 -0.15298600 0.000000
0.17845400 -0.59781098 0.03269600 0.000000
0.11200400 -0.60207897 0.14166000 0.000000
-0.14433999 -0.20147200 -0.11100400 0.000000
-0.17932101 -0.90240502 0.01434500 0.000000
-0.16950500 0.52675098 0.05910300 0.000000
-0.17567000 -0.79946202 0.03945500 0.000000
0.18001901 -0.19203500 0.02507700 0.000000
-0.16334000 -0.16608600 0.07468600 0.000000
0.04530200 -0.93776500 0.17394599 0.000000
0.11341400 0.49770001 -0.14507800 0.000000
0.18187200 0.29428300 0.00950200 0.000000
-0.11366000 -0.27302599 0.13785000 0.000000
-0.02328500 0.15610801 0.17764400 0.000000
-0.17240500 -0.78434002 -0.05454100 0.000000
-0.09583900 0.42955899 0.15164500 0.000000
0.04831600 -0.58908498 -0.17776801 0.000000
-0.11334500 -0.56167197 -0.14277400 0.000000
-0.08505400 -0.53806800 -0.16175900 0.000000
-0.13124500 -0.03087100 0.12157800 0.000000
0.10668900 0.29542100 -0.14965300 0.000000
0.10630700 -0.67220098 -0.14989100 0.000000
0.16992700 -0.21027400 -0.06736800 0.000000
0.11284100 0.10574800 -0.14562200 0.000000
-0.16744100 -0.50337601 -0.07036300 0.000000
-0.16626400 -0.79139400 0.06941900 0.000000
0.18073700 -0.79623097 0.02158700 0.000000
0.05049100 -0.65801001 0.17228200 0.000000
-0.07031400 -0.87873298 -0.16899000 0.000000
-0.17934901 0.32199001 0.01407000 0.000000
0.12149000 0.10765400 -0.13740100 0.000000
-0.04074000 -0.66542798 0.17382599 0.000000
0.11720800 0.39200899 -0.14147100 0.000000
-0.17500500 0.38919300 -0.04625300 0.000000
0.03157400 -0.97578102 -0.18072900 0.000000
-0.04819400 -0.79251701 -0.17657600 0.000000
-0.18053301 0.38707101 0.00243000 0.000000
0.17603600 -0.71681201 0.04445800 0.000000
-0.13510901 -0.85262799 -0.12175700 0.000000
0.16260800 0.40792000 -0.08442100 0.000000
0.17124499 0.02569200 -0.06429500 0.000000
-0.17858800 0.14128400 -0.02623100 0.000000
0.15176100 -0.09740900 0.09770300 0.000000
0.15393500 -0.27408999 -0.09926000 0.000000
-0.09347500 -0.83177900 -0.15762900 0.000000
0.18187200 -0.58377397 -0.00296000 0.000000
0.18102200 0.08271800 0.02019600 0.000000
-0.17944901 -0.24944900 0.01308500 0.000000
0.12462200 -0.88412303 -0.13442400 0.000000
-0.06906500 -0.35759899 0.16492200 0.000000
0.17161100 -0.23347700 0.05876300 0.000000
-0.00452700 0.18157400 0.17859600 0.000000
-0.01123400 -0.05768700 -0.18293600 0.000000
0.05035200 -0.33158699 -0.17701399 0.000000
-0.17241000 0.39987901 -0.05452600 0.000000
0.16312400 0.20872700 0.07853900 0.000000
-0.17859600 -0.14803800 -0.02615600 0.000000
0.17340800 0.23855200 0.05457500 0.000000
0.07640500 -0.41287401 0.16268501 0.000000
-0.08837700 0.51028001 0.15544900 0.000000
-0.01684800 -0.77672601 0.17797101 0.000000
-0.06704700 -0.54971701 0.16591200 0.000000
-0.06468600 0.12652300 0.16707000 0.000000
0.16996200 -0.72985798 -0.06728400 0.000000
-0.16443101 0.13032600 -0.07740000 0.000000
0.18187200 0.23034300 -0.01443600 0.000000
-0.10903300 0.29968199 -0.14611199 0.000000
0.17798500 -0.42145100 0.03497700 0.000000
-0.07529600 0.18914600 -0.16654600 0.000000
-0.06712700 0.20979100 0.16587199 0.000000
-0.17920101 -0.19529800 -0.02020300 0.000000
0.10288700 0.24646400 0.14734200 0.000000
-0.09298200 -0.62830299 -0.15786999 0.000000
0.03244500 0.37553000 -0.18059599 0.000000
0.17810100 0.34194300 0.03441200 0.000000
-0.01354300 0.20495600 -0.18281899 0.000000
0.06292200 -0.43926600 0.16767800 0.000000
0.10322900 -0.25512299 0.14712900 0.000000
-0.17907000 -0.18941300 -0.02149800 0.000000
-0.17273401 -0.20492400 0.04881000 0.000000
-0.09696600 0.23545900 -0.15545300 0.000000
-0.12782399 -0.11120200 0.12556300 0.000000
0.16069300 -0.27087799 0.08420400 0.000000
