-0.36289901 0.83439302 -0.15230100 3.000000
-0.37358800 0.82944697 -0.09069500 3.000000
0.89762998 -0.03843500 0.12145700 3.000000
0.39366901 -0.81022501 -0.20675801 3.000000
0.11201500 0.89946097 -0.10116500 3.000000
0.73944402 -0.51060802 -0.09056400 3.000000
-0.33512399 -0.84258401 -0.14062400 3.000000
0.79438198 -0.41957599 -0.17044701 3.000000
-0.45179000 0.79041302 -0.15929900 3.000000
0.79614103 0.42003101 -0.01355800 3.000000
-0.24465100 0.87631297 -0.08507300 3.000000
0.32612801 -0.84112900 0.00791300 3.000000
0.62197900 0.65317398 -0.04951800 3.000000
0.22882500 -0.87309301 0.12136300 3.000000
-0.87629998 -0.24930400 0.19660100 3.000000
-0.18770000 -0.88507599 -0.00169400 3.000000
0.88891500 -0.13020200 0.03459100 3.000000
-0.85750198 0.31185099 0.05338700 3.000000
-0.16022301 0.89489698 0.10812400 3.000000
0.29332599 0.85595298 -0.03609000 3.000000
0.07336500 -0.89989299 -0.09185200 3.000000
0.86748499 -0.23309800 -0.20223300 3.000000
-0.05409800 -0.90325898 -0.01326800 3.000000
0.86662698 -0.23618600 -0.11004400 3.000000
-0.78135502 -0.46843100 0.15016000 3.000000
-0.77102602 0.48743701 0.03958500 3.000000
-0.89696199 0.16611201 0.07044000 3.000000
0.88701302 -0.14180499 -0.20622300 3.000000
0.89025199 0.12582000 0.15269600 3.000000
0.27107999 0.86344898 0.07221700 3.000000
0.89699101 -0.05022600 -0.13002101 3.000000
0.58392602 -0.68544698 -0.16263600 3.000000
0.82954597 0.34859800 -0.09555000 3.000000
0.08300000 -0.89884502 0.09171000 3.000000
0.45609099 -0.77604198 -0.08060600 3.000000
-0.89306301 -0.18612200 -0.14421400 3.000000
0.06525800 -0.90077502 -0.13266200 3.000000
0.89666498 -0.05624200 0.15886299 3.000000
0.10417400 0.90031397 0.19607000 3.000000
-0.20453700 0.88514203 0.17953800 3.000000
-0.76803499 -0.48807800 0.15959600 3.000000
-0.26695201 0.86932600 0.14172900 3.000000
-0.84987098 -0.32723099 -0.15666100 3.000000
0.85547101 0.28014100 0.19097100 3.000000
0.89959502 -0.00220700 -0.03562700 3.000000
0.79273802 -0.42267600 -0.03937000 3.000000
-0.18994300 0.88835502 -0.02356800 3.000000
-0.27034301 0.86818302 -0.19585299 3.000000
-0.77213103 -0.48203599 -0.13778999 3.000000
0.61332297 0.66137201 -0.06292900 3.000000
0.46100301 0.77685797 0.12136100 3.000000
-0.82195801 0.39645001 -0.17274900 3.000000
0.64240098 -0.63005698 0.11801000 3.000000
0.78978801 0.43201301 -0.10770800 3.000000
0.83270299 -0.33690199 -0.04769400 3.000000
0.69224101 0.57723099 0.05843600 3.000000
-0.21189500 0.88352299 0.06288000 3.000000
-0.35186899 -0.83572400 -0.08470900 3.000000
0.56628299 -0.69955999 -0.08510400 3.000000
-0.01875400 -0.90325898 0.04308400 3.000000
-0.53410298 -0.73414302 0.18518899 3.000000
-0.39249599 -0.81692803 0.06876100 3.000000
-0.73916203 0.53443301 0.01345800 3.000000
-0.35716701 0.83704400 0.16373700 3.000000
0.21245199 -0.87669700 0.15471099 3.000000
-0.37339100 0.82953799 -0.05017400 3.000000
0.42511699 0.79844999 -0.12611599 3.000000
0.64099997 -0.63138300 -0.05147300 3.000000
0.69130099 0.57833803 0.15539600 3.000000
-0.06629100 0.90588200 0.17625099 3.000000
0.77771199 -0.45102000 -0.14934900 3.000000
-0.87934601 0.24210501 0.09074900 3.000000
0.13441101 -0.89325398 0.02719000 3.000000
0.34701899 0.83557898 -0.01822900 3.000000
0.64433599 0.63199502 -0.11358700 3.000000
-0.39243799 0.82072598 -0.15183800 3.000000
0.84025198 0.32172701 0.14943001 3.000000
-0.03343300 0.90703100 0.14472599 3.000000
0.11009700 0.89967000 0.06244400 3.000000
0.72430998 -0.53292900 -0.04306300 3.000000
-0.59692699 -0.68574399 0.06330500 3.000000
0.70991498 -0.55265200 0.00527000 3.000000
0.78702402 0.43722701 0.10322200 3.000000
-0.49620301 -0.75991797 0.14081800 3.000000
0.38400501 0.81846797 0.10290400 3.000000
0.53021401 0.73075002 0.14607599 3.000000
0.86439699 -0.24422000 -0.00425500 3.000000
-0.26248899 -0.86705798 -0.08787900 3.000000
0.02492700 0.90703100 0.11210200 3.000000
-0.74599600 -0.52058202 0.01963100 3.000000
-0.41823599 -0.80501902 0.04400000 3.000000
-0.62020600 0.66746598 0.08224100 3.000000
0.83735901 -0.32521501 -0.15057699 3.000000
0.09587000 -0.89744502 -0.15532801 3.000000
-0.55072802 0.72527802 -0.14592500 3.000000
-0.23393600 0.87867099 0.09806700 3.000000
-0.88181603 -0.22943801 0.11059800 3.000000
-0.58702397 -0.69391400 -0.18435299 3.000000
-0.72623098 0.55289102 -0.14076000 3.000000
-0.89600199 -0.16819599 0.04887900 3.000000
-0.70475799 -0.57439899 -0.14894199 3.000000
0.89567101 0.07835300 0.05081700 3.000000
-0.87868202 -0.24072701 -0.04660700 3.000000
-0.91162801 0.02961800 0.09026700 3.000000
-0.09329000 0.90294600 -0.04992300 3.000000
-0.32087299 0.85115802 0.07828800 3.000000
-0.62320697 -0.66084999 0.05000000 3.000000
-0.40219200 0.81621403 0.17542900 3.000000
0.85673600 -0.27181000 0.18085100 3.000000
0.88408601 -0.15966199 0.04948600 3.000000
-0.53813303 -0.73108000 -0.16658500 3.000000
0.82686901 0.35531500 -0.00540600 3.000000
-0.81489801 -0.40599501 -0.00314900 3.000000
-0.89658701 -0.16462500 0.11180000 3.000000
-0.17365700 0.89194000 0.15810300 3.000000
0.15914400 -0.88843101 0.19614699 3.000000
0.21791799 0.87926602 -0.13903300 3.000000
-0.54072100 -0.72911298 -0.02057900 3.000000
-0.75098902 0.51699001 -0.06949300 3.000000
0.51399398 0.74308002 -0.11101200 3.000000
0.18597300 -0.88252598 0.18218599 3.000000
-0.05322000 0.90703100 0.03495400 3.000000
-0.85215700 -0.32149300 -0.13030000 3.000000
0.45160201 -0.77874202 0.00636200 3.000000
-0.47567800 0.77604002 0.19324100 3.000000
-0.73019898 0.54765302 -0.03978800 3.000000
0.84603500 0.30721301 -0.12735800 3.000000
0.46598899 0.77385801 -0.12776700 3.000000
0.45223001 0.78213698 0.19555900 3.000000
-0.25916001 -0.86817902 -0.19341999 3.000000
-0.37969899 0.82661998 0.16176800 3.000000
0.54832202 0.71698499 -0.00406600 3.000000
-0.04948200 -0.90325898 -0.05107300 3.000000
-0.90944898 -0.06603500 -0.01267700 3.000000
0.26189300 -0.86277199 -0.11783000 3.000000
-0.70143098 0.58208799 0.00069800 3.000000
-0.91153997 -0.02746300 -0.11966100 3.000000
-0.84555000 -0.33807701 -0.18186200 3.000000
0.46760401 -0.76911402 0.11842000 3.000000
-0.37121201 0.83054698 0.07062200 3.000000
0.55966997 0.70835799 0.10261300 3.000000
-0.57554501 -0.70264101 0.03779500 3.000000
0.00429600 -0.90325898 -0.17064700 3.000000
-0.79426497 -0.44491100 0.02988500 3.000000
-0.78043997 0.47355300 -0.13709500 3.000000
-0.44856700 0.79235202 -0.00593900 3.000000
-0.53359801 0.73830003 -0.16391499 3.000000
-0.22826000 -0.87614900 -0.13933900 3.000000
-0.19268900 0.88775003 -0.18560000 3.000000
-0.89879102 0.15495700 -0.02264700 3.000000
-0.82954198 -0.37825301 0.18948799 3.000000
0.83525997 -0.33048299 -0.00575300 3.000000
0.53854299 -0.72064698 -0.04609900 3.000000
-0.63401300 0.65438598 0.13561100 3.000000
0.14574599 -0.89138001 0.11449600 3.000000
0.69564599 0.57322299 -0.03814300 3.000000
-0.40826201 -0.80963397 -0.14970800 3.000000
-0.87848997 -0.24141800 0.04944300 3.000000
-0.24774200 -0.87186003 0.06219200 3.000000
0.86453998 -0.24370299 0.18184300 3.000000
0.89596897 -0.06908100 0.01927700 3.000000
-0.89897400 -0.15006500 0.07251700 3.000000
0.36881000 -0.82172602 -0.09688200 3.000000
-0.82968998 0.38165501 -0.14798100 3.000000
0.29468000 0.85549700 -0.17925601 3.000000
-0.79210901 -0.44897899 0.05092600 3.000000
-0.86874801 -0.27650401 -0.03110500 3.000000
-0.72048998 0.55965000 -0.13028900 3.000000
-0.06870500 0.90561998 -0.17187700 3.000000
-0.82400101 0.39259601 -0.02239300 3.000000
0.69569999 -0.56938702 0.12598200 3.000000
0.14602000 -0.89131999 0.08257700 3.000000
0.43558100 -0.78838199 -0.02141800 3.000000
0.48577899 -0.75817901 -0.04038300 3.000000
0.84578300 -0.30407399 0.14923801 3.000000
-0.12753101 -0.89545000 0.08102800 3.000000
-0.39307299 0.82043302 -0.07470000 3.000000
0.89679801 -0.05379400 -0.11875800 3.000000
-0.55058199 0.72538900 -0.04525700 3.000000
0.83248699 0.34121600 -0.09926800 3.000000
-0.86769700 0.28406200 0.10077300 3.000000
0.36863899 0.82557702 -0.19585299 3.000000
-0.77910399 -0.47175100 -0.05276700 3.000000
0.85030401 0.29649901 0.03834200 3.000000
-0.74865502 -0.51665998 0.10605600 3.000000
0.76636398 -0.47090399 -0.18005601 3.000000
0.51890302 0.73934901 0.09680600 3.000000
0.45746401 0.77898800 0.08165500 3.000000
0.29345900 0.85590798 0.19235700 3.000000
-0.55419600 -0.71886897 0.03844900 3.000000
0.29455701 0.85553801 0.18934999 3.000000
-0.72724199 0.55170101 -0.01480500 3.000000
-0.52749902 -0.73916399 0.03089600 3.000000
-0.64526999 -0.63995200 -0.11397200 3.000000
-0.17671300 -0.88749498 -0.18770701 3.000000
0.65935999 -0.61216998 0.02653300 3.000000
-0.04493700 0.90703100 -0.02639000 3.000000
-0.67847902 0.60910898 0.06651200 3.000000
-0.32331201 -0.84656399 -0.00867800 3.000000
-0.86393499 -0.29193300 -0.18863700 3.000000
0.40490299 -0.80502701 0.15508801 3.000000
0.49411401 0.75693601 -0.16944399 3.000000
-0.76499599 -0.49255899 -0.05121900 3.000000
-0.62007898 0.66758603 -0.13196500 3.000000
-0.38477701 0.82427102 -0.10707800 3.000000
-0.71676898 -0.56025898 -0.07003000 3.000000
0.49418700 -0.75312001 -0.13255900 3.000000
0.70172000 -0.56230003 -0.03865300 3.000000
-0.91094100 0.04229100 -0.14018500 3.000000
0.11862100 -0.89497101 -0.08721700 3.000000
0.89863902 -0.01983000 -0.16138300 3.000000
-0.90661502 0.10723100 0.14200500 3.000000
0.66402698 0.61044699 -0.08936700 3.000000
0.89927799 0.01181300 0.00351800 3.000000
-0.16092500 -0.89096999 -0.09843600 3.000000
0.27829000 -0.85724699 0.14129300 3.000000
-0.01923700 0.90703100 0.17602800 3.000000
0.85393602 0.28566599 -0.12542500 3.000000
-0.83896798 0.35836899 0.14965101 3.000000
0.89691103 -0.05170500 -0.04993600 3.000000
-0.35214201 0.83936900 0.12632699 3.000000
0.76016402 0.48381999 0.13733099 3.000000
-0.83238101 -0.37112901 0.05453100 3.000000
0.70726103 0.55954802 -0.06235200 3.000000
-0.90541500 -0.11077700 -0.10097300 3.000000
-0.91279298 0.00813100 0.10773200 3.000000
-0.75123698 -0.51285201 -0.10564700 3.000000
0.59662998 0.67718500 -0.19481200 3.000000
0.46325099 0.77550501 0.14787699 3.000000
0.71599501 0.54896498 -0.13363600 3.000000
-0.76521099 0.49601400 -0.03618900 3.000000
-0.74885601 0.52013499 0.14588700 3.000000
-0.87656999 -0.24833100 -0.13026100 3.000000
0.39106801 -0.81142801 -0.18658599 3.000000
0.83758599 -0.32464501 0.02970300 3.000000
-0.91204900 0.02185000 0.11183000 3.000000
0.51304102 -0.74003202 -0.10379100 3.000000
0.68763000 -0.57888699 0.11562200 3.000000
0.89710099 0.05197900 -0.04163900 3.000000
-0.32008499 0.85142303 -0.00831400 3.000000
0.59143800 0.68210298 -0.19512700 3.000000
0.77261698 -0.46062899 0.03059100 3.000000
0.60212201 -0.66821098 -0.17814200 3.000000
0.36740801 -0.82237399 0.11083800 3.000000
-0.30871800 0.85525298 0.10347000 3.000000
-0.30407101 0.85681897 0.02799400 3.000000
0.73809701 0.51636600 -0.17224599 3.000000
0.08789100 -0.89831299 -0.09437800 3.000000
0.88077801 -0.17983900 -0.12516300 3.000000
0.88734102 0.14357799 -0.07895600 3.000000
-0.70777601 0.57461703 -0.10417400 3.000000
0.45325801 -0.77774602 -0.16278300 3.000000
-0.84445500 0.34459600 -0.00035200 3.000000
0.21564700 0.87976599 -0.18447500 3.000000
0.89860100 -0.02053900 -0.05111400 3.000000
-0.75183803 -0.51196498 0.17638600 3.000000
0.83674699 -0.32675299 0.00800000 3.000000
0.87807101 -0.19496900 0.11641900 3.000000
-0.04634700 -0.90325898 -0.20510399 3.000000
-0.64663398 -0.63866001 0.02163800 3.000000
-0.01489000 -0.90325898 0.18239801 3.000000
-0.59561998 -0.68698198 -0.18009400 3.000000
0.16011500 0.89199001 -0.04600500 3.000000
0.79968703 -0.40957099 0.00629800 3.000000
-0.90972197 0.06477200 -0.12817800 3.000000
-0.80398202 -0.42658401 0.16107699 3.000000
0.36119300 -0.82525003 0.14706600 3.000000
-0.46857801 0.78031200 0.02689900 3.000000
-0.81138599 0.41639000 -0.06753200 3.000000
-0.90802199 -0.09235600 -0.15483300 3.000000
0.44076800 -0.78526098 0.05748500 3.000000
0.17206299 0.88936001 -0.03029800 3.000000
-0.88695103 -0.21094200 0.04004300 3.000000
0.47063300 -0.76729202 -0.15574799 3.000000
0.15172000 -0.89006501 -0.06109300 3.000000
-0.38094100 -0.82227403 0.06553000 3.000000
-0.27541301 0.86647499 0.09367600 3.000000
-0.70413798 -0.57512802 -0.01073900 3.000000
-0.12570700 0.89942002 0.14493801 3.000000
-0.15447700 -0.89238900 -0.08913400 3.000000
-0.38685900 -0.81953597 0.07423900 3.000000
0.62804198 -0.64365798 -0.12859701 3.000000
0.78946602 -0.42884800 -0.17861000 3.000000
0.40223601 0.81003302 0.10988500 3.000000
0.02778500 -0.90325898 -0.18844700 3.000000
-0.15808500 0.89536703 -0.01058400 3.000000
-0.72779101 0.55105400 0.11355900 3.000000
-0.41758099 -0.80532199 -0.16414499 3.000000
0.27582899 -0.85807699 -0.04099700 3.000000
-0.32668000 -0.84542900 -0.04385100 3.000000
0.89016402 -0.12258300 0.13808499 3.000000
0.77953899 0.45134601 0.12316300 3.000000
0.85881901 -0.26430801 0.00136800 3.000000
-0.16154100 0.89460599 0.03895300 3.000000
-0.83136201 0.37745801 0.20239100 3.000000
0.24555101 0.87204999 -0.18697999 3.000000
-0.34318000 -0.83974397 -0.08089300 3.000000
0.64092702 0.63522398 -0.18423399 3.000000
-0.23140600 -0.87545598 -0.11131300 3.000000
-0.87810999 -0.24278700 0.16891301 3.000000
0.87727302 -0.19784300 -0.01572200 3.000000
0.07426800 0.90356702 0.05499100 3.000000
-0.61909300 0.66851997 -0.02983400 3.000000
0.40678599 -0.80415601 -0.14239000 3.000000
-0.38012201 -0.82265300 0.14345901 3.000000
-0.90299398 0.12931401 0.12323600 3.000000
0.03452200 -0.90325898 0.13587201 3.000000
-0.78239697 -0.46689501 0.08536800 3.000000
-0.52720398 0.74316001 -0.06489700 3.000000
-0.10505400 -0.89789498 0.19539700 3.000000
0.85907400 0.26716200 -0.13283700 3.000000
0.89482403 0.09396700 0.01828500 3.000000
0.40229499 0.81000602 0.00094600 3.000000
0.60466897 -0.66579801 0.07178000 3.000000
0.50473201 -0.74634898 0.13846999 3.000000
-0.37119299 0.83055502 0.12076200 3.000000
-0.56776100 0.71232998 0.11631300 3.000000
-0.54844600 -0.72324097 -0.10543000 3.000000
-0.80783498 -0.41931701 -0.10725500 3.000000
-0.11195800 0.90091598 0.20477700 3.000000
0.83029699 -0.34294000 0.17426001 3.000000
0.16435300 -0.88728499 0.06968900 3.000000
0.89615899 -0.06557600 -0.00628200 3.000000
0.05340600 0.90583599 -0.14043801 3.000000
0.29647201 0.85489303 0.18405899 3.000000
-0.58092302 -0.69855201 -0.15774900 3.000000
0.61265802 0.66200203 -0.16201700 3.000000
-0.18807100 0.88876700 -0.01953600 3.000000
-0.89430702 -0.17853500 0.17978901 3.000000
-0.78640997 -0.45972699 0.17783800 3.000000
0.86400998 0.24938300 -0.10698800 3.000000
0.05039100 0.90616399 0.18118200 3.000000
-0.80849499 -0.41807199 0.16247299 3.000000
-0.66360599 -0.62258297 0.04639800 3.000000
0.81893998 -0.37144300 -0.09449300 3.000000
0.61529303 0.65950698 0.18313099 3.000000
-0.39381301 -0.81631798 0.10132400 3.000000
-0.83642399 -0.36098000 0.01282700 3.000000
-0.58977401 0.69559598 0.12805600 3.000000
-0.13497800 -0.89464003 -0.13918900 3.000000
-0.50898802 0.75599802 0.17265500 3.000000
-0.86833102 0.28178000 0.14312300 3.000000
-0.76891500 0.49055099 0.12018600 3.000000
0.72596401 0.53426099 -0.14839999 3.000000
0.43068701 0.79509902 0.02698900 3.000000
-0.19518700 -0.88342798 -0.05997200 3.000000
-0.60387599 0.68293399 -0.18917100 3.000000
-0.76147997 0.50151598 -0.11257000 3.000000
-0.72201800 -0.55407900 -0.07818200 3.000000
-0.57388097 0.70767701 0.08323300 3.000000
-0.53626502 -0.73250002 -0.05968300 3.000000
0.70817000 -0.55470699 0.03769400 3.000000
0.17433700 -0.88508701 -0.18724900 3.000000
0.65650499 0.61930299 0.16251300 3.000000
0.62801999 -0.64367902 -0.12475000 3.000000
0.79638797 -0.41579300 0.02953900 3.000000
0.54635000 -0.71471202 0.11923400 3.000000
0.21515501 0.87987399 0.14910100 3.000000
0.76893401 0.47088501 0.15905800 3.000000
0.04717500 -0.90274101 -0.03687300 3.000000
0.88089597 0.18289000 -0.06608400 3.000000
-0.80662799 -0.42159301 0.01810400 3.000000
0.85971397 0.26485899 -0.11779700 3.000000
-0.36450699 -0.82987702 0.02518800 3.000000
-0.79507399 -0.44338599 0.10308400 3.000000
0.79616702 -0.41620901 -0.03031600 3.000000
-0.18001300 0.89054000 0.12269300 3.000000
-0.71557403 0.56543702 0.13338199 3.000000
0.38679501 0.81717700 0.15028299 3.000000
0.89450699 0.09981600 0.12607799 3.000000
0.45251200 -0.77819502 -0.17477401 3.000000
0.76595402 -0.47150800 -0.11702200 3.000000
-0.80475903 0.42888999 0.10574000 3.000000
0.48003200 0.76540899 0.01141500 3.000000
-0.15759200 -0.89170402 0.06196000 3.000000
0.37536401 -0.81869400 0.01812100 3.000000
0.68374902 0.58722901 -0.12919401 3.000000
0.84769398 0.30305001 -0.09638300 3.000000
-0.18969201 -0.88463801 -0.11092200 3.000000
-0.82973802 0.38153201 -0.03689000 3.000000
0.88647300 0.14887500 0.02452500 3.000000
0.69214600 -0.57357103 0.17940199 3.000000
-0.39803299 -0.81436598 0.02507100 3.000000
0.89733100 0.04772100 0.19971000 3.000000
-0.48991901 -0.76369900 0.10901400 3.000000
-0.69412798 -0.58691400 -0.08497700 3.000000
0.08441900 0.90246302 -0.14339200 3.000000
-0.08739300 0.90358698 -0.07116200 3.000000
0.62124902 0.65386498 -0.12956800 3.000000
0.71491802 0.55053401 -0.13765900 3.000000
-0.67472100 -0.60976100 0.04373300 3.000000
-0.88694602 0.21473201 -0.16794400 3.000000
0.20268400 0.88261902 -0.08449700 3.000000
0.39916900 0.81145197 0.14202200 3.000000
-0.86953402 0.27744401 -0.13379200 3.000000
-0.79388201 0.44940701 0.02258400 3.000000
-0.39570600 -0.81544298 0.07724200 3.000000
-0.37524301 -0.82490999 -0.03435200 3.000000
0.88796902 -0.13597301 0.18937001 3.000000
-0.87314302 -0.26067501 -0.00481800 3.000000
-0.09699500 0.90254301 -0.13053000 3.000000
0.19032100 -0.88156903 0.12334700 3.000000
-0.90962797 -0.06272500 -0.10650200 3.000000
0.02134500 0.90703100 -0.07219600 3.000000
0.89455497 0.09893000 0.00757200 3.000000
-0.44161600 -0.79276198 0.05520900 3.000000
0.89863801 -0.01985900 0.12056000 3.000000
-0.85459501 0.31914800 0.13223100 3.000000
0.54055899 -0.71911401 0.07440100 3.000000
0.12934500 0.89757699 -0.18197300 3.000000
0.65068698 -0.62220800 -0.13385600 3.000000
0.79909301 0.41446200 -0.18226001 3.000000
0.84619802 0.30680400 0.18299501 3.000000
-0.86073202 -0.29997200 0.18636300 3.000000
-0.67489499 0.61332798 -0.05220200 3.000000
0.41933399 -0.79815698 -0.12933400 3.000000
0.71393502 -0.54791898 0.02184000 3.000000
-0.90501100 0.11701500 -0.01714200 3.000000
-0.54160702 0.73221099 0.07349500 3.000000
0.14292000 -0.89200199 -0.15850100 3.000000
0.62857902 0.64692199 0.09822300 3.000000
-0.43036100 0.80318201 0.08077700 3.000000
0.73356301 -0.51928103 -0.15579200 3.000000
0.51808798 -0.73619598 0.04040500 3.000000
-0.72101903 -0.55525500 0.16328400 3.000000
-0.90200400 0.13535801 -0.04692300 3.000000
0.74664301 -0.49998999 0.06870300 3.000000
-0.88423198 -0.22073500 -0.01473800 3.000000
-0.13937300 -0.89416200 -0.03016800 3.000000
0.60429400 -0.66615301 0.14483900 3.000000
0.86528099 -0.24103500 0.11836100 3.000000
0.00769100 -0.90325898 0.00868700 3.000000
-0.48562601 0.77005398 -0.12553801 3.000000
0.21410400 0.88010597 0.10446600 3.000000
0.10727600 0.89997703 0.11187000 3.000000
-0.82822698 -0.38085300 0.13407300 3.000000
0.44090199 -0.78518099 0.04258600 3.000000
0.87285000 -0.21377300 0.04755400 3.000000
0.38495100 -0.81425798 -0.10173900 3.000000
-0.81215000 -0.41117600 0.09205400 3.000000
-0.84030402 0.35501501 0.00874400 3.000000
0.89319998 0.10784200 0.06613500 3.000000
-0.69153500 0.59373802 -0.18844301 3.000000
-0.26363000 -0.86667299 -0.06254800 3.000000
-0.06396000 0.90613598 -0.17527200 3.000000
0.82912701 0.34965000 -0.19656301 3.000000
0.70878202 -0.55398601 0.15043201 3.000000
0.79715800 -0.41433999 0.12540300 3.000000
0.81899399 -0.37130699 0.01605800 3.000000
0.30923301 -0.84682101 0.15451200 3.000000
0.53459001 -0.72365201 -0.03771400 3.000000
0.71871501 -0.54118001 -0.10779900 3.000000
0.27012101 0.86377198 0.13319600 3.000000
-0.42591101 -0.80146801 -0.16488600 3.000000
0.53216201 0.72926998 0.06993700 3.000000
0.65877599 -0.61285698 0.01345600 3.000000
0.61997598 -0.65129799 -0.06616000 3.000000
0.66908902 0.60448802 -0.10691600 3.000000
0.89655501 0.06204000 -0.13094300 3.000000
0.89665699 0.06015400 -0.09892800 3.000000
-0.16240101 0.89441699 -0.19870301 3.000000
-0.47334599 0.77744299 -0.12224400 3.000000
-0.58274603 0.70093900 0.13391399 3.000000
0.84143502 -0.31498501 -0.19810501 3.000000
0.53868097 0.72431397 0.06782600 3.000000
-0.15703800 -0.89182597 -0.17847900 3.000000
0.57418001 -0.69355601 -0.10577200 3.000000
-0.83910102 -0.35426199 0.17367800 3.000000
0.72094899 -0.53788602 -0.10346900 3.000000
-0.00764800 -0.90325898 0.11419700 3.000000
-0.03323500 -0.90325898 0.18583301 3.000000
-0.74984902 0.51867199 0.11472400 3.000000
0.27659699 -0.85781801 0.03890000 3.000000
0.17479700 -0.88498598 0.18361300 3.000000
-0.16782400 0.89322400 -0.11088400 3.000000
0.06389900 0.90469402 -0.10332300 3.000000
0.24458200 -0.86860502 0.09773200 3.000000
0.02308000 0.90703100 -0.09226300 3.000000
0.53306198 -0.72481400 -0.03852700 3.000000
0.89828700 -0.02632700 -0.12988700 3.000000
-0.73993599 0.53329200 -0.16506401 3.000000
-0.86248600 -0.29556900 -0.16597299 3.000000
-0.06039000 0.90652400 -0.01949500 3.000000
0.87963402 0.19058600 -0.12552200 3.000000
-0.90797400 -0.09324300 0.10321300 3.000000
0.87485802 -0.20654100 0.18599699 3.000000
0.83416498 0.33700499 0.02381100 3.000000
0.58367598 -0.68568403 0.04821300 3.000000
-0.16204500 0.89449602 -0.16348299 3.000000
0.89860499 0.02422700 -0.08924700 3.000000
-0.82511199 0.39050001 0.07378200 3.000000
0.62747598 0.64796603 0.19896001 3.000000
0.44112799 0.78881598 -0.05922500 3.000000
-0.68437600 0.60216600 -0.14961600 3.000000
-0.30211601 -0.85370600 -0.10262900 3.000000
0.73960799 -0.51036602 0.11283500 3.000000
-0.76999998 -0.48517799 0.13831501 3.000000
-0.84341103 -0.34344399 -0.10207000 3.000000
0.56764400 0.70229697 0.01842100 3.000000
-0.89637101 0.16971600 0.10864900 3.000000
0.13370900 -0.89332998 -0.14691199 3.000000
-0.43309301 0.80166203 -0.20032200 3.000000
0.86496800 -0.24216200 0.16142000 3.000000
-0.07396800 0.90504700 -0.18647000 3.000000
-0.47285700 -0.77396500 0.10229300 3.000000
-0.43760601 -0.79517502 0.09244800 3.000000
-0.78372902 0.46855801 -0.01769500 3.000000
0.88720602 -0.14062899 -0.11158400 3.000000
-0.69457799 0.59015501 -0.11919500 3.000000
0.82846498 -0.34753901 0.02527600 3.000000
0.89353400 -0.10203000 -0.18412399 3.000000
-0.72983801 -0.54441297 -0.12604000 3.000000
-0.66478997 0.62522501 -0.08063000 3.000000
0.86544800 0.24420699 -0.20233200 3.000000
-0.81932300 0.40141901 0.06003500 3.000000
0.89641500 0.06462100 0.18967301 3.000000
-0.49109101 -0.76299399 -0.04185200 3.000000
-0.52884901 -0.73813802 0.05529200 3.000000
0.83854002 0.32602301 -0.19485500 3.000000
-0.18354300 -0.88599098 -0.17134701 3.000000
0.16611600 0.89066899 -0.14755100 3.000000
0.23882200 -0.87054503 -0.00438400 3.000000
0.89850801 0.02601300 0.14238000 3.000000
0.88611197 0.15107299 -0.14653100 3.000000
0.73866701 0.51552498 -0.18613900 3.000000
0.15794601 0.89246702 -0.11160500 3.000000
-0.67825699 0.60936999 -0.15799500 3.000000
-0.00818100 0.90703100 -0.12207100 3.000000
0.25598699 0.86853403 -0.17339399 3.000000
0.88034499 -0.18247800 0.09167300 3.000000
0.75475800 0.49179301 0.06576700 3.000000
-0.89786500 0.16060100 0.01613500 3.000000
0.52786303 0.73253798 -0.04293900 3.000000
-0.67273200 -0.61210299 -0.02575500 3.000000
-0.47931400 -0.77007997 -0.01482300 3.000000
0.63199300 -0.63991499 -0.17108899 3.000000
-0.39119300 0.82130200 0.09075800 3.000000
0.35057500 0.83393401 0.18614499 3.000000
-0.83789003 0.36107299 0.06061200 3.000000
-0.01378800 -0.90325898 -0.08552200 3.000000
0.53007299 0.73085701 -0.02967200 3.000000
0.38154599 0.81960499 0.13250799 3.000000
0.72975802 0.52866501 -0.11604300 3.000000
-0.90273899 0.13087399 0.11109600 3.000000
0.50471902 -0.74635899 0.08212800 3.000000
-0.59603798 0.69035798 0.03993100 3.000000
0.72983301 -0.52478302 0.01352400 3.000000
-0.90982598 -0.05907600 -0.08968800 3.000000
0.88602799 0.15158799 -0.11913400 3.000000
0.15340000 0.89346802 -0.03024300 3.000000
-0.86625499 0.28925401 -0.13703200 3.000000
-0.88999498 0.20375299 -0.19325200 3.000000
-0.91123998 -0.03300900 0.11789700 3.000000
0.67591399 -0.59268099 -0.13172500 3.000000
-0.87132001 0.27101201 -0.13979401 3.000000
0.89547598 0.08195000 0.20338900 3.000000
-0.07795800 -0.90084100 -0.06958100 3.000000
0.88496298 0.15808500 -0.16034900 3.000000
0.64727902 -0.62543499 0.17369699 3.000000
0.84140998 -0.31505001 0.08593400 3.000000
-0.14541300 -0.89350498 -0.15826701 3.000000
-0.54496801 0.72965598 -0.01519700 3.000000
-0.38258401 0.82528502 0.12196000 3.000000
0.75266999 -0.49110001 -0.07992800 3.000000
0.28583500 0.85847700 0.10707400 3.000000
-0.11983500 -0.89628702 0.15369301 3.000000
-0.15825500 -0.89155799 -0.11976300 3.000000
0.27793899 -0.85736501 -0.14602500 3.000000
-0.79395002 0.44927800 -0.04492900 3.000000
-0.91033000 0.05356300 0.19248401 3.000000
0.25796899 0.86786598 -0.05656700 3.000000
0.66629702 -0.60400301 -0.05972500 3.000000
0.41754001 0.80295300 -0.17191100 3.000000
-0.87068403 0.27330500 0.17787801 3.000000
0.71401399 -0.54782599 -0.02002000 3.000000
0.76186597 0.48130900 -0.03103500 3.000000
0.81616402 0.38218299 0.05048700 3.000000
0.40583399 0.80836898 0.16086300 3.000000
-0.80281401 0.43255901 0.03136500 3.000000
-0.77684897 0.47884899 0.14128800 3.000000
-0.50890702 0.75604701 0.09353900 3.000000
0.66549599 -0.60494602 -0.02552200 3.000000
0.43447101 0.79282200 -0.10086500 3.000000
0.72177100 0.54044503 0.03057000 3.000000
0.66191298 0.61293602 0.12212100 3.000000
0.12162900 0.89841598 -0.14092100 3.000000
0.73502600 -0.51712298 0.02539800 3.000000
-0.56055403 -0.71403599 0.06911700 3.000000
-0.90855902 0.08621600 0.15758300 3.000000
-0.89787698 0.16052800 -0.19955800 3.000000
0.76527601 0.47628000 -0.03359200 3.000000
-0.87426299 -0.25664100 0.11181000 3.000000
0.65669399 -0.61530900 0.07514400 3.000000
-0.15010600 0.89676702 -0.00798200 3.000000
0.88048202 0.18541300 -0.16146700 3.000000
-0.78872102 -0.45536801 -0.07169700 3.000000
0.65233701 0.62421000 0.18793499 3.000000
-0.10266500 -0.89815402 0.16775100 3.000000
-0.40687501 -0.81027502 -0.14628300 3.000000
0.80365998 -0.40207699 -0.09318300 3.000000
0.70080101 -0.56338203 0.16640601 3.000000
-0.91273099 -0.00549200 -0.17918500 3.000000
-0.47152299 -0.77476799 0.13428900 3.000000
-0.45144400 0.79062098 0.07656300 3.000000
-0.89241701 -0.19006000 -0.14393100 3.000000
-0.18837699 -0.88492697 -0.13085200 3.000000
0.87810397 -0.19485100 -0.11426300 3.000000
-0.03963200 0.90703100 0.01949000 3.000000
-0.86750299 0.28475901 0.18757901 3.000000
0.86193103 0.25687400 0.04574500 3.000000
0.70930201 0.55714601 -0.10407600 3.000000
0.67208600 0.60095900 0.06406400 3.000000
-0.62739599 -0.65688300 -0.03386400 3.000000
-0.89454299 -0.17709300 0.16831200 3.000000
0.60490400 0.66934800 0.01787400 3.000000
-0.72730303 0.55162799 0.14644000 3.000000
-0.82029301 -0.39581800 0.06500800 3.000000
0.48467499 -0.75884300 -0.13987499 3.000000
-0.86776203 0.28382701 -0.17215399 3.000000
-0.91115397 0.03835400 0.11612800 3.000000
-0.35592800 -0.83384597 0.17681500 3.000000
-0.31147900 0.85432303 0.05268200 3.000000
0.07683100 -0.89951599 -0.15253399 3.000000
-0.33979899 -0.84100902 0.15241501 3.000000
0.58204699 0.69099897 0.01453700 3.000000
-0.69445503 -0.58652902 0.15950599 3.000000
0.21688700 0.87949300 0.19337600 3.000000
-0.90622902 -0.10580900 -0.06094500 3.000000
0.83318698 -0.33568701 -0.05543600 3.000000
-0.06969400 -0.90174001 0.16913000 3.000000
0.45506001 -0.77666199 -0.05569800 3.000000
0.40349901 0.80944902 0.08288000 3.000000
-0.87456501 0.25932500 -0.13884200 3.000000
0.65096402 -0.62194598 -0.06507100 3.000000
0.81764400 0.37846801 0.20069601 3.000000
0.83783400 -0.32402399 -0.19296999 3.000000
0.39531401 -0.80946398 -0.17911200 3.000000
0.59564000 -0.67435098 0.09021300 3.000000
-0.82709700 0.38675699 0.09073200 3.000000
0.89237601 0.11286400 0.02313000 3.000000
-0.76716101 0.49313799 0.02727400 3.000000
-0.28720000 -0.85873097 -0.15394700 3.000000
-0.32369301 0.85020798 -0.01104000 3.000000
0.44664100 -0.78172702 -0.15047100 3.000000
-0.17078200 0.89257199 -0.01211000 3.000000
0.66079402 0.61425400 -0.00915300 3.000000
-0.14552400 -0.89349300 -0.19418800 3.000000
-0.30440399 -0.85293502 -0.09986900 3.000000
-0.20814399 -0.88057601 0.07235900 3.000000
-0.54294401 -0.72742301 0.04730900 3.000000
-0.08235400 0.90413499 -0.19211499 3.000000
0.73542202 0.52031100 -0.02708300 3.000000
-0.59158999 -0.69044298 0.08077500 3.000000
0.63830298 -0.63393903 -0.17863099 3.000000
-0.52159202 0.74742699 0.03934300 3.000000
0.23755500 -0.87097299 0.02657400 3.000000
-0.87527502 0.25676900 0.02698300 3.000000
0.87408900 0.21308300 0.05277700 3.000000
0.89490002 0.09256300 0.03562600 3.000000
-0.78231901 -0.46700999 0.16741300 3.000000
0.80927402 -0.39148799 -0.06317000 3.000000
-0.62790698 -0.65639800 -0.00337900 3.000000
-0.13953701 0.89791602 -0.16505300 3.000000
0.13290299 0.89718997 0.10929100 3.000000
-0.53656203 0.73604703 -0.14434300 3.000000
0.57709402 -0.69134098 0.04234300 3.000000
-0.90755099 -0.09774600 0.05262100 3.000000
-0.26923299 0.86855698 0.00497900 3.000000
0.31342500 -0.84540898 0.06483800 3.000000
0.77121103 0.46705300 -0.06949400 3.000000
0.85395300 0.28560501 -0.05833100 3.000000
0.80446601 -0.40055501 0.17246699 3.000000
-0.25243899 -0.87044400 0.01587100 3.000000
-0.80840498 0.42201200 -0.02565400 3.000000
-0.35582900 0.83766401 -0.05509200 3.000000
0.89602500 -0.06804900 0.14594500 3.000000
0.65616000 -0.61593699 0.01887300 3.000000
-0.26501599 -0.86620599 0.14112300 3.000000
0.29433501 -0.85184097 -0.19187400 3.000000
-0.54851401 0.72696102 -0.16089600 3.000000
-0.49210000 0.76615900 -0.11077800 3.000000
0.63299799 0.64273500 -0.17736900 3.000000
-0.45794800 0.78670800 -0.17117999 3.000000
0.36484799 -0.82355899 -0.07130900 3.000000
0.63077599 0.64484000 0.19918101 3.000000
0.84820700 -0.29798999 -0.01145400 3.000000
-0.18289500 -0.88613403 -0.02618500 3.000000
0.61444098 -0.65654099 -0.08346500 3.000000
-0.91255897 -0.00867600 -0.10951200 3.000000
0.57974201 0.69309998 0.09129100 3.000000
-0.90612203 -0.10646300 -0.18606900 3.000000
0.14684500 0.89490998 0.05892300 3.000000
0.47128001 0.77067500 -0.00711100 3.000000
0.88449502 0.16094001 -0.11299200 3.000000
-0.23248500 0.87898999 -0.17693400 3.000000
0.73838800 0.51593697 -0.17040800 3.000000
-0.41914999 -0.80459601 0.17659800 3.000000
0.49944401 0.75372899 -0.01769700 3.000000
-0.28096199 0.86460501 -0.09326700 3.000000
0.89580601 -0.07208000 -0.18596099 3.000000
-0.61441898 -0.66917503 -0.02792300 3.000000
-0.91128802 -0.03211300 -0.07423800 3.000000
0.29264399 -0.85241097 0.00405400 3.000000
-0.77896798 0.47572401 -0.01873900 3.000000
-0.16615900 -0.88981801 -0.03480100 3.000000
0.39799601 -0.80822301 0.17275900 3.000000
-0.09078300 0.90321898 0.05826700 3.000000
-0.04315900 -0.90325898 -0.19756299 3.000000
-0.68242401 0.60446399 -0.09381700 3.000000
-0.45378101 -0.78544301 0.00860700 3.000000
0.43618801 -0.78801697 -0.05668700 3.000000
-0.68567699 0.60063398 -0.13357200 3.000000
0.60729498 0.66708201 -0.05304700 3.000000
0.89951801 0.00739100 -0.11592600 3.000000
-0.51919901 -0.74547398 0.11034900 3.000000
0.86869001 -0.22875600 0.15193000 3.000000
-0.30453900 -0.85288900 0.05110000 3.000000
-0.15417300 0.89622802 -0.00611600 3.000000
0.78927600 0.43297899 -0.13589700 3.000000
-0.90838599 0.08940400 -0.10280300 3.000000
0.34184399 -0.83420199 0.03861500 3.000000
-0.24220000 -0.87308002 -0.03019400 3.000000
0.58708799 -0.68245202 0.10938700 3.000000
0.43231800 -0.79034501 -0.11273800 3.000000
0.89879602 0.02071000 0.03421800 3.000000
0.67881101 -0.58927000 0.10812200 3.000000
-0.57957399 -0.69957799 -0.16669600 3.000000
0.15468100 0.89318597 -0.05498600 3.000000
0.86085200 -0.25698599 0.16847099 3.000000
-0.85466897 0.31896099 0.05713300 3.000000
-0.82232702 0.39575300 -0.07032900 3.000000
0.77581000 0.45837799 -0.11012900 3.000000
-0.91119897 -0.03375100 0.00352600 3.000000
-0.65733802 0.63229197 -0.17367999 3.000000
0.84388900 -0.30882701 0.16574401 3.000000
-0.87199801 -0.26479700 0.09764700 3.000000
-0.90293902 -0.12587801 -0.19982600 3.000000
0.39290500 0.81435001 0.17731901 3.000000
-0.17239401 0.89221799 0.05600000 3.000000
0.00471000 -0.90325898 0.16247000 3.000000
-0.27479401 0.86668402 -0.13546500 3.000000
0.37639999 0.82198602 0.08639600 3.000000
0.44662699 0.78550798 0.13208000 3.000000
-0.59144199 -0.69055599 -0.20613800 3.000000
-0.86010098 0.30532899 0.18860900 3.000000
-0.47069800 0.77903599 -0.14331999 3.000000
-0.88243699 -0.22720200 0.09121300 3.000000
-0.51695400 0.75095201 -0.02217000 3.000000
0.73335201 0.52336401 -0.17877799 3.000000
-0.73434198 0.54154199 -0.14108300 3.000000
-0.08856100 -0.89968801 0.19334900 3.000000
-0.78422898 0.46761400 0.04014700 3.000000
0.55605698 -0.70733303 -0.20697901 3.000000
0.76510000 -0.47276700 -0.01189900 3.000000
-0.86931801 0.27822199 0.06545000 3.000000
-0.81212902 0.41498801 0.01771000 3.000000
-0.48836100 0.76840901 -0.20227800 3.000000
0.86279798 -0.24997900 -0.08445500 3.000000
0.73360097 0.52299798 0.17987500 3.000000
-0.32079899 0.85118300 -0.15516099 3.000000
0.70738399 0.55940300 0.07447400 3.000000
-0.83622700 0.36524600 -0.05736500 3.000000
-0.45271501 0.78985602 0.14525101 3.000000
0.56679600 0.70294100 0.16717000 3.000000
0.14339601 -0.89189798 -0.13349199 3.000000
0.35142899 0.83353901 -0.02421300 3.000000
-0.80910802 0.42068699 -0.04741400 3.000000
-0.67000002 -0.61531901 -0.10095400 3.000000
-0.79590797 -0.44181299 -0.09576300 3.000000
0.03167000 0.90703100 -0.08201400 3.000000
-0.80624700 0.42608401 0.08809900 3.000000
0.89231497 -0.10946600 -0.10021900 3.000000
-0.21271300 0.88334298 -0.00415000 3.000000
-0.86578900 0.29093301 -0.09234900 3.000000
0.27329600 -0.85892999 0.18561099 3.000000
0.77446699 -0.45714101 -0.15448400 3.000000
-0.31536499 0.85301399 0.11013100 3.000000
-0.89546400 0.17524700 -0.15486801 3.000000
-0.20238499 -0.88184398 -0.16044000 3.000000
0.85761601 -0.26864001 0.05350800 3.000000
-0.06139400 -0.90264302 -0.12252300 3.000000
0.81022000 -0.38970301 0.00583800 3.000000
0.37187999 -0.82030600 0.05286500 3.000000
0.89894003 0.01805100 0.09149400 3.000000
0.70957798 0.55682099 0.00806800 3.000000
0.35494500 0.83191299 -0.05332700 3.000000
0.39087901 -0.81151599 -0.13781700 3.000000
0.55099702 0.71495098 0.00104100 3.000000
0.89709699 0.05203900 -0.07982500 3.000000
0.64804202 0.62848502 0.09615700 3.000000
0.22783101 -0.87331200 -0.12118700 3.000000
0.45338300 0.78144300 -0.04165300 3.000000
0.85856599 -0.26521900 0.19291399 3.000000
-0.41752499 -0.80534798 -0.07856200 3.000000
-0.90918398 0.07469800 -0.00356800 3.000000
0.10393300 0.90034002 -0.13389100 3.000000
0.80350298 -0.40237200 0.19077200 3.000000
-0.21343300 -0.87941200 0.17301100 3.000000
0.88756400 -0.13844401 -0.17164600 3.000000
0.77394801 0.46189100 0.11539400 3.000000
0.18978800 0.88545799 0.08680700 3.000000
-0.75875002 0.50554299 -0.03948200 3.000000
-0.86761397 -0.28058800 0.09291800 3.000000
0.51067698 0.74560201 -0.16018400 3.000000
-0.75682098 0.50838900 0.19354001 3.000000
-0.55325598 0.72335601 0.11853800 3.000000
-0.04561700 -0.90325898 -0.13806300 3.000000
-0.06650700 0.90585899 -0.13489901 3.000000
-0.90781897 0.09986800 -0.16154400 3.000000
-0.50727600 0.75702798 0.06085000 3.000000
-0.88352501 0.22705600 -0.14890200 3.000000
-0.89047801 0.20201100 -0.15120199 3.000000
0.28697401 -0.85432100 0.13625599 3.000000
-0.49421600 -0.76111400 -0.09481100 3.000000
0.32580900 -0.84123600 -0.15128499 3.000000
-0.62500203 -0.65915000 -0.08127900 3.000000
-0.83520502 -0.36404100 -0.16737799 3.000000
-0.73316997 -0.53949898 0.12637800 3.000000
-0.63354701 0.65482801 -0.17864899 3.000000
-0.20942400 -0.88029498 0.03920900 3.000000
0.53077900 0.73032099 0.08960400 3.000000
-0.17800801 0.89098197 0.07596400 3.000000
0.45742300 -0.77524000 0.15479600 3.000000
0.37461400 0.82281297 -0.04097300 3.000000
-0.36846599 0.83181697 0.16249400 3.000000
0.80716097 -0.39547300 -0.08030200 3.000000
-0.91114497 0.03851700 -0.13508700 3.000000
0.87003601 0.22767900 -0.09109700 3.000000
-0.76013303 -0.49973100 0.02716200 3.000000
0.85261101 -0.28666899 -0.05673300 3.000000
0.32488900 -0.84154600 -0.03649300 3.000000
0.43854901 0.79036802 -0.03204900 3.000000
0.59477001 0.67894697 -0.02937300 3.000000
-0.70892102 0.57327002 -0.02962800 3.000000
0.72489601 0.53583598 -0.00228800 3.000000
-0.07202100 -0.90148699 -0.19732600 3.000000
0.48560899 0.76205301 0.14303599 3.000000
0.81870699 0.37580201 0.16590700 3.000000
-0.03476200 0.90703100 0.18112101 3.000000
0.42040300 0.80128598 -0.08587300 3.000000
-0.34551001 0.84243798 -0.14673799 3.000000
-0.34537899 -0.83872598 0.01254400 3.000000
-0.15400501 -0.89249301 0.09500100 3.000000
-0.56794101 0.71219301 0.08300400 3.000000
0.74242300 -0.50621301 -0.10407500 3.000000
0.07559300 0.90342301 0.20289600 3.000000
0.55476099 0.71209002 -0.02377600 3.000000
0.85415602 -0.28110200 0.11538300 3.000000
-0.36005300 -0.83193803 0.12590300 3.000000
-0.54673600 0.72831303 0.16643301 3.000000
0.89782798 0.03856200 -0.20320100 3.000000
0.34556800 -0.83247900 0.09904500 3.000000
-0.73765600 0.53665501 0.06230700 3.000000
-0.79830098 0.44106999 0.18541799 3.000000
0.49673900 0.75535703 -0.00634500 3.000000
0.11994300 0.89859903 -0.19749500 3.000000
0.41085199 0.80604702 -0.07210900 3.000000
-0.16486999 0.89387399 -0.04566700 3.000000
0.71816897 0.54575700 0.10388400 3.000000
-0.86177200 -0.29736200 -0.02613900 3.000000
-0.86022502 -0.30124399 0.07782700 3.000000
0.74005097 -0.50971299 0.00547500 3.000000
0.01331000 0.90703100 0.03118600 3.000000
-0.25955001 0.87181997 0.05053300 3.000000
-0.09848100 0.90238100 0.12369800 3.000000
0.61223602 0.66240197 0.05719500 3.000000
0.87120301 0.22347800 -0.17709200 3.000000
-0.83100998 -0.37456900 0.10283500 3.000000
-0.67891300 -0.60482597 -0.18343900 3.000000
0.77874601 0.45284101 -0.07945600 3.000000
0.88468301 -0.15601601 -0.17998800 3.000000
0.86518198 -0.24139300 0.18119800 3.000000
0.62938797 0.64615500 0.03662900 3.000000
-0.33896199 -0.84129101 0.10900500 3.000000
0.12295800 0.89827102 -0.11105700 3.000000
-0.90085101 0.14239000 0.19988100 3.000000
-0.91194099 -0.02006300 0.06557500 3.000000
-0.26227000 0.87090302 -0.12584500 3.000000
-0.20304500 0.88547099 -0.19065601 3.000000
0.88378501 -0.16149600 0.19052500 3.000000
0.71877199 0.54486901 -0.12774600 3.000000
0.26372701 0.86592603 -0.09008700 3.000000
0.46252900 -0.77216798 0.15971699 3.000000
0.80172497 -0.40572599 0.03997500 3.000000
0.12124100 0.89845800 -0.18065301 3.000000
-0.90069598 -0.13956399 0.12409900 3.000000
0.88918400 -0.12856100 0.19864200 3.000000
0.89493501 0.09192800 0.19591300 3.000000
0.32094201 0.84664798 0.08643700 3.000000
0.89834201 -0.02530100 -0.00101900 3.000000
0.88584602 0.15269800 0.03625800 3.000000
-0.87852901 0.24504800 0.14889801 3.000000
-0.82801998 -0.38124201 0.05187100 3.000000
0.81719899 -0.37581399 -0.13215999 3.000000
0.44708401 -0.78146100 -0.08542800 3.000000
0.86899799 -0.22764900 -0.20327900 3.000000
-0.16979800 0.89278901 -0.09158800 3.000000
0.89558399 -0.07617600 0.18272200 3.000000
0.89487702 -0.08921800 -0.10853300 3.000000
0.47730899 -0.76327503 -0.08332400 3.000000
0.64244097 0.63379002 -0.08548700 3.000000
0.45157099 -0.77876103 0.16956200 3.000000
-0.83129501 0.37762600 0.19957700 3.000000
0.89057797 0.12383400 0.11293600 3.000000
-0.79025000 -0.45248401 0.19328800 3.000000
0.89653701 -0.05860500 -0.14198300 3.000000
-0.83740997 -0.35850501 0.08204200 3.000000
0.73938400 -0.51069599 -0.18716700 3.000000
-0.85996503 -0.30189800 -0.01463400 3.000000
-0.84576201 -0.33754501 -0.12944400 3.000000
0.51551199 -0.73815399 -0.17354900 3.000000
-0.90825599 -0.08803400 -0.16968600 3.000000
0.75471002 -0.48809201 -0.12485700 3.000000
0.72161901 0.54066902 0.04794200 3.000000
-0.27895999 -0.86150801 0.06070300 3.000000
-0.23096000 0.87932599 -0.04080000 3.000000
-0.36733201 -0.82857001 -0.10599300 3.000000
0.89560997 0.07947500 -0.12452400 3.000000
-0.84872103 0.33388999 0.15723801 3.000000
0.76073402 0.48297900 -0.06977000 3.000000
0.51423800 -0.73912299 -0.08496600 3.000000
-0.79302502 0.45102200 -0.12191300 3.000000
0.42609400 0.79786199 0.18771701 3.000000
0.00298400 -0.90325898 -0.15374100 3.000000
0.87561202 0.20759800 0.17566399 3.000000
-0.69758803 -0.58283901 0.00690100 3.000000
0.81164402 0.39078999 0.01095000 3.000000
-0.80422097 -0.42613301 -0.15631600 3.000000
0.89932001 0.01103500 0.08262000 3.000000
0.89242703 0.11255700 -0.12747800 3.000000
-0.42197999 0.80705899 -0.07425900 3.000000
-0.81448501 -0.40677199 -0.02172100 3.000000
-0.88598698 0.21818700 0.11109100 3.000000
-0.72184002 0.55805999 -0.03631600 3.000000
-0.08554900 0.90378797 -0.17093900 3.000000
-0.08211800 -0.90038902 0.15833201 3.000000
-0.40148500 0.81654102 -0.03501000 3.000000
0.86896300 0.23154400 -0.01159900 3.000000
0.14353099 0.89564002 -0.16201200 3.000000
0.86517400 0.24519201 0.01467500 3.000000
-0.13051499 -0.89512599 -0.02834300 3.000000
0.22006799 -0.87502098 -0.07969200 3.000000
-0.55585402 0.72138101 0.07210100 3.000000
0.78106701 0.44846299 0.09751300 3.000000
-0.28442100 -0.85966802 -0.02760900 3.000000
-0.09031300 0.90327001 0.11241400 3.000000
0.18508300 0.88649398 0.15487400 3.000000
-0.73987401 0.53338403 0.16824400 3.000000
-0.55423301 0.72261399 -0.13276300 3.000000
0.66418600 -0.60648799 0.14942200 3.000000
-0.35490400 0.83809203 0.13045700 3.000000
0.44497699 -0.78272802 0.10767000 3.000000
0.03715200 -0.90325898 -0.01166300 3.000000
0.44525599 0.78633302 -0.05914300 3.000000
0.73152602 0.52605700 0.00549500 3.000000
-0.74667901 -0.51957500 0.04205800 3.000000
0.75851798 0.48624700 -0.15154900 3.000000
-0.32296699 0.85045201 -0.10719300 3.000000
0.66296101 -0.60793000 -0.14522700 3.000000
-0.79898798 0.43977499 -0.16792300 3.000000
-0.74246198 0.52956700 0.15018700 3.000000
-0.58047903 0.70266098 -0.19885699 3.000000
-0.69725800 -0.58322901 0.18452200 3.000000
-0.19578201 0.88707000 0.09794200 3.000000
0.29244199 -0.85247898 0.09060000 3.000000
-0.62229902 -0.66171002 0.05097400 3.000000
0.84382898 -0.30897799 0.14950100 3.000000
-0.88362497 -0.22292300 0.19304900 3.000000
-0.17586400 -0.88768202 -0.00076100 3.000000
-0.28360301 0.86371499 -0.08909400 3.000000
0.83543098 0.33382800 -0.19397400 3.000000
0.69370800 0.57550502 -0.12939499 3.000000
0.47971100 -0.76182997 -0.02043500 3.000000
0.79470801 -0.41896099 -0.01413200 3.000000
-0.83202398 0.37579501 0.03366100 3.000000
0.35446700 -0.82836199 0.15473500 3.000000
-0.91209698 -0.01718900 -0.19280100 3.000000
-0.13345300 0.89857799 0.12425900 3.000000
0.45129699 0.78269798 -0.08453300 3.000000
0.75945598 0.48486400 -0.06894500 3.000000
-0.00676000 -0.90325898 0.09537900 3.000000
-0.62983799 -0.65456897 -0.16680799 3.000000
-0.21547700 -0.87896198 -0.09704000 3.000000
0.89168102 0.11710300 0.19196600 3.000000
0.84218502 -0.31310400 -0.15006500 3.000000
0.38691899 0.81712002 -0.11519500 3.000000
0.49016801 0.75931001 -0.09375400 3.000000
-0.84020901 0.35525301 -0.20310400 3.000000
-0.44414499 -0.79124099 -0.17104600 3.000000
-0.33990800 -0.84097201 -0.01346800 3.000000
-0.91045398 0.05127400 -0.12523600 3.000000
0.46357000 0.77531397 -0.13091700 3.000000
0.67906302 -0.58897400 0.06165000 3.000000
-0.91124499 -0.03290000 -0.11379900 3.000000
0.28334299 -0.85554498 0.06724400 3.000000
0.10703300 -0.89623100 0.07821700 3.000000
-0.04054400 0.90703100 0.11497700 3.000000
-0.18280400 0.88992602 -0.01782400 3.000000
0.31849000 -0.84370202 0.02446700 3.000000
0.59914899 0.67479903 0.04109500 3.000000
0.79797000 -0.41280800 0.16850400 3.000000
0.28483599 -0.85504198 0.13625200 3.000000
-0.63517100 0.65328997 -0.04720700 3.000000
-0.62014002 0.66752702 -0.04445600 3.000000
0.30656001 -0.84772199 0.11480800 3.000000
-0.17584901 0.89145702 -0.11758900 3.000000
0.66585100 0.60829997 0.03099600 3.000000
-0.81058300 -0.41413301 -0.13496000 3.000000
-0.48179501 -0.76858699 -0.17191800 3.000000
0.59642798 0.67737597 -0.05486900 3.000000
-0.44399899 0.79509997 -0.06712000 3.000000
0.17531700 0.88864303 -0.02954700 3.000000
0.81344903 0.38738301 -0.08260400 3.000000
0.87876397 -0.19212300 0.07361200 3.000000
0.54817498 0.71709597 -0.05892500 3.000000
0.11620900 -0.89523298 -0.20361400 3.000000
-0.84127498 0.35257700 -0.07650200 3.000000
-0.00267300 -0.90325898 -0.16217300 3.000000
-0.06273300 0.90626901 -0.07401500 3.000000
0.25901601 0.86751300 0.03324400 3.000000
0.70031798 0.56772202 0.03367400 3.000000
0.75485498 -0.48787701 0.11935100 3.000000
-0.84519202 0.34274700 0.05244700 3.000000
0.80490398 -0.39973000 0.14573801 3.000000
-0.70865202 0.57358700 -0.19556101 3.000000
-0.51336002 0.75336802 -0.03277300 3.000000
0.88684797 0.14658201 -0.11190000 3.000000
-0.87991798 -0.23627301 -0.13154601 3.000000
-0.91163200 -0.02577900 0.12577300 3.000000
0.06227500 -0.90109903 -0.13031000 3.000000
-0.15999000 0.89494801 -0.06051400 3.000000
0.62981200 0.64575303 -0.16526300 3.000000
-0.57632101 0.70582199 -0.10964200 3.000000
0.83589703 -0.32888401 -0.11497800 3.000000
-0.68011600 0.60718101 0.08305500 3.000000
-0.01284500 0.90703100 0.00262100 3.000000
0.43147999 -0.79084897 0.18451700 3.000000
0.01470600 -0.90325898 -0.06617400 3.000000
-0.85671598 0.31382301 0.06512200 3.000000
-0.79054701 0.45569700 -0.08231200 3.000000
0.57541001 0.69639301 0.10275200 3.000000
0.83133399 0.34410900 0.00032100 3.000000
0.59198600 -0.67781198 -0.02364200 3.000000
0.80581999 0.40177399 -0.06148300 3.000000
-0.42489001 -0.80194098 0.00472100 3.000000
0.03781200 0.90703100 -0.11604600 3.000000
-0.70561498 -0.57339001 -0.04657800 3.000000
0.50370198 -0.74713200 0.07827600 3.000000
-0.84212703 -0.34666699 -0.11467200 3.000000
0.13584100 0.89687002 -0.00869400 3.000000
0.09778600 0.90100902 -0.19832100 3.000000
0.66241699 -0.60856998 -0.04846600 3.000000
0.82773799 0.35313600 0.13998400 3.000000
0.17480300 0.88875598 -0.11097600 3.000000
-0.71669400 -0.56034601 0.09746000 3.000000
-0.56480598 0.71457601 -0.12985700 3.000000
0.20653699 0.88177103 -0.16731600 3.000000
-0.83759302 -0.35804701 0.05387800 3.000000
-0.90789098 0.09854200 0.10043900 3.000000
-0.76458299 0.49693999 0.02682100 3.000000
-0.33578900 0.84613198 -0.11490500 3.000000
-0.33396801 0.84674603 -0.13842000 3.000000
0.44937101 0.78385699 0.08851100 3.000000
0.22663300 -0.87357599 0.05178700 3.000000
0.30866101 -0.84701401 0.10378800 3.000000
-0.59027100 0.69521803 0.14169300 3.000000
0.88255697 0.17275700 0.11268900 3.000000
0.65083998 0.62583500 -0.13669901 3.000000
-0.54958302 0.72614801 -0.09056600 3.000000
0.83354098 0.33856899 0.03596700 3.000000
0.72565103 -0.53095001 0.07111800 3.000000
-0.07826400 -0.90080798 0.11623200 3.000000
0.51572901 -0.73799002 0.01658400 3.000000
0.36448801 -0.82372499 -0.13992500 3.000000
0.88508099 -0.15358900 0.02369800 3.000000
0.34409401 -0.83316100 -0.11909500 3.000000
0.16487800 0.89094102 0.16307600 3.000000
-0.27146801 0.86780399 0.03452400 3.000000
-0.56045598 -0.71411097 -0.03150700 3.000000
-0.50206602 -0.75639099 0.11714300 3.000000
0.66792798 -0.60208303 0.19219001 3.000000
-0.75859100 -0.50200498 -0.17743701 3.000000
-0.24096601 -0.87335199 0.12977099 3.000000
-0.76185298 -0.49719501 0.14208700 3.000000
-0.48958200 -0.76390201 0.20247100 3.000000
0.03967600 -0.90325898 -0.06622500 3.000000
0.89809400 0.03366000 -0.15785199 3.000000
-0.07251000 -0.90143400 0.16892700 3.000000
0.04246700 0.90702498 0.06404700 3.000000
0.64633900 -0.62632602 -0.12973399 3.000000
-0.30702600 0.85582298 -0.01560400 3.000000
-0.26312000 -0.86684501 0.04870200 3.000000
-0.77014899 -0.48495799 -0.12100800 3.000000
0.35884601 0.83010799 -0.06833400 3.000000
-0.67204100 0.61668801 -0.08240400 3.000000
0.43964899 -0.78593397 0.03901100 3.000000
-0.23570400 -0.87450999 -0.13111600 3.000000
-0.70910001 0.57305801 -0.05750200 3.000000
-0.70088601 0.58273000 0.17876700 3.000000
-0.85433501 0.31979901 0.03852300 3.000000
0.73537201 0.52038401 0.01896600 3.000000
0.75997603 -0.48032501 0.08102600 3.000000
-0.76286000 -0.49570999 0.02260300 3.000000
