-0.571999 0.193274 -0.331414 1.000000
-0.710405 -0.411560 -0.331414 1.000000
0.791926 -0.348089 -0.331414 1.000000
0.830297 0.277048 -0.331414 1.000000
-0.562368 0.320186 -0.331414 1.000000
0.464792 -0.775989 -0.331414 1.000000
0.340935 -0.514902 -0.331414 1.000000
-0.550849 -0.313416 -0.331414 1.000000
0.362415 -0.743059 -0.331414 1.000000
0.731655 0.505742 -0.331414 1.000000
-0.755536 0.028059 -0.331414 1.000000
-0.580270 0.410543 -0.331414 1.000000
-0.074252 0.753397 -0.331414 1.000000
-0.530954 0.239327 -0.331414 1.000000
-0.477097 0.360339 -0.331414 1.000000
-0.797470 -0.059385 -0.331414 1.000000
0.862303 0.053736 -0.331414 1.000000
-0.825300 0.340642 -0.331414 1.000000
0.473986 -0.347315 -0.327698 1.000000
0.140171 -0.679768 -0.331414 1.000000
0.343428 -0.549264 -0.331414 1.000000
-0.529974 -0.662960 -0.331414 1.000000
-0.070172 0.761890 -0.331414 1.000000
0.192728 -0.603038 -0.331414 1.000000
-0.662227 -0.450886 -0.331414 1.000000
0.080645 -0.814982 -0.331414 1.000000
0.475846 -0.428257 -0.331414 1.000000
-0.506107 -0.597532 -0.331414 1.000000
0.617887 0.251609 -0.331414 1.000000
-0.751613 -0.096211 -0.331414 1.000000
-0.189748 0.789781 -0.331414 1.000000
0.625872 0.302743 -0.331414 1.000000
0.576174 -0.564500 -0.331414 1.000000
-0.711469 0.533463 -0.331414 1.000000
0.702769 0.331861 -0.331414 1.000000
0.431628 0.668321 -0.331414 1.000000
0.729932 -0.047117 -0.331414 1.000000
0.144080 0.635201 -0.331414 1.000000
-0.007141 0.800456 -0.331414 1.000000
-0.845565 0.093293 -0.331414 1.000000
0.799181 0.435433 -0.331414 1.000000
-0.023130 -0.593263 -0.331414 1.000000
0.179458 0.756428 -0.331414 1.000000
0.250231 0.869838 -0.331414 1.000000
-0.652923 0.662061 -0.322630 1.000000
0.463760 -0.448697 -0.331414 1.000000
0.807171 -0.098371 -0.331414 1.000000
0.181776 0.712795 -0.331414 1.000000
0.021298 0.784017 -0.331414 1.000000
0.379842 0.754026 -0.331414 1.000000
0.119864 -0.936334 -0.330017 1.000000
0.830629 -0.125280 -0.331414 1.000000
-0.358779 -0.873413 -0.328313 1.000000
0.357854 -0.705985 -0.331414 1.000000
0.403418 0.761610 -0.331414 1.000000
-0.125203 0.824813 -0.331414 1.000000
0.546477 -0.645949 -0.331414 1.000000
0.620262 0.026258 -0.331414 1.000000
0.324042 -0.748610 -0.331414 1.000000
0.442894 0.667092 -0.331414 1.000000
-0.542272 0.474872 -0.331414 1.000000
-0.337527 -0.696546 -0.331414 1.000000
-0.530458 0.702090 -0.331414 1.000000
0.384049 -0.567130 -0.331414 1.000000
0.045255 0.685131 -0.331414 1.000000
0.530620 -0.489709 -0.331414 1.000000
0.398076 0.523123 -0.331414 1.000000
-0.110079 -0.643023 -0.331414 1.000000
-0.585003 0.021931 -0.324560 1.000000
-0.567410 -0.157501 -0.326636 1.000000
0.770754 0.122520 -0.331414 1.000000
-0.866577 -0.087301 -0.331414 1.000000
-0.153642 0.613428 -0.331414 1.000000
-0.692330 -0.495878 -0.331414 1.000000
0.581017 0.704608 -0.331414 1.000000
0.586653 -0.148001 -0.331414 1.000000
-0.290646 0.729351 -0.331414 1.000000
0.686322 0.246654 -0.331414 1.000000
-0.489866 0.754475 -0.331414 1.000000
0.252370 -0.741980 -0.331414 1.000000
0.392735 0.445500 -0.331414 1.000000
-0.267079 -0.706972 -0.331414 1.000000
-0.775036 -0.164719 -0.331414 1.000000
0.631393 0.158485 -0.331414 1.000000
0.317065 0.517590 -0.331414 1.000000
0.849804 -0.320802 -0.331414 1.000000
-0.131564 0.830958 -0.331414 1.000000
-0.829756 -0.060370 -0.331414 1.000000
-0.707487 0.012686 -0.331414 1.000000
-0.659924 0.394488 -0.331414 1.000000
0.481424 -0.691197 -0.331414 1.000000
-0.519201 -0.515471 -0.331414 1.000000
0.216450 0.901143 -0.325478 1.000000
0.609827 0.278294 -0.331414 1.000000
0.303156 0.706963 -0.331414 1.000000
-0.650168 -0.125367 -0.331414 1.000000
0.433716 0.759786 -0.331414 1.000000
0.811864 -0.105319 -0.331414 1.000000
0.526075 -0.417323 -0.331414 1.000000
-0.402960 0.637377 -0.331414 1.000000
-0.283701 -0.658911 -0.331414 1.000000
0.515229 -0.398007 -0.331414 1.000000
-0.642985 0.392277 -0.331414 1.000000
-0.564494 0.708554 -0.331414 1.000000
-0.574940 0.427721 -0.331414 1.000000
-0.432715 0.792283 -0.331414 1.000000
0.701158 -0.410981 -0.331414 1.000000
-0.600954 -0.164312 -0.331414 1.000000
0.712306 0.170943 -0.331414 1.000000
-0.576017 0.466247 -0.331414 1.000000
0.592786 -0.206575 -0.331414 1.000000
0.549567 0.706272 -0.331414 1.000000
-0.901665 0.240181 -0.331414 1.000000
0.367392 -0.788286 -0.331414 1.000000
-0.619774 0.465678 -0.331414 1.000000
-0.754658 0.402404 -0.331414 1.000000
0.668052 -0.350056 -0.331414 1.000000
0.586994 -0.192614 -0.331414 1.000000
-0.081974 -0.906237 -0.331414 1.000000
-0.409998 -0.539115 -0.331414 1.000000
0.258194 0.633633 -0.331414 1.000000
0.180859 -0.745136 -0.331414 1.000000
0.802419 0.001260 -0.331414 1.000000
-0.445320 0.429863 -0.331414 1.000000
0.872071 0.324165 -0.327041 1.000000
0.552774 0.685863 -0.331414 1.000000
-0.674359 -0.269682 -0.331414 1.000000
0.521533 0.356725 -0.331414 1.000000
-0.738761 -0.279206 -0.331414 1.000000
-0.691126 0.459438 -0.331414 1.000000
-0.582946 -0.069868 -0.331402 1.000000
-0.594244 -0.133559 -0.331414 1.000000
0.450701 -0.745953 -0.331414 1.000000
0.126525 -0.602425 -0.331414 1.000000
-0.723421 -0.069725 -0.331414 1.000000
-0.847045 -0.101674 -0.331414 1.000000
0.515666 -0.711799 -0.331414 1.000000
0.331721 0.599843 -0.331414 1.000000
-0.728496 -0.338728 -0.331414 1.000000
-0.004872 -0.764305 -0.331414 1.000000
-0.176122 -0.764407 -0.331414 1.000000
0.031084 -0.614922 -0.331414 1.000000
-0.831954 0.067099 -0.331414 1.000000
0.131662 0.708235 -0.331414 1.000000
-0.845066 0.145423 -0.331414 1.000000
-0.439896 -0.633340 -0.331414 1.000000
-0.629529 -0.183823 -0.331414 1.000000
-0.525357 -0.423824 -0.331414 1.000000
0.522284 -0.725766 -0.331414 1.000000
0.588740 -0.247527 -0.331414 1.000000
-0.571814 -0.311480 -0.331414 1.000000
-0.774947 0.361597 -0.331414 1.000000
0.479581 0.690476 -0.331414 1.000000
-0.052482 -0.801889 -0.331414 1.000000
-0.292246 0.612501 -0.331414 1.000000
-0.254506 0.602546 -0.331414 1.000000
0.575417 -0.633051 -0.331414 1.000000
-0.266267 0.547303 -0.331414 1.000000
0.884530 0.286502 -0.323965 1.000000
0.211141 0.729909 -0.331414 1.000000
-0.006261 0.709993 -0.331414 1.000000
-0.924681 -0.021558 -0.331414 1.000000
-0.548085 -0.530849 -0.331414 1.000000
-0.364422 0.487305 -0.331414 1.000000
-0.864933 0.315009 -0.331414 1.000000
0.638384 0.618298 -0.331414 1.000000
-0.359416 -0.496241 -0.331414 1.000000
-0.616977 0.339374 -0.331414 1.000000
-0.487659 -0.741911 -0.331414 1.000000
0.734915 -0.420097 -0.331414 1.000000
-0.205169 0.797789 -0.331414 1.000000
0.864185 -0.243379 -0.331414 1.000000
0.823750 -0.126125 -0.331414 1.000000
0.582550 0.585089 -0.331414 1.000000
-0.125398 -0.840194 -0.331414 1.000000
-0.750600 -0.329576 -0.331414 1.000000
0.508726 0.652761 -0.331414 1.000000
0.684882 0.243052 -0.331414 1.000000
0.681099 0.095792 -0.331414 1.000000
-0.741060 0.130729 -0.331414 1.000000
0.606966 -0.096620 -0.331414 1.000000
0.231513 -0.835447 -0.331414 1.000000
-0.847464 -0.053080 -0.331414 1.000000
0.498596 -0.693441 -0.331414 1.000000
-0.619732 0.096229 -0.331414 1.000000
-0.689267 0.406689 -0.331414 1.000000
-0.647026 -0.381222 -0.331414 1.000000
-0.103732 -0.587312 -0.331414 1.000000
-0.509807 -0.730494 -0.331414 1.000000
0.056044 0.924225 -0.329668 1.000000
0.682109 -0.125568 -0.331414 1.000000
0.255523 -0.597678 -0.331414 1.000000
0.339451 0.737063 -0.331414 1.000000
-0.735456 -0.252160 -0.331414 1.000000
-0.373434 -0.842181 -0.331414 1.000000
-0.578231 0.544986 -0.331414 1.000000
0.013111 -0.778377 -0.331414 1.000000
-0.768733 0.518114 -0.331414 1.000000
0.256684 0.657653 -0.331414 1.000000
0.590895 -0.063719 -0.331414 1.000000
-0.399580 -0.772960 -0.331414 1.000000
-0.459910 -0.381376 -0.331414 1.000000
-0.817536 0.212509 -0.331414 1.000000
-0.168637 0.868125 -0.331414 1.000000
-0.722855 -0.337877 -0.331414 1.000000
0.220070 -0.705673 -0.331414 1.000000
-0.297964 0.793902 -0.331414 1.000000
0.887680 -0.158171 -0.331414 1.000000
0.778432 -0.338219 -0.331414 1.000000
-0.361083 0.567137 -0.331414 1.000000
0.798169 0.123950 -0.331414 1.000000
-0.418367 -0.762150 -0.331414 1.000000
0.411043 0.830805 -0.324230 1.000000
0.266610 -0.625055 -0.331414 1.000000
-0.090617 0.799639 -0.331414 1.000000
-0.682447 0.442912 -0.331414 1.000000
-0.375662 0.708928 -0.331414 1.000000
-0.377007 -0.603831 -0.331414 1.000000
-0.694693 0.010830 -0.331414 1.000000
0.235609 -0.802791 -0.331414 1.000000
-0.335640 -0.767239 -0.331414 1.000000
0.256045 0.538179 -0.331414 1.000000
0.382021 -0.738597 -0.331414 1.000000
-0.114295 -0.771789 -0.331414 1.000000
-0.124153 0.715454 -0.331414 1.000000
-0.675703 0.362821 -0.331414 1.000000
-0.628436 0.599156 -0.331414 1.000000
-0.239460 -0.859075 -0.331414 1.000000
-0.098363 0.801604 -0.331414 1.000000
0.730773 0.460502 -0.331414 1.000000
0.001942 0.926335 -0.327013 1.000000
-0.639000 0.176553 -0.331414 1.000000
0.265449 0.597060 -0.331414 1.000000
-0.280093 -0.724215 -0.331414 1.000000
-0.595783 0.588484 -0.331414 1.000000
-0.527513 -0.634936 -0.331414 1.000000
-0.443192 0.499666 -0.331414 1.000000
0.752199 0.490078 -0.331414 1.000000
-0.325232 0.522785 -0.331414 1.000000
0.465726 0.659360 -0.331414 1.000000
0.895790 0.252465 -0.329491 1.000000
-0.733420 0.433531 -0.331414 1.000000
0.414723 -0.845251 -0.331414 1.000000
-0.343446 -0.727247 -0.331414 1.000000
0.585029 0.063053 -0.331414 1.000000
-0.736442 0.080702 -0.331414 1.000000
0.867374 -0.081555 -0.331414 1.000000
0.439978 0.757465 -0.331414 1.000000
0.344752 0.643442 -0.331414 1.000000
0.704917 -0.601451 -0.331414 1.000000
-0.250536 0.570525 -0.331414 1.000000
-0.300732 -0.732546 -0.331414 1.000000
-0.684408 0.351834 -0.331414 1.000000
-0.176024 -0.708799 -0.331414 1.000000
0.529363 0.429805 -0.331414 1.000000
-0.734716 -0.551003 -0.331414 1.000000
0.525799 0.445729 -0.331414 1.000000
-0.576061 -0.206133 -0.331414 1.000000
0.908918 0.199631 -0.325292 1.000000
-0.780914 0.258982 -0.331414 1.000000
-0.751557 -0.483956 -0.331414 1.000000
0.623474 0.133207 -0.331414 1.000000
-0.428312 -0.556261 -0.331414 1.000000
0.879592 0.068294 -0.331414 1.000000
0.805208 0.383895 -0.331414 1.000000
-0.221740 -0.851279 -0.331414 1.000000
-0.668048 -0.101352 -0.331414 1.000000
0.677256 0.314712 -0.331414 1.000000
-0.737150 0.384574 -0.331414 1.000000
-0.565277 -0.196524 -0.331414 1.000000
-0.732686 -0.243321 -0.331414 1.000000
-0.566750 -0.215999 -0.331414 1.000000
0.838190 0.008416 -0.331414 1.000000
-0.718285 0.143383 -0.331414 1.000000
0.188158 0.617483 -0.331414 1.000000
-0.477921 -0.660419 -0.331414 1.000000
0.396850 0.610170 -0.331414 1.000000
0.489969 -0.804304 -0.328670 1.000000
-0.151006 -0.849256 -0.331414 1.000000
-0.386731 0.624448 -0.331414 1.000000
0.637776 -0.456666 -0.331414 1.000000
0.057109 0.861612 -0.331414 1.000000
-0.163288 0.747838 -0.331414 1.000000
0.520085 0.580792 -0.331414 1.000000
-0.785820 0.320882 -0.331414 1.000000
0.677275 -0.003497 -0.331414 1.000000
-0.096649 0.784754 -0.331414 1.000000
0.622189 -0.347852 -0.331414 1.000000
-0.570479 -0.587413 -0.331414 1.000000
-0.870596 0.330935 -0.331414 1.000000
-0.730762 -0.475578 -0.331414 1.000000
-0.333337 -0.661765 -0.331414 1.000000
-0.069406 0.919809 -0.331414 1.000000
-0.614694 -0.660024 -0.331414 1.000000
0.413542 0.556732 -0.331414 1.000000
0.795354 0.072861 -0.331414 1.000000
-0.454960 0.481049 -0.331414 1.000000
0.624070 -0.560385 -0.331414 1.000000
-0.648386 0.002920 -0.331414 1.000000
0.410357 -0.675470 -0.331414 1.000000
0.576649 -0.743895 -0.330307 1.000000
0.903499 -0.184811 -0.331414 1.000000
0.580662 0.479203 -0.331414 1.000000
-0.722174 0.222178 -0.331414 1.000000
-0.378757 0.448883 -0.331414 1.000000
-0.358945 -0.579450 -0.331414 1.000000
0.605303 0.405630 -0.331414 1.000000
-0.761724 0.176599 -0.331414 1.000000
-0.719056 -0.119380 -0.331414 1.000000
0.416176 -0.502164 -0.331414 1.000000
-0.668228 -0.181474 -0.331414 1.000000
-0.418827 -0.575695 -0.331414 1.000000
0.621106 0.396798 -0.331414 1.000000
-0.173244 -0.586232 -0.331414 1.000000
0.021022 0.867903 -0.331414 1.000000
-0.065592 -0.853982 -0.331414 1.000000
0.320050 0.716520 -0.331414 1.000000
-0.175134 -0.821169 -0.331414 1.000000
0.747850 0.106098 -0.331414 1.000000
0.718108 0.090776 -0.331414 1.000000
0.488612 0.544035 -0.331414 1.000000
-0.666543 -0.616784 -0.331414 1.000000
-0.682376 0.423078 -0.331414 1.000000
-0.601232 0.629695 -0.331414 1.000000
-0.779719 -0.433179 -0.331414 1.000000
0.014610 0.665240 -0.331414 1.000000
0.795808 0.210977 -0.331414 1.000000
-0.153258 -0.770640 -0.331414 1.000000
-0.600123 0.411054 -0.331414 1.000000
-0.667959 0.082492 -0.331414 1.000000
0.747044 0.043775 -0.331414 1.000000
0.137380 -0.822903 -0.331414 1.000000
-0.654435 -0.549120 -0.331414 1.000000
0.370058 0.695455 -0.331414 1.000000
-0.792963 -0.438433 -0.331414 1.000000
-0.698126 -0.293404 -0.331414 1.000000
0.574580 0.581748 -0.331414 1.000000
-0.393642 0.804587 -0.331414 1.000000
0.536979 0.255552 -0.331414 1.000000
-0.469774 -0.359944 -0.331414 1.000000
0.677948 0.401503 -0.331414 1.000000
0.756463 -0.172823 -0.331414 1.000000
0.576012 0.601551 -0.331414 1.000000
-0.779548 -0.436353 -0.331414 1.000000
-0.026668 0.583813 -0.331414 1.000000
0.520900 -0.541263 -0.331414 1.000000
0.653552 0.277458 -0.331414 1.000000
0.571772 -0.205320 -0.331414 1.000000
0.880176 0.152822 -0.331414 1.000000
0.337546 0.466807 -0.331414 1.000000
0.455374 -0.415109 -0.331414 1.000000
0.582550 0.408656 -0.331414 1.000000
0.186354 -0.596006 -0.331414 1.000000
-0.620097 0.307456 -0.331414 1.000000
-0.571038 0.213713 -0.331414 1.000000
0.452716 -0.752358 -0.331414 1.000000
0.923970 -0.043461 -0.331414 1.000000
0.581037 -0.050623 -0.323307 1.000000
0.032328 -0.624520 -0.331414 1.000000
0.742915 0.252146 -0.331414 1.000000
-0.713556 -0.070771 -0.331414 1.000000
-0.021609 0.773067 -0.331414 1.000000
0.595719 0.287635 -0.331414 1.000000
-0.417367 -0.515137 -0.331414 1.000000
-0.190847 -0.875120 -0.331414 1.000000
-0.770943 0.025304 -0.331414 1.000000
0.601545 -0.528917 -0.331414 1.000000
0.291861 -0.588262 -0.331414 1.000000
-0.782033 -0.043124 -0.331414 1.000000
0.860483 -0.344981 -0.331414 1.000000
-0.477293 0.330402 -0.326932 1.000000
-0.000240 -0.852816 -0.331414 1.000000
-0.797777 -0.010834 -0.331414 1.000000
0.022388 0.879420 -0.331414 1.000000
0.606321 0.292929 -0.331414 1.000000
-0.905868 0.117029 -0.331414 1.000000
-0.052696 -0.868680 -0.331414 1.000000
0.495958 0.311299 -0.331414 1.000000
-0.449342 -0.732293 -0.331414 1.000000
0.742620 -0.370569 -0.331414 1.000000
0.715775 0.236708 -0.331414 1.000000
-0.345579 -0.566902 -0.331414 1.000000
-0.327156 -0.683209 -0.331414 1.000000
-0.221004 -0.721522 -0.331414 1.000000
-0.608470 0.012136 -0.331414 1.000000
-0.554723 -0.372085 -0.331414 1.000000
0.283245 0.763458 -0.331414 1.000000
0.743725 0.138586 -0.331414 1.000000
0.379499 0.785746 -0.331414 1.000000
-0.658515 -0.092804 -0.331414 1.000000
0.621975 -0.604089 -0.331414 1.000000
0.691318 0.361708 -0.331414 1.000000
-0.179664 -0.694359 -0.331414 1.000000
0.173022 0.702527 -0.331414 1.000000
0.654038 0.104789 -0.331414 1.000000
-0.746919 0.311320 -0.331414 1.000000
0.722491 0.288331 -0.331414 1.000000
-0.841537 -0.117364 -0.331414 1.000000
-0.021951 0.739236 -0.331414 1.000000
-0.706961 0.409067 -0.331414 1.000000
0.757233 -0.218021 -0.331414 1.000000
-0.824686 -0.344295 -0.331414 1.000000
-0.799856 0.201410 -0.331414 1.000000
0.743164 0.420016 -0.331414 1.000000
-0.843065 -0.234683 -0.331414 1.000000
-0.231094 0.624390 -0.331414 1.000000
0.295819 0.722787 -0.331414 1.000000
-0.314968 -0.540210 -0.331414 1.000000
-0.614302 0.178079 -0.331414 1.000000
0.147054 -0.602236 -0.331414 1.000000
0.013130 0.804462 -0.331414 1.000000
0.821874 0.427472 -0.331414 1.000000
-0.553056 0.354647 -0.331414 1.000000
-0.713336 -0.099574 -0.331414 1.000000
0.652184 0.131014 -0.331414 1.000000
0.619621 0.367967 -0.331414 1.000000
-0.829983 0.244454 -0.331414 1.000000
-0.570288 -0.395642 -0.331414 1.000000
-0.046955 -0.674446 -0.331414 1.000000
0.030759 0.800161 -0.331414 1.000000
0.396799 0.798935 -0.331414 1.000000
-0.566235 0.157296 -0.331414 1.000000
0.859616 -0.219603 -0.331414 1.000000
-0.731838 0.289572 -0.331414 1.000000
-0.897396 -0.262854 -0.331414 1.000000
-0.055260 -0.643893 -0.331414 1.000000
0.347185 -0.741727 -0.331414 1.000000
0.601655 -0.604500 -0.331414 1.000000
-0.618632 -0.207806 -0.331414 1.000000
0.108329 0.742666 -0.331414 1.000000
0.666425 -0.435522 -0.331414 1.000000
0.149782 -0.730591 -0.331414 1.000000
-0.443395 -0.390757 -0.325938 1.000000
-0.104945 0.864824 -0.331414 1.000000
-0.178653 0.759507 -0.331414 1.000000
-0.179203 -0.796183 -0.331414 1.000000
-0.669400 -0.476256 -0.331414 1.000000
0.424659 -0.721405 -0.331414 1.000000
0.013519 -0.778748 -0.331414 1.000000
0.782631 0.076369 -0.331414 1.000000
-0.228915 0.824231 -0.331414 1.000000
0.084700 0.726450 -0.331414 1.000000
0.932349 -0.015987 -0.329135 1.000000
-0.707075 -0.126716 -0.331414 1.000000
0.104323 -0.909312 -0.331414 1.000000
0.511317 0.524602 -0.331414 1.000000
0.576459 0.172529 -0.331414 1.000000
-0.598441 -0.422009 -0.331414 1.000000
0.556112 0.665876 -0.331414 1.000000
0.676419 -0.081862 -0.331414 1.000000
0.831842 -0.176305 -0.331414 1.000000
0.659758 -0.388520 -0.331414 1.000000
-0.257258 -0.795858 -0.331414 1.000000
-0.362027 0.742234 -0.331414 1.000000
0.430139 -0.529628 -0.331414 1.000000
0.789574 -0.478327 -0.331414 1.000000
0.693529 0.087353 -0.331414 1.000000
-0.169550 -0.926415 -0.331414 1.000000
0.437689 -0.826912 -0.331414 1.000000
0.534209 -0.706664 -0.331414 1.000000
0.523332 0.505204 -0.331414 1.000000
0.885105 -0.191512 -0.331414 1.000000
-0.791200 -0.013527 -0.331414 1.000000
-0.351958 -0.835500 -0.331414 1.000000
-0.578306 -0.629692 -0.331414 1.000000
-0.564534 -0.390279 -0.331414 1.000000
-0.564541 0.220377 -0.331414 1.000000
0.368424 -0.522108 -0.331414 1.000000
-0.898798 -0.272572 -0.330434 1.000000
0.847527 0.266673 -0.331414 1.000000
-0.692798 -0.009312 -0.331414 1.000000
0.568239 0.646254 -0.331414 1.000000
0.487703 -0.421820 -0.331414 1.000000
-0.772442 0.359692 -0.331414 1.000000
0.566580 0.649693 -0.331414 1.000000
0.565495 -0.751886 -0.326705 1.000000
-0.576602 0.702044 -0.331414 1.000000
0.218540 -0.737688 -0.331414 1.000000
-0.216948 0.660822 -0.331414 1.000000
0.783776 0.483863 -0.331414 1.000000
0.050615 -0.842066 -0.331414 1.000000
-0.493927 -0.416895 -0.331414 1.000000
0.100643 -0.597654 -0.331414 1.000000
0.914160 0.175395 -0.328603 1.000000
-0.687257 0.081280 -0.331414 1.000000
-0.608564 -0.211217 -0.331414 1.000000
-0.373140 0.524508 -0.331414 1.000000
0.617228 -0.384028 -0.331414 1.000000
0.776095 -0.438549 -0.331414 1.000000
-0.144907 -0.584738 -0.331414 1.000000
-0.473893 0.335355 -0.327676 1.000000
-0.646540 -0.312925 -0.331414 1.000000
0.765938 -0.004047 -0.331414 1.000000
-0.758044 -0.061341 -0.331414 1.000000
-0.687977 0.578839 -0.331414 1.000000
0.760895 -0.134952 -0.331414 1.000000
0.260126 -0.701012 -0.331414 1.000000
0.008414 -0.675152 -0.331414 1.000000
-0.459414 0.620209 -0.331414 1.000000
0.514749 -0.476140 -0.331414 1.000000
0.730315 -0.571247 -0.331414 1.000000
0.708187 -0.266993 -0.331414 1.000000
-0.866269 -0.180602 -0.331414 1.000000
0.044155 -0.877514 -0.331414 1.000000
0.411504 -0.839925 -0.331414 1.000000
-0.657716 0.255768 -0.331414 1.000000
0.506697 0.679482 -0.331414 1.000000
0.631341 0.551783 -0.331414 1.000000
-0.714924 0.286660 -0.331414 1.000000
0.502485 -0.692897 -0.331414 1.000000
0.384512 0.498119 -0.331414 1.000000
-0.732564 0.007715 -0.331414 1.000000
0.828055 -0.359761 -0.331414 1.000000
0.298693 0.700797 -0.331414 1.000000
-0.352098 -0.478202 -0.331414 1.000000
-0.177739 -0.615306 -0.331414 1.000000
-0.187040 0.563155 -0.331414 1.000000
0.440417 -0.470967 -0.331414 1.000000
-0.180211 -0.745392 -0.331414 1.000000
0.398568 -0.620851 -0.331414 1.000000
-0.866557 -0.066498 -0.331414 1.000000
0.072998 0.922868 -0.324437 1.000000
0.347981 -0.699938 -0.331414 1.000000
0.826673 0.299985 -0.331414 1.000000
-0.851725 0.114595 -0.331414 1.000000
-0.463799 0.350060 -0.323503 1.000000
-0.890534 -0.113659 -0.331414 1.000000
-0.667134 -0.217445 -0.331414 1.000000
0.357578 -0.545726 -0.331414 1.000000
-0.259745 -0.734730 -0.331414 1.000000
-0.830118 0.076914 -0.331414 1.000000
-0.719449 0.021144 -0.331414 1.000000
0.455244 -0.530983 -0.331414 1.000000
0.620725 -0.320220 -0.331414 1.000000
0.894490 0.006920 -0.331414 1.000000
-0.150775 -0.823119 -0.331414 1.000000
0.286710 -0.627211 -0.331414 1.000000
0.368406 0.553735 -0.331414 1.000000
-0.541696 0.741139 -0.331414 1.000000
0.845692 0.055170 -0.331414 1.000000
-0.049044 0.881867 -0.331414 1.000000
0.570421 -0.632409 -0.331414 1.000000
-0.928015 -0.129080 -0.331414 1.000000
-0.682599 -0.286462 -0.331414 1.000000
0.749833 0.456491 -0.331414 1.000000
-0.733165 -0.072861 -0.331414 1.000000
-0.760554 0.102706 -0.331414 1.000000
-0.825766 0.140388 -0.331414 1.000000
-0.359155 0.804433 -0.331414 1.000000
0.519065 0.382736 -0.331414 1.000000
0.131890 0.844161 -0.331414 1.000000
0.410687 -0.503828 -0.331414 1.000000
0.563767 0.634180 -0.331414 1.000000
-0.774544 -0.048559 -0.331414 1.000000
-0.582033 0.724227 -0.329990 1.000000
-0.609619 0.106677 -0.331414 1.000000
0.549276 0.468694 -0.331414 1.000000
-0.465344 0.667370 -0.331414 1.000000
0.649013 -0.220874 -0.331414 1.000000
0.330916 0.851180 -0.331414 1.000000
0.593532 -0.062476 -0.331414 1.000000
-0.562660 -0.343871 -0.331414 1.000000
0.641610 -0.509966 -0.331414 1.000000
-0.462648 -0.706885 -0.331414 1.000000
-0.440930 -0.796523 -0.331414 1.000000
-0.754012 -0.228869 -0.331414 1.000000
-0.546948 -0.430235 -0.331414 1.000000
-0.126674 -0.782512 -0.331414 1.000000
0.821654 0.233002 -0.331414 1.000000
0.054575 0.877617 -0.331414 1.000000
0.021264 -0.592786 -0.328358 1.000000
-0.043068 0.869868 -0.331414 1.000000
0.659147 0.546158 -0.331414 1.000000
0.099583 0.858873 -0.331414 1.000000
0.131136 0.710411 -0.331414 1.000000
0.602289 0.016777 -0.331414 1.000000
0.360522 0.481888 -0.331414 1.000000
-0.527271 0.249672 -0.331414 1.000000
-0.770979 0.001719 -0.331414 1.000000
-0.926609 0.047437 -0.331414 1.000000
-0.526600 -0.392782 -0.331414 1.000000
-0.479906 -0.489530 -0.331414 1.000000
-0.131568 -0.886272 -0.331414 1.000000
-0.583533 -0.128972 -0.331414 1.000000
0.364917 0.850793 -0.330381 1.000000
0.608707 0.632576 -0.331414 1.000000
-0.713188 0.473450 -0.331414 1.000000
0.339882 0.609348 -0.331414 1.000000
-0.705746 -0.224195 -0.331414 1.000000
-0.369291 -0.807933 -0.331414 1.000000
0.669997 0.572100 -0.331414 1.000000
-0.690414 -0.565611 -0.331414 1.000000
0.406259 -0.448183 -0.331414 1.000000
0.060568 0.653532 -0.331414 1.000000
0.539058 0.577039 -0.331414 1.000000
-0.419560 -0.516375 -0.331414 1.000000
0.261294 -0.886050 -0.331414 1.000000
-0.541455 -0.548752 -0.331414 1.000000
-0.051875 -0.876749 -0.331414 1.000000
0.633928 0.094110 -0.331414 1.000000
-0.501482 0.656937 -0.331414 1.000000
0.358635 0.759921 -0.331414 1.000000
-0.626565 0.627013 -0.331414 1.000000
0.524764 0.508033 -0.331414 1.000000
0.125260 0.815740 -0.331414 1.000000
0.147154 -0.854991 -0.331414 1.000000
-0.579351 0.375028 -0.331414 1.000000
-0.607292 0.306699 -0.331414 1.000000
0.410749 -0.819219 -0.331414 1.000000
0.312736 0.534762 -0.331414 1.000000
-0.517393 0.310110 -0.331414 1.000000
-0.805573 0.276149 -0.331414 1.000000
-0.622209 -0.090618 -0.331414 1.000000
0.844655 -0.335200 -0.331414 1.000000
-0.743855 0.048010 -0.331414 1.000000
-0.335283 -0.658530 -0.331414 1.000000
-0.480963 0.789042 -0.331414 1.000000
0.402147 -0.624822 -0.331414 1.000000
0.365727 -0.803463 -0.331414 1.000000
-0.200234 -0.780637 -0.331414 1.000000
0.723028 0.104104 -0.331414 1.000000
-0.637042 -0.580676 -0.331414 1.000000
-0.232977 0.527639 -0.326428 1.000000
0.287710 -0.723418 -0.331414 1.000000
-0.230954 0.728107 -0.331414 1.000000
-0.731492 0.359640 -0.331414 1.000000
0.870501 -0.198111 -0.331414 1.000000
-0.365992 0.616094 -0.331414 1.000000
-0.770734 0.339139 -0.331414 1.000000
0.908608 -0.147184 -0.331414 1.000000
-0.899805 -0.028150 -0.331414 1.000000
-0.925500 -0.057673 -0.331414 1.000000
0.551112 0.425313 -0.331414 1.000000
0.733988 -0.037515 -0.331414 1.000000
0.796710 0.142710 -0.331414 1.000000
-0.230471 0.698995 -0.331414 1.000000
-0.034474 0.925365 -0.322591 1.000000
0.647128 0.405836 -0.331414 1.000000
-0.397169 -0.629644 -0.331414 1.000000
-0.449566 -0.535997 -0.331414 1.000000
0.551250 0.575470 -0.331414 1.000000
-0.250683 0.826412 -0.331414 1.000000
0.408634 -0.423190 -0.328838 1.000000
-0.333500 -0.497056 -0.331414 1.000000
-0.180839 -0.606273 -0.331414 1.000000
-0.708090 -0.026348 -0.331414 1.000000
0.574024 0.442259 -0.331414 1.000000
0.487764 0.401238 -0.331414 1.000000
0.298934 -0.601319 -0.331414 1.000000
-0.011884 0.682808 -0.331414 1.000000
-0.155078 -0.700582 -0.331414 1.000000
-0.879901 0.265202 -0.331414 1.000000
0.762027 -0.507270 -0.331414 1.000000
0.700344 0.388236 -0.331414 1.000000
-0.503185 -0.708642 -0.331414 1.000000
0.700197 -0.504741 -0.331414 1.000000
0.392849 0.633757 -0.331414 1.000000
0.840387 -0.101609 -0.331414 1.000000
0.319112 -0.591764 -0.331414 1.000000
-0.861990 -0.216008 -0.331414 1.000000
0.589281 0.642047 -0.331414 1.000000
0.730616 -0.314525 -0.331414 1.000000
0.069440 0.736191 -0.331414 1.000000
-0.550441 -0.387354 -0.331414 1.000000
0.852503 0.217781 -0.331414 1.000000
0.733423 -0.191695 -0.331414 1.000000
0.266557 0.509608 -0.330363 1.000000
0.747264 0.507303 -0.331414 1.000000
0.637180 0.399276 -0.331414 1.000000
0.079300 -0.608065 -0.331414 1.000000
0.877750 -0.227320 -0.331414 1.000000
0.547165 0.370868 -0.331414 1.000000
-0.491855 -0.669325 -0.331414 1.000000
-0.087714 -0.631796 -0.331414 1.000000
-0.631714 0.078189 -0.331414 1.000000
0.290563 -0.514608 -0.331414 1.000000
0.157191 0.861734 -0.331414 1.000000
-0.558019 0.680948 -0.331414 1.000000
0.333824 -0.656806 -0.331414 1.000000
0.698613 0.609983 -0.327320 1.000000
-0.574940 0.595083 -0.331414 1.000000
0.078344 -0.823616 -0.331414 1.000000
0.577730 -0.452140 -0.331414 1.000000
-0.828041 0.341132 -0.331414 1.000000
0.013879 0.596249 -0.331414 1.000000
0.083321 -0.600627 -0.331414 1.000000
-0.321127 0.697790 -0.331414 1.000000
0.717797 -0.578462 -0.331414 1.000000
0.669071 -0.431651 -0.331414 1.000000
-0.812802 0.086150 -0.331414 1.000000
0.685202 0.512738 -0.331414 1.000000
0.648477 0.663827 -0.328252 1.000000
-0.202875 -0.821842 -0.331414 1.000000
0.813404 -0.291308 -0.331414 1.000000
-0.676808 0.446313 -0.331414 1.000000
-0.789294 -0.133301 -0.331414 1.000000
-0.527967 0.273934 -0.331414 1.000000
-0.595870 0.489125 -0.331414 1.000000
0.090030 0.779248 -0.331414 1.000000
0.538589 0.561193 -0.331414 1.000000
0.210701 0.747290 -0.331414 1.000000
-0.404053 -0.679573 -0.331414 1.000000
0.682926 -0.295495 -0.331414 1.000000
-0.049503 0.663451 -0.331414 1.000000
-0.568686 0.526688 -0.331414 1.000000
0.222443 0.838922 -0.331414 1.000000
0.571471 0.116292 -0.331414 1.000000
0.379992 -0.793426 -0.331414 1.000000
0.546104 -0.531478 -0.331414 1.000000
0.428185 0.708554 -0.331414 1.000000
0.465079 0.715990 -0.331414 1.000000
0.819529 -0.454923 -0.330081 1.000000
-0.645456 -0.088578 -0.331414 1.000000
0.856010 -0.128319 -0.331414 1.000000
-0.450851 0.578215 -0.331414 1.000000
-0.430909 0.606328 -0.331414 1.000000
0.452352 0.357493 -0.326369 1.000000
-0.584261 -0.370396 -0.331414 1.000000
-0.614127 -0.513076 -0.331414 1.000000
0.583955 0.673748 -0.331414 1.000000
-0.382004 -0.761898 -0.331414 1.000000
-0.673538 0.409271 -0.331414 1.000000
0.140982 0.648242 -0.331414 1.000000
0.686778 -0.382280 -0.331414 1.000000
-0.139290 0.855191 -0.331414 1.000000
0.616001 0.430965 -0.331414 1.000000
-0.126854 -0.892478 -0.331414 1.000000
-0.395185 0.446210 -0.331414 1.000000
0.593685 -0.503548 -0.331414 1.000000
0.693212 0.250719 -0.331414 1.000000
0.710660 0.299737 -0.331414 1.000000
-0.713516 0.206972 -0.331414 1.000000
0.106487 0.763512 -0.331414 1.000000
-0.711886 -0.022683 -0.331414 1.000000
-0.144065 0.915232 -0.322009 1.000000
0.416559 0.673409 -0.331414 1.000000
-0.159936 -0.666619 -0.331414 1.000000
0.039386 -0.758241 -0.331414 1.000000
-0.854614 0.017882 -0.331414 1.000000
-0.555053 -0.337665 -0.331414 1.000000
-0.561958 -0.553018 -0.331414 1.000000
0.539439 0.214076 -0.331414 1.000000
-0.729105 0.298771 -0.331414 1.000000
0.621529 -0.158938 -0.331414 1.000000
0.074638 0.922737 -0.322730 1.000000
-0.727788 -0.311048 -0.331414 1.000000
-0.120252 0.727028 -0.331414 1.000000
-0.459122 -0.580938 -0.331414 1.000000
0.770573 0.455565 -0.331414 1.000000
-0.342336 0.517083 -0.331414 1.000000
0.806260 -0.333113 -0.331414 1.000000
-0.756041 -0.360450 -0.331414 1.000000
0.178957 -0.581113 -0.331414 1.000000
0.477192 0.752505 -0.331414 1.000000
0.912805 0.091598 -0.331414 1.000000
-0.098123 -0.619917 -0.331414 1.000000
-0.258631 0.832164 -0.331414 1.000000
-0.783147 0.188279 -0.331414 1.000000
-0.847864 -0.034675 -0.331414 1.000000
-0.231237 -0.798678 -0.331414 1.000000
0.363879 0.465714 -0.331414 1.000000
-0.768767 0.368186 -0.331414 1.000000
0.596708 0.101816 -0.331414 1.000000
0.330297 0.842865 -0.331414 1.000000
-0.518583 0.690239 -0.331414 1.000000
0.373265 0.453004 -0.331414 1.000000
0.751774 -0.460758 -0.331414 1.000000
-0.311361 -0.562181 -0.331414 1.000000
-0.812707 0.458232 -0.325392 1.000000
-0.387268 0.649479 -0.331414 1.000000
-0.839846 0.176460 -0.331414 1.000000
-0.599919 0.437969 -0.331414 1.000000
0.562489 0.298261 -0.331414 1.000000
0.286838 -0.623083 -0.331414 1.000000
0.088927 -0.936713 -0.331414 1.000000
0.541393 0.245433 -0.331414 1.000000
0.159555 0.737112 -0.331414 1.000000
0.527267 0.237750 -0.322587 1.000000
-0.254868 -0.745818 -0.331414 1.000000
-0.015922 -0.890403 -0.331414 1.000000
-0.647389 -0.142067 -0.331414 1.000000
0.786423 -0.358772 -0.331414 1.000000
-0.554967 -0.199117 -0.331414 1.000000
-0.710898 0.243739 -0.331414 1.000000
0.003506 0.646870 -0.331414 1.000000
0.583346 0.685009 -0.331414 1.000000
0.578452 0.317438 -0.331414 1.000000
0.846200 -0.072091 -0.331414 1.000000
0.594978 -0.263252 -0.331414 1.000000
-0.094831 0.730319 -0.331414 1.000000
0.057799 -0.607037 -0.331414 1.000000
-0.866139 0.042598 -0.331414 1.000000
-0.168915 -0.700111 -0.331414 1.000000
-0.417371 -0.600763 -0.331414 1.000000
-0.067385 0.796619 -0.331414 1.000000
0.782816 0.167654 -0.331414 1.000000
-0.161017 0.775977 -0.331414 1.000000
-0.508368 0.442104 -0.331414 1.000000
0.755276 0.107217 -0.331414 1.000000
0.925798 0.007416 -0.331414 1.000000
0.854310 0.175729 -0.331414 1.000000
0.677899 -0.077584 -0.331414 1.000000
0.115519 0.737580 -0.331414 1.000000
0.654370 -0.567073 -0.331414 1.000000
0.639051 0.107015 -0.331414 1.000000
-0.448262 -0.687158 -0.331414 1.000000
0.456853 0.489598 -0.331414 1.000000
-0.574570 -0.448132 -0.331414 1.000000
0.706324 -0.422523 -0.331414 1.000000
0.864877 -0.106464 -0.331414 1.000000
0.832790 -0.109479 -0.331414 1.000000
0.562771 0.305578 -0.331414 1.000000
0.594298 -0.198679 -0.331414 1.000000
0.140790 -0.900650 -0.331414 1.000000
0.104297 0.839216 -0.331414 1.000000
0.728468 0.335351 -0.331414 1.000000
-0.782917 0.237638 -0.331414 1.000000
0.769793 0.086581 -0.331414 1.000000
-0.741900 0.019591 -0.331414 1.000000
0.694855 -0.600750 -0.331414 1.000000
-0.836493 0.144578 -0.331414 1.000000
-0.684522 0.612489 -0.331414 1.000000
0.315383 0.515478 -0.331414 1.000000
0.458153 -0.733046 -0.331414 1.000000
0.128644 -0.634366 -0.331414 1.000000
0.560675 -0.478000 -0.331414 1.000000
0.874099 -0.030768 -0.331414 1.000000
-0.027440 0.609612 -0.331414 1.000000
-0.539414 0.516947 -0.331414 1.000000
0.813067 0.178778 -0.331414 1.000000
0.523901 -0.681829 -0.331414 1.000000
0.269414 0.727029 -0.331414 1.000000
0.688711 -0.391059 -0.331414 1.000000
-0.248566 0.762906 -0.331414 1.000000
-0.759790 -0.230142 -0.331414 1.000000
-0.800131 -0.056603 -0.331414 1.000000
-0.625393 -0.362071 -0.331414 1.000000
-0.113016 -0.617935 -0.331414 1.000000
-0.884361 0.038184 -0.331414 1.000000
0.456069 0.729616 -0.331414 1.000000
-0.869643 -0.327376 -0.331414 1.000000
-0.405569 0.764524 -0.331414 1.000000
-0.395000 -0.831935 -0.331414 1.000000
-0.367447 -0.834347 -0.331414 1.000000
0.027285 -0.598978 -0.331414 1.000000
0.705544 -0.462500 -0.331414 1.000000
-0.168118 -0.850805 -0.331414 1.000000
0.656053 -0.612394 -0.331414 1.000000
0.069188 -0.767896 -0.331414 1.000000
0.572699 -0.396706 -0.331414 1.000000
0.479344 0.423174 -0.331414 1.000000
-0.209676 -0.728041 -0.331414 1.000000
-0.806382 0.212245 -0.331414 1.000000
0.411376 -0.714422 -0.331414 1.000000
-0.283096 -0.600115 -0.331414 1.000000
-0.597977 -0.247363 -0.331414 1.000000
-0.617671 -0.217398 -0.331414 1.000000
0.493830 -0.598974 -0.331414 1.000000
0.243447 -0.565056 -0.331414 1.000000
0.875415 -0.331275 -0.328369 1.000000
0.651330 0.316169 -0.331414 1.000000
0.133463 -0.916962 -0.331414 1.000000
-0.790438 -0.340648 -0.331414 1.000000
-0.321701 0.759079 -0.331414 1.000000
0.127812 -0.861673 -0.331414 1.000000
-0.729786 -0.482255 -0.331414 1.000000
-0.780248 0.120325 -0.331414 1.000000
-0.637113 -0.498706 -0.331414 1.000000
-0.449291 0.665491 -0.331414 1.000000
0.541708 -0.717529 -0.331414 1.000000
-0.791689 0.273893 -0.331414 1.000000
0.551918 -0.368112 -0.331414 1.000000
-0.567116 -0.359404 -0.331414 1.000000
-0.349417 0.462004 -0.329283 1.000000
0.089211 0.806532 -0.331414 1.000000
-0.162962 0.694468 -0.331414 1.000000
0.662940 -0.453872 -0.331414 1.000000
0.431546 0.786777 -0.331414 1.000000
0.267475 -0.694236 -0.331414 1.000000
0.098289 0.861101 -0.331414 1.000000
-0.624698 0.438773 -0.331414 1.000000
0.569084 -0.158319 -0.331414 1.000000
-0.387499 0.429808 -0.326717 1.000000
-0.350956 0.859017 -0.326526 1.000000
0.523523 -0.293160 -0.331414 1.000000
-0.702800 -0.580325 -0.331414 1.000000
0.292123 0.661784 -0.331414 1.000000
0.734344 0.402618 -0.331414 1.000000
-0.788433 -0.340965 -0.331414 1.000000
0.528893 0.397527 -0.331414 1.000000
0.521048 -0.743672 -0.331414 1.000000
-0.274828 -0.578545 -0.331414 1.000000
-0.455895 -0.734180 -0.331414 1.000000
-0.871809 0.173062 -0.331414 1.000000
0.189978 -0.794489 -0.331414 1.000000
0.430632 0.581858 -0.331414 1.000000
0.911061 0.119470 -0.331414 1.000000
0.602764 0.284012 -0.331414 1.000000
0.696858 0.214788 -0.331414 1.000000
-0.433435 -0.761971 -0.331414 1.000000
0.686272 -0.567087 -0.331414 1.000000
0.672178 0.394541 -0.331414 1.000000
0.815409 -0.349826 -0.331414 1.000000
0.798591 0.383403 -0.331414 1.000000
0.651570 0.461949 -0.331414 1.000000
0.238345 -0.675658 -0.331414 1.000000
0.050866 0.579261 -0.331414 1.000000
-0.360471 -0.845594 -0.331414 1.000000
0.683477 -0.359090 -0.331414 1.000000
0.602237 -0.524180 -0.331414 1.000000
-0.610770 0.592817 -0.331414 1.000000
-0.276776 0.667514 -0.331414 1.000000
0.608220 0.650640 -0.331414 1.000000
0.725091 0.201187 -0.331414 1.000000
-0.770211 -0.315580 -0.331414 1.000000
-0.026232 0.900390 -0.331414 1.000000
-0.809235 0.295668 -0.331414 1.000000
-0.289732 -0.569561 -0.331414 1.000000
-0.449790 -0.465143 -0.331414 1.000000
-0.485154 -0.353688 -0.331414 1.000000
0.897989 -0.208959 -0.331414 1.000000
0.750645 -0.061983 -0.331414 1.000000
-0.025409 -0.785848 -0.331414 1.000000
-0.103629 0.898192 -0.331414 1.000000
0.675739 -0.593398 -0.331414 1.000000
0.171808 -0.708932 -0.331414 1.000000
0.330495 -0.769904 -0.331414 1.000000
0.031533 -0.628463 -0.331414 1.000000
0.098992 0.908788 -0.331414 1.000000
-0.471751 0.664528 -0.331414 1.000000
0.635106 0.294299 -0.331414 1.000000
-0.592461 -0.695912 -0.331414 1.000000
-0.517187 0.343216 -0.331414 1.000000
-0.666083 -0.589116 -0.331414 1.000000
-0.187189 0.649028 -0.331414 1.000000
-0.561000 0.231141 -0.331414 1.000000
-0.724646 -0.032103 -0.331414 1.000000
-0.779769 -0.026266 -0.331414 1.000000
-0.777234 -0.140010 -0.331414 1.000000
-0.410201 0.659350 -0.331414 1.000000
-0.284709 0.669377 -0.331414 1.000000
0.139577 -0.596616 -0.331414 1.000000
0.639889 0.320175 -0.331414 1.000000
-0.590619 -0.538523 -0.331414 1.000000
0.153603 -0.783113 -0.331414 1.000000
-0.213642 -0.836887 -0.331414 1.000000
0.709806 -0.381486 -0.331414 1.000000
-0.248938 0.578424 -0.331414 1.000000
0.240093 -0.592341 -0.331414 1.000000
0.222052 -0.680558 -0.331414 1.000000
-0.585707 0.064930 -0.331414 1.000000
-0.063283 0.757947 -0.331414 1.000000
0.490292 -0.480295 -0.331414 1.000000
-0.101843 0.860759 -0.331414 1.000000
0.261440 -0.610994 -0.331414 1.000000
-0.305434 0.766030 -0.331414 1.000000
0.281649 -0.842156 -0.331414 1.000000
0.762445 0.178585 -0.331414 1.000000
-0.415332 0.780481 -0.331414 1.000000
0.091331 -0.741123 -0.331414 1.000000
-0.635691 -0.691854 -0.331414 1.000000
0.153741 0.601848 -0.331414 1.000000
0.572614 0.573419 -0.331414 1.000000
-0.707673 0.205412 -0.331414 1.000000
-0.215016 -0.918592 -0.326898 1.000000
-0.139503 -0.903031 -0.331414 1.000000
0.716317 0.500249 -0.331414 1.000000
0.360725 0.710185 -0.331414 1.000000
-0.111887 0.564713 -0.325363 1.000000
-0.761811 0.080287 -0.331414 1.000000
-0.594541 0.497371 -0.331414 1.000000
0.151670 -0.756639 -0.331414 1.000000
-0.810218 -0.413007 -0.331414 1.000000
0.385891 -0.512092 -0.331414 1.000000
-0.600303 0.122829 -0.331414 1.000000
-0.551359 0.377099 -0.331414 1.000000
-0.791074 0.471836 -0.331414 1.000000
-0.088806 0.867608 -0.331414 1.000000
0.278060 0.533759 -0.331414 1.000000
0.300270 -0.800522 -0.331414 1.000000
-0.007895 0.637127 -0.331414 1.000000
-0.630531 0.244439 -0.331414 1.000000
0.611454 0.683987 -0.331414 1.000000
-0.824992 -0.229594 -0.331414 1.000000
-0.672034 0.616549 -0.331414 1.000000
-0.338647 0.744566 -0.331414 1.000000
-0.108019 -0.662376 -0.331414 1.000000
-0.698472 -0.430005 -0.331414 1.000000
-0.885696 -0.054258 -0.331414 1.000000
0.542677 0.240573 -0.331414 1.000000
0.385038 0.428792 -0.329267 1.000000
-0.301128 0.560723 -0.331414 1.000000
0.672290 0.337473 -0.331414 1.000000
-0.308970 -0.591497 -0.331414 1.000000
-0.467563 -0.638666 -0.331414 1.000000
-0.091881 -0.612638 -0.331414 1.000000
-0.829882 0.296859 -0.331414 1.000000
-0.656538 -0.585519 -0.331414 1.000000
0.897348 -0.216983 -0.331414 1.000000
0.034022 -0.717631 -0.331414 1.000000
0.737920 0.193858 -0.331414 1.000000
0.164391 0.586764 -0.331414 1.000000
-0.565878 0.526083 -0.331414 1.000000
0.912581 -0.003429 -0.331414 1.000000
-0.320250 0.793168 -0.331414 1.000000
0.503247 -0.415119 -0.331414 1.000000
0.785677 0.113251 -0.331414 1.000000
-0.029919 0.792392 -0.331414 1.000000
-0.488991 -0.474936 -0.331414 1.000000
0.574983 0.120769 -0.331414 1.000000
0.234322 -0.869301 -0.331414 1.000000
0.337797 -0.570804 -0.331414 1.000000
0.654942 0.420111 -0.331414 1.000000
-0.588503 0.473189 -0.331414 1.000000
0.854287 -0.315434 -0.331414 1.000000
0.458996 0.804243 -0.325423 1.000000
-0.615094 -0.121036 -0.331414 1.000000
0.501407 0.392906 -0.331414 1.000000
0.836452 -0.131589 -0.331414 1.000000
0.735885 0.163631 -0.331414 1.000000
0.332885 -0.586783 -0.331414 1.000000
-0.632119 0.051993 -0.331414 1.000000
-0.157904 0.717094 -0.331414 1.000000
0.568346 -0.681323 -0.331414 1.000000
0.420455 -0.730402 -0.331414 1.000000
0.919353 0.074090 -0.331414 1.000000
0.722438 0.125937 -0.331414 1.000000
-0.751533 0.262062 -0.331414 1.000000
-0.499467 -0.578103 -0.331414 1.000000
0.094562 -0.714517 -0.331414 1.000000
0.616598 0.310274 -0.331414 1.000000
-0.483174 -0.709666 -0.331414 1.000000
0.634306 -0.173465 -0.331414 1.000000
0.102954 0.762244 -0.331414 1.000000
0.555401 -0.380675 -0.331414 1.000000
-0.366739 0.797955 -0.331414 1.000000
0.769561 0.048748 -0.331414 1.000000
-0.134899 0.615659 -0.331414 1.000000
0.798073 -0.390581 -0.331414 1.000000
-0.199317 -0.715056 -0.331414 1.000000
-0.126092 0.917639 -0.328811 1.000000
-0.246773 0.548436 -0.331414 1.000000
0.918706 -0.047465 -0.331414 1.000000
-0.455371 0.521373 -0.331414 1.000000
-0.457082 0.722290 -0.331414 1.000000
-0.281502 0.571138 -0.331414 1.000000
-0.029454 -0.786648 -0.331414 1.000000
-0.727030 -0.432801 -0.331414 1.000000
-0.056729 -0.611518 -0.331414 1.000000
-0.717981 -0.471902 -0.331414 1.000000
-0.168793 -0.749585 -0.331414 1.000000
-0.564393 -0.339717 -0.331414 1.000000
0.117339 -0.800267 -0.331414 1.000000
0.573842 0.342501 -0.331414 1.000000
-0.672770 -0.175772 -0.331414 1.000000
-0.732985 0.161745 -0.331414 1.000000
-0.126684 -0.856966 -0.331414 1.000000
0.889460 -0.094467 -0.331414 1.000000
-0.484928 0.721474 -0.331414 1.000000
-0.808113 -0.191389 -0.331414 1.000000
0.469471 -0.438027 -0.331414 1.000000
-0.693847 -0.593638 -0.331414 1.000000
0.725089 -0.153872 -0.331414 1.000000
-0.546329 -0.220550 -0.326462 1.000000
0.654964 0.456733 -0.331414 1.000000
0.499729 -0.386942 -0.331414 1.000000
-0.632343 0.376825 -0.331414 1.000000
0.390286 -0.561800 -0.331414 1.000000
-0.562445 -0.311621 -0.331414 1.000000
-0.703095 0.610112 -0.330003 1.000000
0.375688 -0.726580 -0.331414 1.000000
0.607713 0.658410 -0.331414 1.000000
-0.804844 -0.034570 -0.331414 1.000000
0.048376 -0.831445 -0.331414 1.000000
0.637260 0.207041 -0.331414 1.000000
0.231959 0.545746 -0.331414 1.000000
0.334170 0.468476 -0.329224 1.000000
0.394382 -0.850282 -0.331414 1.000000
0.627715 0.378422 -0.331414 1.000000
-0.800555 -0.435455 -0.331414 1.000000
0.358576 0.570841 -0.331414 1.000000
-0.643912 -0.089491 -0.331414 1.000000
-0.293002 -0.683713 -0.331414 1.000000
0.912065 0.137199 -0.331414 1.000000
0.626615 0.325343 -0.331414 1.000000
0.829924 0.352962 -0.331414 1.000000
0.714233 0.227158 -0.331414 1.000000
-0.812987 -0.056772 -0.331414 1.000000
0.125566 -0.591644 -0.331414 1.000000
-0.748235 -0.263420 -0.331414 1.000000
0.160869 -0.828393 -0.331414 1.000000
0.733628 0.228219 -0.331414 1.000000
-0.651250 0.271614 -0.331414 1.000000
0.586142 0.261106 -0.331414 1.000000
0.860210 -0.344970 -0.331414 1.000000
-0.921487 0.160347 -0.330405 1.000000
0.356301 0.471121 -0.331414 1.000000
-0.375855 -0.577608 -0.331414 1.000000
0.591264 -0.118418 -0.331414 1.000000
0.566354 -0.409397 -0.331414 1.000000
0.252877 -0.867796 -0.331414 1.000000
0.545176 -0.298477 -0.331414 1.000000
-0.446556 -0.617194 -0.331414 1.000000
0.849968 -0.367149 -0.331414 1.000000
-0.494671 -0.508939 -0.331414 1.000000
0.498679 0.673990 -0.331414 1.000000
-0.728992 -0.576186 -0.331414 1.000000
0.604573 0.099917 -0.331414 1.000000
0.078075 -0.764403 -0.331414 1.000000
0.327101 -0.600836 -0.331414 1.000000
-0.335687 -0.536889 -0.331414 1.000000
-0.085405 -0.586397 -0.328096 1.000000
0.030543 0.773461 -0.331414 1.000000
0.652222 0.071209 -0.331414 1.000000
0.772396 0.064059 -0.331414 1.000000
0.603810 0.498212 -0.331414 1.000000
-0.922153 0.156212 -0.331229 1.000000
0.402004 0.810080 -0.331414 1.000000
0.802126 -0.131983 -0.331414 1.000000
-0.085248 -0.932320 -0.331414 1.000000
0.576489 0.182100 -0.331414 1.000000
-0.591366 0.049867 -0.331414 1.000000
-0.260780 0.835748 -0.331414 1.000000
0.420968 0.657317 -0.331414 1.000000
-0.003864 0.617556 -0.331414 1.000000
0.536325 -0.474034 -0.331414 1.000000
0.620689 0.382736 -0.331414 1.000000
-0.620672 -0.263666 -0.331414 1.000000
-0.369622 -0.695287 -0.331414 1.000000
-0.517581 -0.282567 -0.326797 1.000000
-0.396907 0.498951 -0.331414 1.000000
0.740970 -0.300016 -0.331414 1.000000
-0.027280 -0.716680 -0.331414 1.000000
-0.552117 -0.531580 -0.331414 1.000000
-0.524946 -0.628370 -0.331414 1.000000
-0.438402 0.496341 -0.331414 1.000000
-0.765711 -0.254498 -0.331414 1.000000
-0.175173 -0.872212 -0.331414 1.000000
-0.402109 0.733848 -0.331414 1.000000
-0.812078 0.091494 -0.331414 1.000000
0.636765 0.374684 -0.331414 1.000000
-0.171776 -0.714815 -0.331414 1.000000
0.024632 0.731231 -0.331414 1.000000
0.175296 -0.762811 -0.331414 1.000000
-0.678734 0.595139 -0.331414 1.000000
-0.662328 -0.284843 -0.331414 1.000000
-0.928731 -0.108812 -0.331414 1.000000
-0.171047 -0.680771 -0.331414 1.000000
0.609417 0.394985 -0.331414 1.000000
0.310001 0.554108 -0.331414 1.000000
-0.043144 -0.727020 -0.331414 1.000000
0.183974 -0.652774 -0.331414 1.000000
-0.253072 -0.843749 -0.331414 1.000000
-0.683493 0.106446 -0.331414 1.000000
0.182742 0.773145 -0.331414 1.000000
-0.726813 0.569618 -0.331414 1.000000
-0.759566 -0.280647 -0.331414 1.000000
0.670103 -0.250354 -0.331414 1.000000
-0.519246 0.690081 -0.331414 1.000000
0.048327 -0.677930 -0.331414 1.000000
0.299466 -0.766879 -0.331414 1.000000
0.204621 0.557580 -0.331414 1.000000
-0.526751 -0.456855 -0.331414 1.000000
-0.593020 -0.596225 -0.331414 1.000000
-0.614464 -0.293753 -0.331414 1.000000
0.681211 -0.601416 -0.331414 1.000000
-0.787489 -0.357288 -0.331414 1.000000
-0.868515 -0.304246 -0.331414 1.000000
-0.832623 0.407232 -0.331414 1.000000
-0.544038 -0.277940 -0.331414 1.000000
-0.414171 -0.423070 -0.329319 1.000000
0.168754 0.865552 -0.331414 1.000000
-0.871504 -0.291069 -0.331414 1.000000
-0.559684 -0.271147 -0.331414 1.000000
-0.875460 0.292999 -0.331414 1.000000
-0.465237 -0.780079 -0.331414 1.000000
-0.783912 0.396393 -0.331414 1.000000
0.585140 0.092836 -0.331414 1.000000
-0.582491 0.268142 -0.331414 1.000000
0.825128 -0.197411 -0.331414 1.000000
-0.519508 -0.586250 -0.331414 1.000000
0.383065 0.745990 -0.331414 1.000000
0.508771 -0.555380 -0.331414 1.000000
0.370807 -0.865525 -0.327653 1.000000
-0.750369 0.096211 -0.331414 1.000000
0.875051 -0.134312 -0.331414 1.000000
-0.249772 -0.655207 -0.331414 1.000000
0.463212 0.585781 -0.331414 1.000000
-0.053235 0.758469 -0.331414 1.000000
-0.488108 -0.624489 -0.331414 1.000000
0.816347 -0.339189 -0.331414 1.000000
-0.494216 -0.322967 -0.331301 1.000000
-0.376807 -0.686816 -0.331414 1.000000
0.597564 0.535604 -0.331414 1.000000
0.616387 0.567757 -0.331414 1.000000
-0.937022 0.009431 -0.324554 1.000000
0.517396 0.499192 -0.331414 1.000000
0.649594 0.214066 -0.331414 1.000000
-0.614102 0.105400 -0.331414 1.000000
-0.436871 0.533885 -0.331414 1.000000
0.087926 0.792530 -0.331414 1.000000
-0.469786 -0.774206 -0.331414 1.000000
0.592059 0.296428 -0.331414 1.000000
0.704995 -0.357470 -0.331414 1.000000
0.377929 0.700761 -0.331414 1.000000
0.713093 0.430996 -0.331414 1.000000
-0.457352 0.732702 -0.331414 1.000000
-0.429781 0.710866 -0.331414 1.000000
0.610138 0.281163 -0.331414 1.000000
0.822727 -0.008051 -0.331414 1.000000
0.072268 0.705338 -0.331414 1.000000
-0.703387 0.580957 -0.331414 1.000000
-0.914960 -0.011838 -0.331414 1.000000
-0.601205 0.633628 -0.331414 1.000000
-0.203210 -0.835325 -0.331414 1.000000
0.058665 -0.630697 -0.331414 1.000000
-0.243183 -0.868473 -0.331414 1.000000
-0.110927 -0.606521 -0.331414 1.000000
-0.695027 0.580089 -0.331414 1.000000
-0.449724 0.521258 -0.331414 1.000000
0.307569 0.487133 -0.327775 1.000000
0.598104 0.429153 -0.331414 1.000000
0.362393 -0.730135 -0.331414 1.000000
0.398610 -0.743600 -0.331414 1.000000
-0.665848 0.050835 -0.331414 1.000000
0.600621 -0.445209 -0.331414 1.000000
-0.745729 0.036126 -0.331414 1.000000
0.730453 0.192600 -0.331414 1.000000
0.439330 0.406160 -0.331414 1.000000
0.585195 -0.203324 -0.331414 1.000000
-0.846980 -0.011769 -0.331414 1.000000
-0.245083 -0.583613 -0.331414 1.000000
0.302226 -0.834509 -0.331414 1.000000
0.836028 -0.311976 -0.331414 1.000000
-0.713620 -0.573213 -0.331414 1.000000
0.780882 -0.503808 -0.331414 1.000000
0.831444 0.345135 -0.331414 1.000000
0.725905 0.426707 -0.331414 1.000000
0.241928 -0.671421 -0.331414 1.000000
0.646171 0.086555 -0.331414 1.000000
0.536612 -0.589982 -0.331414 1.000000
0.117815 0.586527 -0.331414 1.000000
-0.029981 0.690772 -0.331414 1.000000
-0.395017 -0.643226 -0.331414 1.000000
-0.849122 -0.090631 -0.331414 1.000000
0.694577 -0.359487 -0.331414 1.000000
0.209239 0.711945 -0.331414 1.000000
0.327079 -0.594797 -0.331414 1.000000
-0.449096 0.724515 -0.331414 1.000000
0.456259 0.622447 -0.331414 1.000000
0.508678 0.383394 -0.331414 1.000000
-0.291969 0.604952 -0.331414 1.000000
-0.404955 -0.576198 -0.331414 1.000000
-0.304523 0.688711 -0.331414 1.000000
0.454447 0.703109 -0.331414 1.000000
-0.718790 0.576215 -0.331414 1.000000
-0.703346 0.280939 -0.331414 1.000000
0.343801 -0.737234 -0.331414 1.000000
-0.330986 0.530346 -0.331414 1.000000
-0.796722 -0.361460 -0.331414 1.000000
0.263230 -0.853154 -0.331414 1.000000
0.164723 0.618148 -0.331414 1.000000
-0.127414 -0.762744 -0.331414 1.000000
