0.04544500 0.62263000 0.31254399 0.000000
-0.68964499 0.62263000 0.20531701 0.000000
0.40230900 0.62263000 0.34117499 0.000000
-0.49474800 0.62263000 -0.13846201 0.000000
-0.11355500 0.62263000 -0.46907100 0.000000
0.58707601 0.62263000 0.21316700 0.000000
-0.13910601 0.62263000 0.47683999 0.000000
-0.54134202 0.62263000 -0.05871900 0.000000
0.23386900 0.62263000 0.73527801 0.000000
0.52354097 0.62263000 -0.12935200 0.000000
-0.01428800 0.62263000 0.47960499 0.000000
0.54453200 0.62263000 0.20189600 0.000000
0.21356800 0.62263000 0.59732997 0.000000
0.46043801 0.62263000 -0.44363201 0.000000
-0.71424502 0.62263000 -0.17609701 0.000000
0.18798500 0.62263000 0.49094301 0.000000
-0.06832400 0.62263000 0.68550497 0.000000
-0.28698799 0.62263000 0.49913001 0.000000
-0.68888497 0.62263000 0.27902699 0.000000
-0.16995101 0.62263000 0.63248199 0.000000
-0.64669299 0.62263000 0.26497501 0.000000
0.60722500 0.62263000 -0.37513900 0.000000
0.51036501 0.62263000 0.04613800 0.000000
0.20733400 0.62263000 -0.69350398 0.000000
-0.52100199 0.62263000 -0.16140500 0.000000
-0.37152001 0.62263000 0.11151800 0.000000
-0.76752901 0.61869901 0.08207000 0.000000
0.08365800 0.62263000 0.72514302 0.000000
0.60290498 0.62263000 -0.34258601 0.000000
0.61836302 0.61614400 0.47115999 0.000000
0.14154500 0.62263000 -0.32223400 0.000000
-0.57401502 0.62263000 -0.38440400 0.000000
-0.17653500 0.62263000 -0.52384299 0.000000
-0.05029000 0.61503297 0.76924098 0.000000
0.42804801 0.62263000 0.25485501 0.000000
0.69347900 0.62263000 0.03064700 0.000000
0.59395802 0.62263000 0.05824000 0.000000
-0.29960400 0.62263000 0.19940101 0.000000
0.68033898 0.62012798 0.37675899 0.000000
0.68443602 0.62263000 0.19147301 0.000000
-0.32115600 0.62263000 0.09269500 0.000000
-0.52339298 0.62263000 -0.23278201 0.000000
-0.29114699 0.61837000 0.71248800 0.000000
0.25613901 0.62263000 -0.43013999 0.000000
0.08532300 0.62263000 -0.40013900 0.000000
-0.58863801 0.62263000 0.15442300 0.000000
0.18441699 0.62263000 0.63295197 0.000000
-0.70854199 0.62263000 -0.13334399 0.000000
-0.56117398 0.62263000 0.33924001 0.000000
-0.66174001 0.62263000 0.33824101 0.000000
-0.20079100 0.62263000 -0.59177202 0.000000
0.44964099 0.62263000 0.35821301 0.000000
-0.01047800 0.62263000 -0.75709498 0.000000
-0.49454600 0.62263000 0.10488400 0.000000
-0.48095700 0.62263000 0.43975300 0.000000
0.46009001 0.62263000 0.00753500 0.000000
0.26591599 0.62263000 0.58668500 0.000000
0.26675299 0.62263000 0.18330400 0.000000
-0.55399102 0.62263000 -0.37938401 0.000000
-0.70204002 0.62263000 0.07713000 0.000000
-0.35453099 0.62263000 -0.49011001 0.000000
0.29013601 0.62263000 -0.64098501 0.000000
0.52351999 0.62263000 0.52252799 0.000000
0.27927801 0.62263000 -0.39475599 0.000000
-0.69288599 0.62263000 0.33478400 0.000000
-0.33896199 0.62263000 0.60118598 0.000000
0.66750598 0.62263000 -0.14195301 0.000000
-0.22477600 0.62263000 -0.47112599 0.000000
0.43935901 0.62263000 0.28026000 0.000000
-0.31982601 0.62263000 0.27410099 0.000000
0.73597199 0.62263000 -0.15500900 0.000000
-0.22321500 0.62263000 0.44556901 0.000000
-0.22819200 0.62263000 -0.22441199 0.000000
0.35334200 0.62263000 0.30563000 0.000000
0.27167401 0.62263000 -0.46404201 0.000000
-0.08454800 0.62263000 -0.64632797 0.000000
-0.52080399 0.62263000 -0.57175499 0.000000
0.47527000 0.62263000 -0.01905900 0.000000
-0.29965699 0.62263000 0.19692700 0.000000
-0.28740901 0.62263000 0.20039000 0.000000
0.37594801 0.62263000 0.59566498 0.000000
-0.28377900 0.62263000 0.27980599 0.000000
-0.58426201 0.62263000 0.15814701 0.000000
0.33370301 0.62263000 -0.58855498 0.000000
0.62805301 0.62263000 0.11923900 0.000000
0.04819300 0.62263000 0.53731400 0.000000
-0.39161101 0.62263000 0.49546000 0.000000
0.29250801 0.62263000 0.65755999 0.000000
0.33882999 0.62263000 0.36775699 0.000000
-0.52163899 0.62263000 0.24971101 0.000000
0.40568101 0.62263000 -0.34758499 0.000000
-0.27890101 0.62263000 -0.67715597 0.000000
-0.33601999 0.62263000 0.45765099 0.000000
-0.66988897 0.62263000 -0.34704900 0.000000
-0.10361200 0.62263000 0.55040997 0.000000
-0.59802902 0.62263000 -0.20037600 0.000000
0.36245799 0.62263000 -0.33771601 0.000000
-0.27567899 0.62263000 -0.68055803 0.000000
-0.43023399 0.62263000 0.02343800 0.000000
0.37927601 0.62263000 -0.28940499 0.000000
0.14971100 0.62263000 -0.70779097 0.000000
-0.33360299 0.62263000 -0.54971701 0.000000
0.18780500 0.62263000 -0.55469698 0.000000
-0.28059399 0.62263000 0.15899301 0.000000
-0.67741698 0.62263000 -0.00431000 0.000000
-0.68302202 0.62263000 0.17970900 0.000000
-0.36631000 0.61584800 0.67666900 0.000000
0.07474000 0.62263000 0.46529701 0.000000
0.65267402 0.62263000 0.32196000 0.000000
0.32313299 0.62263000 0.37877700 0.000000
-0.49170500 0.62263000 -0.36907101 0.000000
0.45105499 0.62263000 0.18649501 0.000000
-0.40873000 0.62263000 -0.01379900 0.000000
-0.74906802 0.62263000 0.02124000 0.000000
0.23073000 0.62263000 -0.50836003 0.000000
-0.44538301 0.62263000 -0.60232401 0.000000
-0.66940397 0.62263000 0.15239599 0.000000
0.29635000 0.62263000 0.62590200 0.000000
-0.15555701 0.62263000 0.32800999 0.000000
0.42430499 0.62263000 0.56189400 0.000000
0.54407901 0.62263000 0.21956100 0.000000
0.32159799 0.62263000 -0.20522501 0.000000
0.56061798 0.62263000 -0.53515601 0.000000
0.58650100 0.62263000 0.25980401 0.000000
0.28758001 0.62263000 0.46140999 0.000000
0.53700900 0.62263000 -0.02023700 0.000000
0.02371800 0.62263000 0.75602001 0.000000
-0.60536498 0.61504197 0.47621599 0.000000
-0.32006001 0.62263000 -0.25331300 0.000000
-0.36835799 0.62263000 0.51339698 0.000000
-0.49895599 0.62263000 0.23934200 0.000000
0.17325300 0.62263000 0.64034897 0.000000
-0.22138900 0.62263000 0.32553899 0.000000
-0.52044803 0.62263000 -0.04020400 0.000000
0.03322800 0.62263000 -0.31881201 0.000000
0.47693500 0.62263000 -0.30602500 0.000000
0.00563200 0.62263000 -0.52525800 0.000000
0.38015500 0.62263000 0.63684499 0.000000
-0.03071200 0.62263000 -0.42661500 0.000000
-0.39174199 0.62263000 -0.23882399 0.000000
-0.20063099 0.62263000 0.59574902 0.000000
0.52722698 0.62263000 0.43613201 0.000000
0.05148600 0.62263000 0.52481902 0.000000
0.41436300 0.62263000 0.03668600 0.000000
-0.17872301 0.62263000 0.61403298 0.000000
-0.56284797 0.62263000 -0.31711301 0.000000
0.14509100 0.62263000 0.34447801 0.000000
0.18231399 0.62263000 -0.27350801 0.000000
0.20039199 0.62263000 0.32010201 0.000000
0.32058001 0.62263000 0.46013400 0.000000
0.48835301 0.62263000 -0.38716400 0.000000
0.28285199 0.62263000 0.36550200 0.000000
-0.55079901 0.62263000 -0.48720399 0.000000
0.63612902 0.62263000 -0.44497401 0.000000
0.12244500 0.62263000 0.34928700 0.000000
-0.76873899 0.61758298 -0.07009600 0.000000
0.36559799 0.62263000 0.54299200 0.000000
-0.55330998 0.62263000 0.43378901 0.000000
0.38783401 0.62263000 -0.26287100 0.000000
-0.23959400 0.62263000 -0.35008800 0.000000
0.13763200 0.62263000 -0.65204698 0.000000
-0.47273901 0.62263000 0.45324901 0.000000
-0.66621000 0.62263000 0.10467200 0.000000
-0.04383800 0.62263000 -0.74116701 0.000000
-0.41262600 0.62263000 0.59779900 0.000000
-0.17016500 0.62263000 -0.37222999 0.000000
0.72804600 0.62263000 -0.19231600 0.000000
-0.66671300 0.62244803 -0.39395100 0.000000
0.64239597 0.62263000 0.06739900 0.000000
-0.59758502 0.62263000 0.31821600 0.000000
0.28144300 0.62263000 -0.17665000 0.000000
-0.44173601 0.62263000 0.50262600 0.000000
0.31429201 0.62263000 0.64384198 0.000000
0.30715299 0.62263000 0.30194801 0.000000
-0.50815201 0.62263000 -0.54689801 0.000000
0.16714901 0.61707598 0.75462598 0.000000
0.31172001 0.62263000 -0.07043700 0.000000
-0.27864301 0.62263000 0.25973299 0.000000
-0.44152600 0.62263000 0.37520501 0.000000
0.35530499 0.62263000 0.44936699 0.000000
-0.65722299 0.62263000 0.27420700 0.000000
-0.48854399 0.62263000 0.09448900 0.000000
-0.21426800 0.62263000 0.29546499 0.000000
0.02860800 0.62263000 -0.32993701 0.000000
-0.65821201 0.62263000 -0.31636301 0.000000
-0.30780199 0.62263000 -0.50039601 0.000000
0.67558497 0.62263000 0.14152700 0.000000
0.56198102 0.62263000 0.03323900 0.000000
0.07781200 0.62263000 -0.32842401 0.000000
-0.30716100 0.62263000 -0.11388000 0.000000
0.35865101 0.62263000 0.12342500 0.000000
-0.55724502 0.62263000 -0.04391000 0.000000
0.60726100 0.62263000 0.15686101 0.000000
0.42393801 0.62263000 0.09285100 0.000000
0.71834999 0.62263000 0.26093599 0.000000
0.09569500 0.62263000 -0.46097401 0.000000
-0.43774700 0.62263000 0.30674100 0.000000
-0.11412700 0.62263000 -0.29599100 0.000000
-0.31597400 0.62263000 -0.00668900 0.000000
-0.66276199 0.62263000 -0.24865800 0.000000
0.59118497 0.62263000 0.19557600 0.000000
-0.07701100 0.62263000 -0.57551003 0.000000
-0.06383200 0.62263000 0.48461100 0.000000
0.25646800 0.62263000 -0.38770500 0.000000
-0.66387600 0.62263000 0.30435699 0.000000
0.46516800 0.62263000 0.03195000 0.000000
-0.36823401 0.62263000 0.08585600 0.000000
-0.46828699 0.62263000 -0.34786800 0.000000
0.50033498 0.62263000 0.44557700 0.000000
-0.44408700 0.62263000 -0.44626701 0.000000
-0.22415000 0.62263000 -0.54330498 0.000000
0.30101699 0.62018299 -0.09537400 0.000000
-0.33251101 0.62263000 -0.14622100 0.000000
0.74630702 0.62263000 -0.16370200 0.000000
-0.25644201 0.62263000 0.33470199 0.000000
-0.23324700 0.62263000 0.45885500 0.000000
0.64470297 0.62263000 -0.06355000 0.000000
-0.39344999 0.62263000 0.24560200 0.000000
-0.14168800 0.62263000 0.39465299 0.000000
0.68979698 0.62263000 -0.15897600 0.000000
-0.62395799 0.62263000 -0.05273400 0.000000
0.40872800 0.62263000 0.43144801 0.000000
0.16843200 0.62263000 -0.40250400 0.000000
-0.23812000 0.62263000 0.59998202 0.000000
0.33392099 0.62263000 0.38918701 0.000000
-0.74170101 0.62263000 -0.15705100 0.000000
-0.32238299 0.62263000 0.01447500 0.000000
-0.21290800 0.62263000 -0.47807500 0.000000
0.19875100 0.61971998 -0.24693701 0.000000
-0.33667701 0.62263000 -0.02565500 0.000000
0.69393098 0.62263000 -0.19941001 0.000000
0.74718100 0.62254798 0.22073600 0.000000
-0.13776501 0.62263000 -0.66142100 0.000000
0.50481898 0.62263000 0.16003799 0.000000
-0.74170601 0.61734301 0.20707600 0.000000
0.63493901 0.62263000 0.06274200 0.000000
-0.14365900 0.62263000 -0.66999203 0.000000
0.31303799 0.62263000 0.26644099 0.000000
-0.09143000 0.62263000 -0.32745001 0.000000
-0.33725101 0.62263000 -0.54370701 0.000000
-0.14810701 0.62263000 0.31015399 0.000000
-0.26002699 0.62263000 0.72164899 0.000000
0.00424100 0.62263000 0.46542999 0.000000
0.55482399 0.62263000 0.35137200 0.000000
-0.01433500 0.62263000 0.38899001 0.000000
0.06208700 0.62263000 0.40788800 0.000000
0.61847198 0.62263000 0.35439000 0.000000
0.12725700 0.62263000 0.41730601 0.000000
-0.42988300 0.62263000 0.46117401 0.000000
0.10469600 0.62263000 -0.52157003 0.000000
-0.24733500 0.62263000 0.38309899 0.000000
-0.63521200 0.62263000 -0.30758199 0.000000
-0.42382300 0.62263000 0.54912901 0.000000
0.16674300 0.62263000 0.47505999 0.000000
-0.21552500 0.62263000 -0.55598301 0.000000
-0.14807600 0.62263000 -0.62677598 0.000000
0.71549797 0.62263000 -0.11864800 0.000000
0.66606599 0.62263000 0.24628600 0.000000
-0.37864900 0.62263000 0.44965401 0.000000
-0.47612399 0.62263000 0.46393600 0.000000
-0.63866699 0.62263000 -0.03249200 0.000000
-0.09138700 0.62263000 0.43923000 0.000000
0.42402300 0.62263000 0.13748001 0.000000
-0.06146100 0.62263000 -0.46557999 0.000000
-0.29016101 0.62263000 0.32374901 0.000000
-0.73575997 0.62263000 -0.15208399 0.000000
-0.44003001 0.62263000 -0.45088801 0.000000
0.72674102 0.62263000 0.23401900 0.000000
-0.46921101 0.62263000 0.50047499 0.000000
0.69495600 0.62263000 -0.33796200 0.000000
0.76128298 0.62263000 -0.16713101 0.000000
-0.35987401 0.62263000 0.59306097 0.000000
-0.40784401 0.62263000 -0.02477200 0.000000
-0.19970500 0.62263000 -0.60133600 0.000000
0.32886100 0.62263000 0.01370100 0.000000
-0.26607201 0.62263000 0.31403601 0.000000
-0.29805499 0.61634201 0.06174200 0.000000
-0.20650300 0.62263000 0.68030798 0.000000
0.62436199 0.62263000 -0.05536800 0.000000
0.32973599 0.62263000 -0.40873700 0.000000
0.33951700 0.62263000 0.15791400 0.000000
0.29565999 0.62263000 0.53545702 0.000000
-0.40432101 0.62263000 -0.21038701 0.000000
0.33615401 0.62263000 -0.03982200 0.000000
-0.24058300 0.62263000 0.44750100 0.000000
0.23500299 0.62263000 -0.70722401 0.000000
-0.22207101 0.62263000 0.71138000 0.000000
0.25999099 0.62263000 -0.29682899 0.000000
0.16028100 0.62263000 0.70064098 0.000000
0.20079400 0.62263000 -0.63728899 0.000000
0.08926400 0.62263000 0.50585002 0.000000
0.51848698 0.62263000 0.00500400 0.000000
-0.16688000 0.62263000 -0.49493599 0.000000
0.43495101 0.62263000 0.34715900 0.000000
-0.38525000 0.62263000 0.29929700 0.000000
-0.31659299 0.62263000 -0.23269200 0.000000
0.55242401 0.62263000 -0.19730499 0.000000
0.13710700 0.62263000 -0.32998401 0.000000
-0.12184000 0.62263000 -0.72624099 0.000000
-0.10641500 0.62263000 0.75681901 0.000000
0.48872799 0.62263000 0.06352300 0.000000
0.48862401 0.62263000 -0.24455200 0.000000
0.36260101 0.62263000 -0.52762002 0.000000
-0.23199099 0.62263000 0.49428400 0.000000
-0.25198299 0.62263000 -0.32739401 0.000000
0.17087901 0.62263000 -0.39418501 0.000000
0.33416501 0.62263000 -0.04381300 0.000000
0.52390200 0.62263000 -0.38919401 0.000000
0.14214900 0.62263000 -0.29808801 0.000000
0.72681898 0.62263000 -0.22635999 0.000000
0.13304199 0.62263000 0.59763098 0.000000
-0.17543000 0.62263000 -0.39088401 0.000000
-0.53094000 0.62263000 0.33861601 0.000000
0.46029601 0.62263000 0.22615300 0.000000
-0.50214499 0.62263000 0.52566200 0.000000
0.41769901 0.62263000 0.11253800 0.000000
0.31477499 0.62263000 -0.36427599 0.000000
-0.47120500 0.62263000 0.58006799 0.000000
-0.30082601 0.62263000 0.43950400 0.000000
0.40729299 0.62263000 -0.12943301 0.000000
-0.01027200 0.62263000 0.47695899 0.000000
0.62872899 0.62263000 0.29498500 0.000000
0.30403599 0.62263000 0.45644400 0.000000
0.37894899 0.62263000 0.57368499 0.000000
-0.52753001 0.62263000 -0.50621200 0.000000
0.41313699 0.62263000 0.60214502 0.000000
0.26906401 0.62263000 0.48568299 0.000000
-0.36023301 0.62263000 0.50849003 0.000000
0.44943401 0.62263000 -0.27202100 0.000000
-0.11332800 0.62263000 -0.70671201 0.000000
0.30188099 0.62263000 -0.28937301 0.000000
-0.14346901 0.62263000 -0.42665201 0.000000
-0.02784500 0.62263000 -0.75942701 0.000000
-0.70615703 0.62263000 -0.28033599 0.000000
0.05522200 0.62263000 0.41525701 0.000000
0.07530500 0.62263000 0.47389299 0.000000
-0.28452301 0.62263000 0.40262699 0.000000
0.65247899 0.62263000 0.34223601 0.000000
-0.45471099 0.62263000 -0.17230600 0.000000
0.05197900 0.62263000 -0.38331500 0.000000
-0.38671601 0.62263000 -0.07723800 0.000000
0.72285402 0.62263000 -0.04889400 0.000000
0.74509603 0.62158501 -0.23753700 0.000000
-0.54512298 0.62263000 0.19660801 0.000000
-0.42232099 0.62263000 0.28578100 0.000000
-0.55215698 0.62263000 -0.50846702 0.000000
0.35900301 0.62263000 0.20270200 0.000000
-0.15272500 0.62263000 0.40042499 0.000000
0.27184600 0.62263000 -0.37880999 0.000000
0.59754199 0.62263000 -0.30195299 0.000000
-0.59219497 0.62263000 -0.44535199 0.000000
0.13740300 0.62263000 0.38693601 0.000000
-0.31167999 0.62263000 0.37955800 0.000000
-0.65730101 0.62263000 0.29577899 0.000000
-0.64743698 0.62263000 0.11234900 0.000000
0.58311701 0.62263000 -0.03320300 0.000000
0.09608300 0.62263000 0.67515999 0.000000
-0.03234000 0.62263000 0.69690299 0.000000
0.34687799 0.62263000 0.59389901 0.000000
0.37117499 0.61838502 0.67918098 0.000000
-0.36347300 0.62263000 0.60707098 0.000000
-0.66691101 0.62263000 0.21306100 0.000000
0.06452500 0.62263000 0.49834800 0.000000
0.50419301 0.62263000 -0.54872501 0.000000
-0.53025299 0.62263000 0.15859801 0.000000
-0.65609598 0.62263000 0.18776099 0.000000
-0.59284002 0.62263000 0.40395600 0.000000
0.66341197 0.62263000 -0.06608400 0.000000
0.75546598 0.62263000 -0.20104501 0.000000
-0.39811599 0.62263000 -0.29892001 0.000000
-0.20047000 0.62263000 0.45392099 0.000000
-0.34216800 0.62263000 -0.47023699 0.000000
-0.46625501 0.62263000 0.00185800 0.000000
0.46654099 0.62263000 0.07947100 0.000000
-0.62336898 0.62263000 0.25015301 0.000000
-0.21438600 0.62263000 -0.32486400 0.000000
0.33491600 0.62263000 0.33337200 0.000000
0.06153400 0.62263000 0.76128298 0.000000
0.46700501 0.62263000 0.32282701 0.000000
0.60536098 0.62263000 -0.40567499 0.000000
-0.10738500 0.62263000 -0.58920503 0.000000
0.50277299 0.62263000 0.30767500 0.000000
0.39186099 0.62263000 -0.14026400 0.000000
-0.58764797 0.62263000 0.26679501 0.000000
0.30890101 0.62263000 0.13757700 0.000000
0.21483301 0.62263000 -0.57351202 0.000000
0.16933800 0.62263000 -0.52816200 0.000000
-0.71014601 0.62263000 0.27032599 0.000000
-0.68853700 0.62263000 0.17505600 0.000000
-0.64400899 0.62263000 -0.38768199 0.000000
-0.47092900 0.62263000 -0.03907000 0.000000
-0.45778000 0.62263000 0.05354100 0.000000
-0.74493098 0.62263000 0.04550700 0.000000
-0.65388101 0.62263000 -0.02507200 0.000000
0.46906400 0.62263000 0.26452300 0.000000
-0.51953602 0.62263000 -0.44528100 0.000000
-0.10262300 0.62263000 0.49080199 0.000000
-0.32082999 0.62263000 -0.62829202 0.000000
0.71371698 0.62263000 -0.16714400 0.000000
0.39933401 0.62263000 -0.15930399 0.000000
-0.33971399 0.62263000 -0.35666400 0.000000
0.46788600 0.62263000 -0.57729000 0.000000
-0.50795197 0.62263000 0.36558101 0.000000
-0.75795698 0.62263000 0.12050100 0.000000
0.02413000 0.62263000 -0.54058200 0.000000
-0.12750800 0.62263000 -0.67192602 0.000000
-0.61645699 0.62263000 0.19245000 0.000000
0.37697300 0.62263000 0.37600100 0.000000
0.57412201 0.62263000 0.51670402 0.000000
-0.46136701 0.62263000 0.57924002 0.000000
-0.05013000 0.62263000 0.73590797 0.000000
-0.38997599 0.62263000 0.54309601 0.000000
-0.15022901 0.62263000 0.44580099 0.000000
0.34515300 0.62263000 -0.66156900 0.000000
0.21167900 0.62263000 0.40299001 0.000000
-0.08153400 0.62263000 -0.52175599 0.000000
-0.60968697 0.62263000 0.11217800 0.000000
0.37530699 0.62263000 0.60203302 0.000000
-0.33216801 0.62263000 0.22606100 0.000000
-0.47626600 0.62263000 0.23628300 0.000000
-0.20924400 0.62263000 0.44830301 0.000000
0.50311601 0.62263000 -0.35794401 0.000000
0.27052400 0.62263000 -0.39471400 0.000000
0.10078100 0.62263000 -0.71967500 0.000000
-0.19016799 0.62263000 0.46034700 0.000000
-0.39125600 0.62263000 0.36390901 0.000000
0.49927399 0.62263000 0.30981800 0.000000
-0.50405502 0.62263000 0.57741201 0.000000
-0.30528501 0.62263000 -0.35130599 0.000000
-0.64711303 0.62263000 -0.41578001 0.000000
0.03374300 0.62263000 -0.50386602 0.000000
-0.58673298 0.62263000 -0.15591900 0.000000
0.29028499 0.62263000 0.55786502 0.000000
-0.44233301 0.62263000 -0.08373600 0.000000
-0.62496603 0.62263000 -0.43428600 0.000000
-0.31466201 0.62263000 0.21836799 0.000000
0.27740401 0.62263000 -0.38308600 0.000000
-0.43620601 0.62263000 -0.23763400 0.000000
-0.26999000 0.62263000 -0.37104800 0.000000
0.17070200 0.62263000 0.47487199 0.000000
0.08367100 0.62263000 0.62207901 0.000000
0.63761300 0.62263000 -0.31724200 0.000000
-0.64271498 0.62263000 0.28596801 0.000000
-0.63635498 0.62263000 0.26206201 0.000000
0.56441098 0.62263000 -0.32699400 0.000000
-0.29874000 0.62263000 0.57356501 0.000000
-0.48905900 0.62263000 0.09772100 0.000000
-0.04835700 0.62263000 -0.57602698 0.000000
0.08197900 0.62263000 -0.67932898 0.000000
0.50040102 0.62263000 -0.14196301 0.000000
0.34123400 0.62263000 0.08399200 0.000000
-0.32074600 0.62263000 0.55086702 0.000000
-0.28345701 0.62263000 0.34106001 0.000000
0.24689800 0.62263000 -0.50407302 0.000000
-0.76891798 0.61786598 -0.06690900 0.000000
-0.48077399 0.62263000 -0.55796403 0.000000
0.64661902 0.62263000 0.14664000 0.000000
0.48218501 0.62263000 0.34086499 0.000000
-0.60351199 0.62263000 0.05377300 0.000000
-0.09114900 0.62263000 -0.30708799 0.000000
0.34366399 0.62263000 -0.03453700 0.000000
0.14427200 0.62263000 -0.50161302 0.000000
-0.38346499 0.62263000 -0.32326400 0.000000
-0.30092999 0.62263000 0.62622398 0.000000
-0.18733500 0.62263000 0.52114803 0.000000
0.22112900 0.62263000 0.28221801 0.000000
-0.31575301 0.62263000 -0.24584401 0.000000
-0.37833101 0.62263000 -0.58492702 0.000000
-0.48861101 0.62263000 -0.53330600 0.000000
0.33347800 0.62263000 0.64770001 0.000000
0.70279598 0.62263000 -0.30465999 0.000000
0.19599700 0.62263000 -0.43932900 0.000000
0.70212603 0.62263000 0.14362800 0.000000
-0.16504100 0.62263000 -0.29769900 0.000000
0.17458101 0.62263000 -0.56847900 0.000000
0.12014300 0.62263000 -0.44196501 0.000000
0.75464702 0.62263000 0.16641600 0.000000
0.06130200 0.62263000 0.48943999 0.000000
-0.52029097 0.62263000 0.02848800 0.000000
-0.61515099 0.62263000 0.13010500 0.000000
0.32120901 0.62263000 0.15660299 0.000000
0.20073800 0.62263000 -0.31290400 0.000000
0.39382100 0.62263000 -0.62763298 0.000000
-0.58879101 0.62263000 -0.22510600 0.000000
-0.18960600 0.62263000 -0.62176102 0.000000
0.38432899 0.62263000 -0.25591600 0.000000
-0.73534298 0.62263000 -0.04217900 0.000000
-0.71296602 0.62263000 0.27109599 0.000000
-0.54428601 0.62263000 0.27072799 0.000000
-0.43571901 0.62263000 0.03105500 0.000000
0.24246600 0.62263000 0.70695603 0.000000
0.47161201 0.62263000 0.36133400 0.000000
-0.58530998 0.62263000 -0.12204900 0.000000
-0.16475800 0.62263000 -0.52670699 0.000000
-0.61410999 0.62263000 0.02262800 0.000000
-0.54303199 0.62263000 -0.41115499 0.000000
0.54299200 0.61513799 0.55474102 0.000000
-0.51446497 0.62263000 -0.20310000 0.000000
0.40165499 0.62263000 0.50244403 0.000000
0.71826899 0.62263000 0.12852600 0.000000
-0.57523400 0.62263000 -0.39540300 0.000000
-0.30429301 0.62263000 -0.25713000 0.000000
-0.45023799 0.62263000 -0.61390400 0.000000
-0.12986900 0.62263000 -0.32196599 0.000000
0.40876800 0.62263000 -0.48312199 0.000000
-0.23057701 0.62263000 -0.74248600 0.000000
-0.26697999 0.62263000 -0.21796501 0.000000
-0.41835800 0.62263000 0.03586900 0.000000
-0.34125301 0.62263000 0.06027600 0.000000
-0.08160200 0.62263000 0.46738699 0.000000
0.14750800 0.62263000 0.63239503 0.000000
0.37699199 0.62263000 -0.68101901 0.000000
-0.58646399 0.62159503 -0.50765699 0.000000
-0.15342700 0.62263000 -0.61979800 0.000000
-0.52078700 0.62263000 0.26114500 0.000000
-0.37046400 0.62263000 0.66653800 0.000000
-0.54326701 0.62263000 -0.53316700 0.000000
0.53669202 0.62263000 0.33177799 0.000000
-0.37764201 0.62263000 -0.62352198 0.000000
0.32859999 0.62263000 -0.07058700 0.000000
0.70864803 0.61698002 0.32324600 0.000000
0.68092000 0.62263000 -0.35645899 0.000000
0.47071499 0.62263000 -0.41975600 0.000000
0.72717100 0.62263000 -0.10640000 0.000000
0.26258299 0.62263000 -0.53272200 0.000000
-0.68362802 0.62263000 0.00221300 0.000000
0.65183002 0.62263000 0.23640400 0.000000
0.17080000 0.62263000 0.52981502 0.000000
-0.22648200 0.62062401 0.20195900 0.000000
-0.54729301 0.62263000 -0.08731300 0.000000
-0.11505400 0.62263000 -0.58230001 0.000000
0.59112602 0.62263000 -0.41497201 0.000000
0.28408501 0.62263000 -0.52625102 0.000000
-0.21902400 0.62263000 0.65782398 0.000000
0.49185300 0.62263000 0.00899000 0.000000
0.18424600 0.62263000 -0.45172799 0.000000
0.26174799 0.62263000 0.50836498 0.000000
0.57150602 0.62263000 -0.12996501 0.000000
0.71536797 0.62263000 0.11561100 0.000000
0.35477501 0.62263000 0.13581300 0.000000
-0.49000901 0.62263000 0.21036100 0.000000
0.32114100 0.62263000 0.34452799 0.000000
-0.59474897 0.62263000 0.29519701 0.000000
-0.48109201 0.62263000 0.36854699 0.000000
-0.15940601 0.62263000 -0.75125903 0.000000
0.12828600 0.62263000 0.57608598 0.000000
0.39014801 0.62263000 0.52190500 0.000000
-0.49350899 0.62263000 0.57036102 0.000000
-0.51997000 0.62263000 0.29142201 0.000000
-0.10351600 0.62263000 0.59047103 0.000000
0.34783399 0.62263000 0.63423401 0.000000
0.08809300 0.62263000 0.53736699 0.000000
0.74349302 0.62263000 0.22381499 0.000000
0.04927100 0.62263000 -0.53108698 0.000000
0.39820799 0.62263000 -0.04816800 0.000000
-0.16745999 0.62263000 -0.73001200 0.000000
-0.30795699 0.62263000 0.02261900 0.000000
0.10032300 0.62263000 -0.76454502 0.000000
-0.09945300 0.62263000 0.45896301 0.000000
0.39410901 0.62263000 -0.40974301 0.000000
0.74654698 0.62263000 0.20802601 0.000000
-0.56710303 0.62263000 0.41237199 0.000000
-0.31897700 0.62263000 -0.20376401 0.000000
-0.27636501 0.62263000 -0.69654602 0.000000
-0.31122100 0.62263000 0.17446400 0.000000
0.26045901 0.62263000 -0.47193500 0.000000
-0.42146999 0.62263000 -0.20260499 0.000000
0.33611000 0.62263000 0.67612702 0.000000
0.26986501 0.62263000 0.30545300 0.000000
0.06347300 0.62263000 0.64417303 0.000000
0.49452901 0.62263000 -0.36837801 0.000000
0.34099501 0.62263000 0.20210600 0.000000
-0.19775100 0.62263000 -0.65228701 0.000000
0.55088598 0.62263000 0.30643100 0.000000
0.11832800 0.62263000 0.29417801 0.000000
-0.46949899 0.62263000 -0.37953001 0.000000
-0.31816399 0.62263000 -0.56760001 0.000000
-0.11158400 0.62263000 -0.43386900 0.000000
0.65023601 0.62263000 0.15211600 0.000000
0.35613400 0.62263000 0.25591600 0.000000
0.71798003 0.62263000 -0.05208300 0.000000
-0.32255301 0.62263000 -0.02354200 0.000000
0.54079503 0.62263000 -0.10654800 0.000000
-0.01809000 0.62263000 -0.57041901 0.000000
-0.52715302 0.62060601 0.56048501 0.000000
0.69031698 0.62263000 -0.24149500 0.000000
-0.33155599 0.62263000 0.12799400 0.000000
0.65162200 0.62263000 0.22797801 0.000000
-0.57851499 0.62263000 -0.34069100 0.000000
-0.09270500 0.62263000 -0.39734301 0.000000
0.42579901 0.62263000 -0.08157700 0.000000
0.20607500 0.62263000 0.45861199 0.000000
0.05377400 0.62263000 -0.49935499 0.000000
0.33811700 0.62263000 -0.15732799 0.000000
-0.41938701 0.62263000 -0.52803200 0.000000
0.63162398 0.62263000 0.42116001 0.000000
-0.01641500 0.62263000 0.43092999 0.000000
-0.03862700 0.62263000 0.45820799 0.000000
0.10446800 0.62263000 0.44159701 0.000000
-0.37130299 0.62263000 0.38654801 0.000000
0.73572397 0.62263000 -0.03247500 0.000000
0.25529400 0.62263000 0.53311300 0.000000
-0.41527501 0.62263000 0.07011500 0.000000
-0.17880200 0.62263000 -0.63684303 0.000000
0.14811900 0.62263000 -0.66920102 0.000000
0.04112500 0.62263000 -0.59822601 0.000000
0.52667099 0.62263000 0.49138501 0.000000
0.52422303 0.62263000 -0.49292701 0.000000
0.40956500 0.62263000 0.10354400 0.000000
-0.59707803 0.62263000 0.12400600 0.000000
-0.36490300 0.62263000 0.65711099 0.000000
-0.00920900 0.62263000 -0.60534298 0.000000
0.50654101 0.62263000 0.37823501 0.000000
0.38275701 0.62263000 0.63608599 0.000000
0.54592699 0.62263000 0.01346100 0.000000
0.37288901 0.62263000 0.38063699 0.000000
0.13554899 0.62263000 0.51979399 0.000000
0.37175700 0.62263000 0.05694100 0.000000
0.33928099 0.62263000 0.29405999 0.000000
-0.03304300 0.62263000 -0.57828498 0.000000
-0.38639700 0.62263000 0.21508300 0.000000
0.46046400 0.62263000 0.18899800 0.000000
0.55400801 0.62263000 -0.29995599 0.000000
-0.41110000 0.62263000 -0.50502002 0.000000
-0.21112201 0.62263000 -0.56189698 0.000000
0.13802800 0.62263000 0.52593797 0.000000
0.26341701 0.61901402 -0.17518300 0.000000
-0.41399100 0.62263000 -0.44309300 0.000000
-0.22726800 0.62263000 0.39932099 0.000000
-0.10874900 0.62263000 -0.59463799 0.000000
0.07905100 0.62263000 -0.37647000 0.000000
-0.20141201 0.62263000 0.31855199 0.000000
0.35592300 0.62263000 -0.56906599 0.000000
-0.35797700 0.62263000 -0.24914700 0.000000
-0.32342601 0.62263000 -0.25642201 0.000000
0.54647797 0.62263000 0.14312699 0.000000
0.60123402 0.62263000 0.00330000 0.000000
0.49479401 0.62263000 -0.47255799 0.000000
0.66807300 0.62263000 -0.03995100 0.000000
-0.24847500 0.62263000 -0.38286799 0.000000
-0.52390403 0.62263000 0.22275500 0.000000
-0.33708501 0.62263000 0.25486299 0.000000
-0.20007899 0.62263000 0.39395401 0.000000
-0.53979802 0.62263000 0.38799900 0.000000
-0.11954500 0.62263000 -0.53042400 0.000000
-0.10138400 0.62263000 -0.61430502 0.000000
-0.21329799 0.62263000 0.52112502 0.000000
-0.24911200 0.62263000 -0.64365000 0.000000
-0.10018300 0.62263000 0.68195200 0.000000
-0.41147599 0.62263000 0.08089500 0.000000
-0.64566398 0.62263000 0.39224401 0.000000
0.48377600 0.62263000 0.18167900 0.000000
0.65187401 0.62263000 -0.08575000 0.000000
0.01914900 0.62263000 -0.63411301 0.000000
-0.66793299 0.62263000 0.24114500 0.000000
-0.07542000 0.62263000 0.74508798 0.000000
0.16425700 0.62263000 0.51539099 0.000000
-0.38463199 0.62263000 0.49278501 0.000000
-0.33075699 0.62263000 0.28558600 0.000000
0.31464201 0.62263000 0.34027699 0.000000
0.34942701 0.62263000 -0.08102900 0.000000
0.31985500 0.62263000 0.17988700 0.000000
-0.44438899 0.62263000 -0.42074999 0.000000
-0.20177600 0.62263000 -0.68692601 0.000000
-0.76469803 0.62263000 -0.05168000 0.000000
-0.07242200 0.62263000 0.75946498 0.000000
0.01255800 0.62263000 0.36839199 0.000000
0.57496500 0.62263000 0.44421700 0.000000
0.42470700 0.62263000 -0.47808000 0.000000
0.09845900 0.62263000 -0.59806699 0.000000
-0.19012401 0.62263000 0.65285802 0.000000
0.46686199 0.62263000 0.23596600 0.000000
-0.12872200 0.62263000 -0.56849003 0.000000
-0.58377701 0.62263000 -0.40523401 0.000000
0.52725101 0.62263000 0.41357100 0.000000
0.41129300 0.62263000 0.27802899 0.000000
0.18622901 0.62263000 0.56216198 0.000000
0.71357000 0.62263000 -0.04889800 0.000000
0.44119799 0.62263000 -0.46742201 0.000000
0.31225601 0.62263000 0.21416099 0.000000
0.32177299 0.62263000 -0.28698400 0.000000
0.45896000 0.62263000 -0.35565299 0.000000
0.52919698 0.62263000 0.31024700 0.000000
0.12733400 0.62263000 0.56339997 0.000000
0.00885300 0.62263000 -0.60721201 0.000000
-0.57328802 0.62263000 -0.37383601 0.000000
0.13050300 0.62263000 0.69672298 0.000000
0.24332400 0.62263000 -0.38094100 0.000000
0.37187001 0.62263000 -0.49623999 0.000000
0.52015001 0.62263000 -0.21412300 0.000000
0.39960700 0.62263000 0.26555899 0.000000
-0.32421100 0.62263000 0.13172400 0.000000
-0.51411498 0.62263000 -0.18386500 0.000000
-0.48495999 0.62263000 0.01720000 0.000000
0.42230299 0.62263000 -0.23222899 0.000000
0.39410001 0.62263000 -0.31472999 0.000000
0.47257301 0.62263000 0.28996500 0.000000
-0.09873900 0.62263000 0.66033101 0.000000
0.59021902 0.62263000 0.28617099 0.000000
-0.40305999 0.62263000 -0.24298599 0.000000
-0.34887001 0.62263000 -0.38563600 0.000000
0.48085701 0.62263000 -0.57888198 0.000000
0.35022601 0.62263000 0.51689601 0.000000
0.06939200 0.62263000 -0.44218701 0.000000
0.37968001 0.62095600 -0.68404597 0.000000
-0.39831001 0.62263000 -0.40549999 0.000000
0.33241299 0.62263000 0.41426900 0.000000
0.38739800 0.62263000 -0.53076500 0.000000
0.49511501 0.62263000 0.00597000 0.000000
-0.44759300 0.62263000 -0.15775900 0.000000
-0.01911600 0.62263000 -0.76658303 0.000000
-0.36258900 0.62263000 0.09595200 0.000000
-0.54360801 0.62263000 0.20385700 0.000000
-0.58333701 0.62263000 0.20606799 0.000000
0.37302399 0.62263000 0.41231099 0.000000
0.06254000 0.62263000 0.34920099 0.000000
0.07323700 0.62263000 -0.75879502 0.000000
0.58531201 0.62263000 -0.13667101 0.000000
0.49084201 0.62263000 -0.46693400 0.000000
0.30950600 0.62263000 0.70307201 0.000000
0.52786797 0.62263000 -0.17129999 0.000000
-0.35734901 0.62263000 0.62252802 0.000000
0.69517702 0.62263000 -0.02455500 0.000000
0.27829599 0.62263000 -0.37863299 0.000000
0.36223701 0.62263000 -0.20479301 0.000000
-0.26181701 0.61859399 -0.16402800 0.000000
-0.40807399 0.62263000 -0.02399700 0.000000
0.20114601 0.62263000 0.35532701 0.000000
-0.66611397 0.62263000 -0.08873300 0.000000
-0.29635000 0.62263000 0.42776701 0.000000
-0.48137301 0.62263000 -0.22685100 0.000000
0.35457999 0.62263000 0.04425400 0.000000
0.55746597 0.62263000 -0.40738201 0.000000
0.43647900 0.61822200 -0.64977902 0.000000
-0.23926499 0.62263000 -0.57534701 0.000000
0.24203700 0.62263000 -0.69124299 0.000000
0.38499400 0.62263000 0.19767000 0.000000
0.05919300 0.62263000 0.75414401 0.000000
-0.18457299 0.62263000 -0.27845600 0.000000
-0.54968101 0.62263000 -0.32126299 0.000000
0.42649201 0.62263000 0.46131101 0.000000
0.32804701 0.62263000 -0.48389399 0.000000
-0.29547200 0.62263000 -0.29158899 0.000000
0.68848699 0.62263000 0.31617299 0.000000
0.45818001 0.62263000 -0.17772800 0.000000
0.51373899 0.62263000 0.10797900 0.000000
0.56008297 0.62263000 0.19167601 0.000000
0.25300601 0.62263000 -0.40089500 0.000000
0.19815500 0.62263000 -0.55114001 0.000000
0.21576600 0.62263000 0.69923699 0.000000
-0.30331600 0.62263000 -0.11504800 0.000000
-0.04433300 0.62263000 0.66376501 0.000000
-0.59305203 0.62263000 -0.06728100 0.000000
0.56332397 0.62263000 -0.48814800 0.000000
-0.25665501 0.62263000 0.47964001 0.000000
0.49444500 0.62263000 -0.12782300 0.000000
0.27029300 0.62263000 -0.50041300 0.000000
0.55123103 0.62263000 0.34427500 0.000000
-0.73874700 0.62263000 -0.10159900 0.000000
0.24572600 0.62263000 0.73216802 0.000000
-0.68862098 0.62263000 0.07860000 0.000000
0.22586800 0.62263000 -0.28056499 0.000000
0.48294699 0.62263000 -0.15957101 0.000000
-0.18348400 0.62263000 -0.53008300 0.000000
-0.27764201 0.62263000 -0.37835199 0.000000
-0.34465200 0.62263000 -0.66545802 0.000000
-0.54821700 0.62263000 -0.39789900 0.000000
0.52936298 0.62263000 -0.39199200 0.000000
0.07615400 0.62263000 0.42787600 0.000000
-0.09057300 0.62263000 0.68889999 0.000000
-0.42408699 0.62263000 0.14673400 0.000000
0.51799399 0.62263000 -0.34459400 0.000000
-0.58260202 0.61793798 0.50241399 0.000000
0.43889499 0.62263000 -0.33339599 0.000000
0.48728999 0.62263000 0.43368900 0.000000
-0.56624502 0.62263000 0.01532400 0.000000
-0.25710401 0.62263000 0.56917900 0.000000
-0.69641697 0.62263000 0.14474300 0.000000
0.07039500 0.62263000 0.59453797 0.000000
0.22905301 0.62263000 -0.34294900 0.000000
-0.00652200 0.62263000 0.57213497 0.000000
-0.16066000 0.62263000 0.70053899 0.000000
0.37217000 0.62263000 -0.15816200 0.000000
-0.03836200 0.62263000 -0.63092202 0.000000
-0.39680499 0.62263000 -0.65524203 0.000000
0.30079100 0.62263000 -0.47476199 0.000000
0.63173598 0.62263000 0.04409400 0.000000
-0.53701001 0.62263000 0.36469501 0.000000
0.42890000 0.62263000 0.06304200 0.000000
0.58351398 0.62094498 -0.52148801 0.000000
0.17242800 0.62263000 -0.36567399 0.000000
-0.56720698 0.62263000 -0.29908901 0.000000
-0.00886800 0.62263000 -0.77890199 0.000000
-0.23491700 0.62263000 0.67847198 0.000000
0.19738699 0.62263000 -0.72870302 0.000000
0.47865200 0.62182897 -0.61985600 0.000000
0.07839000 0.62263000 0.64880502 0.000000
-0.53268301 0.62263000 0.13615900 0.000000
-0.11073100 0.62263000 0.39165601 0.000000
0.46546200 0.62263000 0.17160800 0.000000
-0.11953200 0.62263000 -0.56956100 0.000000
0.30712801 0.62263000 -0.48693201 0.000000
0.64683598 0.62263000 0.25398800 0.000000
-0.07601000 0.62263000 -0.68891197 0.000000
-0.27806100 0.62263000 0.18318900 0.000000
-0.24613500 0.62263000 0.49328300 0.000000
-0.53608102 0.62263000 -0.29407600 0.000000
0.13733201 0.62263000 0.44122800 0.000000
0.30871499 0.62263000 -0.31114101 0.000000
-0.33013999 0.62263000 0.26730299 0.000000
0.66998899 0.62263000 0.02756200 0.000000
0.34034801 0.62263000 0.13690600 0.000000
-0.45701599 0.62263000 -0.22160099 0.000000
0.74346602 0.62263000 -0.07244700 0.000000
0.42493701 0.62263000 -0.46505600 0.000000
-0.36217600 0.62263000 -0.09275500 0.000000
0.00356700 0.62263000 0.38334700 0.000000
-0.41920501 0.62263000 0.63435203 0.000000
-0.36957699 0.62263000 0.33676901 0.000000
-0.45170400 0.62263000 -0.15424301 0.000000
-0.62262702 0.62263000 -0.45740601 0.000000
0.72508299 0.62263000 0.22340700 0.000000
-0.56007302 0.62263000 -0.23694500 0.000000
-0.67999101 0.62263000 -0.13993300 0.000000
0.42496601 0.62263000 0.50928199 0.000000
-0.28572300 0.62263000 0.60653001 0.000000
0.34448901 0.62263000 -0.41850400 0.000000
0.22185600 0.62263000 0.55995703 0.000000
-0.21861100 0.61911100 0.20982900 0.000000
-0.63446897 0.62263000 -0.17589600 0.000000
0.36436701 0.62263000 0.31591600 0.000000
-0.48404601 0.62263000 -0.34150299 0.000000
-0.45943299 0.62263000 -0.50507402 0.000000
0.32495600 0.62263000 -0.66927099 0.000000
-0.15990900 0.62263000 0.62742299 0.000000
-0.65761602 0.62263000 -0.00972800 0.000000
-0.10197700 0.62263000 0.48170701 0.000000
0.26848900 0.62263000 0.29468900 0.000000
0.01412600 0.62263000 -0.51828700 0.000000
0.47355899 0.62263000 -0.21582900 0.000000
0.49086499 0.62263000 0.21498799 0.000000
-0.42798200 0.62263000 0.34449801 0.000000
0.11711900 0.62263000 -0.62854302 0.000000
-0.51247799 0.62263000 -0.33839101 0.000000
-0.27871001 0.62263000 0.71213597 0.000000
0.25079700 0.62263000 0.36691001 0.000000
-0.14050400 0.62263000 0.72785997 0.000000
-0.39420599 0.62263000 -0.47391200 0.000000
0.34799701 0.62263000 -0.20415600 0.000000
-0.67702699 0.62100798 0.36572599 0.000000
-0.64393800 0.62263000 -0.34742799 0.000000
0.46306899 0.61601901 0.62134802 0.000000
0.33694500 0.62263000 -0.69340599 0.000000
0.67556900 0.62263000 -0.08351600 0.000000
0.71718001 0.62263000 -0.18460600 0.000000
0.44995600 0.62263000 -0.59993201 0.000000
-0.38892800 0.62263000 0.26911101 0.000000
0.59889001 0.62263000 -0.22073901 0.000000
0.39874601 0.62263000 -0.29754001 0.000000
-0.05114700 0.62263000 0.64093101 0.000000
-0.06866100 0.62263000 -0.67140800 0.000000
0.12911600 0.62263000 -0.36384901 0.000000
0.65508598 0.62263000 -0.00636900 0.000000
-0.61673802 0.62263000 -0.38358700 0.000000
-0.66633099 0.62263000 -0.17292200 0.000000
0.10118400 0.62263000 0.62304199 0.000000
0.47743601 0.62263000 -0.10915600 0.000000
-0.68339199 0.62263000 -0.02220400 0.000000
0.29068300 0.62263000 -0.71783900 0.000000
-0.12630001 0.62263000 -0.46132800 0.000000
0.11074700 0.62263000 0.73211801 0.000000
0.72991002 0.62262601 -0.28148001 0.000000
-0.47700301 0.62263000 0.07575600 0.000000
0.60211301 0.62263000 0.16316800 0.000000
0.65451902 0.62263000 0.33877000 0.000000
0.24119399 0.62263000 -0.42626101 0.000000
0.10848100 0.62263000 0.53422201 0.000000
0.02919000 0.62263000 0.58893198 0.000000
-0.45083201 0.62263000 0.01278800 0.000000
0.24572200 0.62263000 0.48302799 0.000000
0.34566501 0.62263000 -0.41611800 0.000000
-0.08824300 0.62263000 -0.45250201 0.000000
-0.03194800 0.62263000 -0.46380299 0.000000
-0.44031900 0.62263000 0.10288100 0.000000
0.00219000 0.62263000 0.40487999 0.000000
-0.48951301 0.62263000 -0.41579399 0.000000
-0.21892500 0.62263000 0.42754799 0.000000
0.42179799 0.62263000 0.47911701 0.000000
0.60773301 0.62263000 -0.33897701 0.000000
-0.41787800 0.62263000 -0.40007901 0.000000
-0.17137000 0.62263000 -0.63532901 0.000000
-0.35911801 0.62263000 0.52481103 0.000000
-0.42580399 0.62263000 0.51444697 0.000000
0.04221500 0.62263000 -0.64621502 0.000000
0.39779899 0.62263000 -0.13018200 0.000000
-0.22343700 0.62263000 0.59818298 0.000000
0.33113000 0.62263000 -0.56569397 0.000000
0.28022599 0.62263000 -0.31158501 0.000000
-0.50861400 0.62263000 0.49937800 0.000000
0.20141400 0.62263000 0.64506000 0.000000
-0.17858300 0.62263000 0.55654001 0.000000
-0.20158300 0.62263000 0.23623700 0.000000
0.19656500 0.62263000 0.35589001 0.000000
0.40208599 0.62263000 0.02117400 0.000000
-0.63305598 0.62263000 0.39484900 0.000000
0.00982000 0.62263000 -0.34510100 0.000000
-0.20977899 0.62263000 -0.50579500 0.000000
0.62830299 0.62263000 0.38591701 0.000000
-0.45436999 0.62263000 -0.10589500 0.000000
-0.03379700 0.62263000 -0.43965700 0.000000
-0.16960201 0.62263000 -0.67281902 0.000000
0.31017700 0.62263000 0.64098501 0.000000
-0.53529900 0.62263000 -0.16540800 0.000000
0.22654900 0.62263000 0.61484802 0.000000
-0.19333000 0.62263000 -0.73931098 0.000000
0.60136801 0.62263000 0.04007400 0.000000
-0.00370200 0.62263000 -0.47371799 0.000000
0.40428501 0.62263000 -0.24324200 0.000000
0.44500801 0.62263000 0.05335800 0.000000
0.01936800 0.62263000 0.57654399 0.000000
0.38921699 0.62263000 0.50385100 0.000000
0.38395199 0.62263000 0.61846697 0.000000
-0.61499202 0.62263000 0.27743101 0.000000
0.27757999 0.62263000 0.19436800 0.000000
0.47858199 0.62263000 -0.44070601 0.000000
0.27803299 0.62263000 0.60401398 0.000000
0.23607400 0.62263000 -0.24109399 0.000000
0.06603100 0.62263000 -0.58172703 0.000000
-0.06772500 0.62263000 0.53437501 0.000000
-0.24962500 0.62263000 0.21436000 0.000000
-0.29786199 0.62263000 0.47632799 0.000000
-0.61553299 0.62263000 0.16309901 0.000000
0.46087500 0.62263000 0.11157800 0.000000
0.16902199 0.62263000 -0.70328599 0.000000
-0.28096101 0.62263000 -0.28339300 0.000000
0.10813900 0.62263000 -0.63489699 0.000000
-0.04563100 0.62263000 0.35653201 0.000000
0.47398400 0.62263000 -0.59563297 0.000000
0.33915800 0.62263000 -0.06888500 0.000000
-0.43310699 0.62263000 0.08274100 0.000000
-0.51651001 0.62263000 -0.08849100 0.000000
0.42387399 0.62263000 -0.38712299 0.000000
-0.29647100 0.62263000 -0.17264000 0.000000
0.48103699 0.62263000 -0.60777998 0.000000
-0.40432400 0.62263000 0.50663102 0.000000
-0.31717601 0.62263000 -0.24920000 0.000000
0.59808999 0.62263000 0.12333400 0.000000
-0.35621300 0.62263000 0.25614300 0.000000
0.36704001 0.62263000 0.35154301 0.000000
-0.66617000 0.62263000 -0.26211199 0.000000
0.16519099 0.62263000 -0.71435499 0.000000
0.25043699 0.62263000 -0.70604801 0.000000
-0.25888401 0.61993402 0.72585201 0.000000
0.64641702 0.62263000 -0.40282401 0.000000
-0.70776200 0.62263000 0.01908100 0.000000
-0.40357599 0.62263000 -0.63297200 0.000000
-0.46953899 0.62263000 -0.24478699 0.000000
0.45589200 0.62263000 -0.43680501 0.000000
0.43812200 0.62263000 -0.61292398 0.000000
0.46425501 0.62263000 -0.51148498 0.000000
0.65853101 0.62263000 -0.00390400 0.000000
-0.38642001 0.62263000 -0.25552499 0.000000
-0.53396499 0.62263000 0.11886200 0.000000
-0.03789300 0.62263000 0.46126601 0.000000
-0.23250900 0.62263000 0.25751099 0.000000
0.13980000 0.62263000 -0.75042099 0.000000
-0.51805198 0.62263000 0.26799500 0.000000
0.06998800 0.62263000 -0.57792097 0.000000
0.37898600 0.62263000 -0.63351899 0.000000
0.06655200 0.62263000 -0.62456203 0.000000
0.46167099 0.62263000 -0.38520300 0.000000
0.19216500 0.62263000 -0.37159100 0.000000
0.38543001 0.62263000 0.47031799 0.000000
-0.32483599 0.62263000 0.29584199 0.000000
-0.04962400 0.62263000 0.44564301 0.000000
-0.42863101 0.62263000 0.53843802 0.000000
-0.04300400 0.62263000 -0.47145301 0.000000
-0.76813298 0.61567599 0.07132200 0.000000
0.29536900 0.62263000 0.52749699 0.000000
-0.32551399 0.62263000 0.39231199 0.000000
-0.67243999 0.62263000 -0.35020199 0.000000
-0.12658501 0.62263000 0.59789401 0.000000
-0.66222203 0.62263000 0.04250700 0.000000
0.39292601 0.62263000 0.04443100 0.000000
-0.68074900 0.62263000 0.33408201 0.000000
0.62003702 0.62263000 0.18649399 0.000000
-0.57794499 -0.62074900 0.11722700 1.000000
0.64886397 -0.62074900 -0.14858100 1.000000
-0.64821899 -0.62074900 0.25511900 1.000000
0.10517600 -0.62074900 0.39546800 1.000000
0.67520303 -0.62074900 -0.18945999 1.000000
-0.07405600 -0.62074900 0.73278803 1.000000
0.45998400 -0.62074900 0.39665300 1.000000
-0.65971100 -0.62074900 -0.20209900 1.000000
0.57796001 -0.62074900 0.23479199 1.000000
0.49025601 -0.62074900 -0.08654500 1.000000
0.57501900 -0.62074900 0.23992100 1.000000
0.31643701 -0.62074900 0.51178801 1.000000
0.40641999 -0.62074900 -0.61476499 1.000000
-0.43957701 -0.62074900 0.30632401 1.000000
0.59770501 -0.62074900 0.36036700 1.000000
0.16455100 -0.62074900 -0.73993403 1.000000
0.64352298 -0.62074900 0.01766600 1.000000
-0.01927100 -0.62074900 -0.37781999 1.000000
-0.17379500 -0.62074900 -0.54463100 1.000000
-0.56092101 -0.62074900 -0.36500299 1.000000
0.50844902 -0.62074900 0.08535800 1.000000
0.02412000 -0.62074900 0.40754399 1.000000
0.25137699 -0.62074900 -0.56149298 1.000000
-0.26813701 -0.62074900 -0.41720501 1.000000
0.12357500 -0.62074900 0.43087399 1.000000
0.26088801 -0.62074900 -0.30086499 1.000000
0.35405001 -0.62074900 0.59580302 1.000000
-0.57316798 -0.62074900 0.25905401 1.000000
-0.51255500 -0.62074900 0.47380301 1.000000
-0.08994800 -0.62074900 0.60464603 1.000000
0.00288400 -0.62074900 -0.57099098 1.000000
0.22061700 -0.62074900 -0.25670001 1.000000
0.48338500 -0.62067097 0.60693300 1.000000
0.12179300 -0.62074900 -0.47082800 1.000000
0.62455302 -0.62074900 0.08952000 1.000000
-0.52551198 -0.62074900 0.22990400 1.000000
0.17830200 -0.62074900 -0.63394803 1.000000
-0.42959899 -0.62074900 -0.38568199 1.000000
-0.01614800 -0.62074900 0.60602599 1.000000
-0.34769499 -0.62074900 0.12032400 1.000000
-0.00859900 -0.62074900 0.55497801 1.000000
0.00163300 -0.62074900 -0.34524000 1.000000
0.57176799 -0.62074900 -0.22258800 1.000000
0.56351298 -0.62074900 0.32059899 1.000000
0.33907300 -0.62074900 -0.25861201 1.000000
-0.05054800 -0.62074900 0.38141501 1.000000
-0.41503301 -0.62074900 -0.21437800 1.000000
-0.06605900 -0.62074900 0.61276001 1.000000
-0.10909600 -0.62074900 -0.44387099 1.000000
0.10418500 -0.62074900 0.71167803 1.000000
-0.45628899 -0.62074900 0.31512401 1.000000
0.62230200 -0.62074900 -0.29577601 1.000000
-0.40371200 -0.62074900 -0.65529102 1.000000
0.10639500 -0.62074900 -0.41723499 1.000000
0.22075900 -0.62000000 0.21709201 1.000000
0.03213800 -0.62074900 -0.68960398 1.000000
0.13642099 -0.62074900 -0.75852102 1.000000
-0.07146500 -0.62074900 0.29874599 1.000000
0.26772001 -0.62074900 0.69523799 1.000000
-0.67479497 -0.62074900 -0.12445900 1.000000
0.27749601 -0.62074900 -0.23912500 1.000000
0.31176099 -0.62074900 -0.30436599 1.000000
-0.09424600 -0.62074900 -0.45199201 1.000000
0.76121598 -0.62074900 0.10338500 1.000000
0.34813100 -0.62074900 0.00131900 1.000000
0.57772702 -0.62074900 0.28512800 1.000000
0.52675998 -0.62074900 0.16997200 1.000000
0.09722100 -0.62074900 -0.46098199 1.000000
0.39101601 -0.62074900 0.04415900 1.000000
0.01370000 -0.62074900 -0.51977301 1.000000
-0.47871101 -0.62074900 -0.09057100 1.000000
0.30996600 -0.62074900 0.42690200 1.000000
-0.21601500 -0.62074900 -0.38403699 1.000000
0.34770301 -0.62074900 0.37372601 1.000000
-0.44860899 -0.62074900 -0.20096000 1.000000
-0.68550700 -0.62074900 0.20330100 1.000000
0.24839599 -0.62074900 0.40098301 1.000000
-0.72464502 -0.62074900 0.05675000 1.000000
-0.59913200 -0.62074900 -0.48717400 1.000000
-0.44132501 -0.62074900 0.59254998 1.000000
0.16150799 -0.62074900 0.45979899 1.000000
-0.30740401 -0.62074900 0.37374800 1.000000
0.19485900 -0.62074900 -0.26653501 1.000000
-0.27114201 -0.62074900 0.63353199 1.000000
0.50700802 -0.62074900 -0.26030499 1.000000
0.71931797 -0.62074900 0.15093701 1.000000
-0.65688801 -0.62074900 0.26188999 1.000000
0.57737303 -0.62074900 0.39125699 1.000000
0.12183700 -0.62074900 0.31611899 1.000000
-0.58052701 -0.62074900 -0.49136499 1.000000
-0.00907100 -0.62074900 0.74377698 1.000000
-0.57947803 -0.62074900 0.31652600 1.000000
-0.61656600 -0.62074900 0.14060800 1.000000
-0.21032999 -0.62074900 -0.69360298 1.000000
-0.37187001 -0.61632699 0.67359602 1.000000
0.44378400 -0.62074900 0.25050399 1.000000
0.20320199 -0.62074900 0.23501199 1.000000
0.36254701 -0.62074900 0.50398397 1.000000
0.44872701 -0.62074900 0.61619300 1.000000
-0.06932800 -0.62074900 0.69100797 1.000000
0.29854399 -0.62074900 0.56457901 1.000000
0.45214400 -0.62074900 0.26738200 1.000000
-0.47260001 -0.62074900 0.49600899 1.000000
0.36979601 -0.62074900 0.34348401 1.000000
0.36330801 -0.62074900 -0.67239398 1.000000
0.00004600 -0.62074900 -0.72905499 1.000000
0.29258701 -0.62074900 0.26473799 1.000000
-0.51364899 -0.62074900 -0.26227999 1.000000
0.31049299 -0.62074900 0.32341200 1.000000
0.65924501 -0.62074900 0.09974400 1.000000
-0.12136700 -0.62074900 -0.49746099 1.000000
0.33113101 -0.62074900 -0.17422201 1.000000
0.66804999 -0.62074900 0.39420399 1.000000
-0.20761700 -0.62074900 0.36647099 1.000000
0.35054600 -0.62074900 -0.19036900 1.000000
-0.18424700 -0.62074900 -0.47132900 1.000000
0.33235699 -0.62074900 0.19427800 1.000000
-0.49453500 -0.62074900 -0.54227799 1.000000
-0.45022500 -0.62074900 -0.40514001 1.000000
0.11790400 -0.62074900 -0.73438698 1.000000
-0.65367198 -0.62074900 -0.18648399 1.000000
-0.44927201 -0.62074900 -0.39647201 1.000000
0.16402601 -0.62074900 -0.66310698 1.000000
0.45621800 -0.62074900 0.61123902 1.000000
-0.24860001 -0.62074900 -0.22907700 1.000000
0.28078499 -0.62074900 -0.25021699 1.000000
-0.66887099 -0.62038201 -0.39004701 1.000000
0.39234799 -0.62074900 0.55817199 1.000000
