0.09787800 -0.04348600 0.28200501 2.000000
0.29843700 -0.04348600 -0.41152200 2.000000
-0.61230999 -0.04348600 0.17260900 2.000000
0.40002301 -0.04348600 -0.16600700 2.000000
-0.66018403 -0.04348600 0.04510000 2.000000
-0.27620199 -0.04348600 -0.22659600 2.000000
-0.05988600 -0.04348600 -0.48321199 2.000000
-0.71427000 -0.04348600 0.37273800 2.000000
-0.23490700 -0.04348600 0.12778801 2.000000
-0.17463000 -0.04348600 0.35983899 2.000000
0.20778701 -0.04348600 0.12350000 2.000000
0.73460501 -0.04348600 -0.20078699 2.000000
0.46200800 -0.04348600 -0.23769800 2.000000
-0.39335999 -0.04348600 0.60341603 2.000000
0.13209100 -0.04348600 0.42663899 2.000000
0.19011100 -0.04348600 -0.17932700 2.000000
0.50979400 -0.04348600 0.17903499 2.000000
0.31083700 -0.04348600 0.17279799 2.000000
0.34976900 -0.04348600 -0.13551600 2.000000
-0.43167499 -0.04348600 0.25869599 2.000000
-0.58277702 -0.04348600 0.41064799 2.000000
0.31902099 -0.04348600 0.45689899 2.000000
0.47907299 -0.04348600 -0.36490300 2.000000
-0.40037999 -0.04348600 0.07141400 2.000000
-0.14842100 -0.04348600 -0.47615099 2.000000
-0.41813001 -0.04348600 -0.11918300 2.000000
0.42492199 -0.04348600 -0.61180502 2.000000
-0.38624299 -0.04348600 -0.61211199 2.000000
0.68646097 -0.04348600 0.47755900 2.000000
-0.67412299 -0.04348600 0.34715301 2.000000
-0.29384699 -0.04348600 -0.44492999 2.000000
-0.44097701 -0.04348600 -0.62828398 2.000000
-0.45586601 -0.04348600 0.21275300 2.000000
0.49921900 -0.04348600 0.44858399 2.000000
0.59939599 -0.04348600 0.32063100 2.000000
-0.71737301 -0.04348600 0.55323899 2.000000
-0.23721100 -0.04348600 0.07391300 2.000000
-0.18231000 -0.04348600 -0.50208402 2.000000
-0.72012198 -0.04348600 0.13285400 2.000000
0.36639801 -0.04348600 0.18864700 2.000000
-0.21520300 -0.04348600 -0.07166500 2.000000
-0.06086400 -0.04348600 0.26663500 2.000000
0.52677202 -0.04348600 -0.07578400 2.000000
-0.32008800 -0.04348600 -0.07362900 2.000000
-0.56503397 -0.04348600 -0.19807100 2.000000
-0.61263400 -0.04348600 0.52351600 2.000000
0.07009900 -0.04348600 0.28063601 2.000000
0.72634703 -0.04348600 -0.62642300 2.000000
0.41161299 -0.04348600 -0.18793400 2.000000
0.55190402 -0.04348600 -0.25428399 2.000000
0.45121300 -0.04348600 0.06952400 2.000000
-0.42936900 -0.04348600 0.14501600 2.000000
0.34842300 -0.04348600 0.63067698 2.000000
-0.11863500 -0.04348600 0.29119599 2.000000
0.24032700 -0.04348600 0.54888499 2.000000
0.33478299 -0.04348600 -0.56631798 2.000000
0.65566999 -0.04224300 -0.66137803 2.000000
-0.16174400 -0.04311500 0.14801000 2.000000
-0.14099100 -0.04348600 -0.37431401 2.000000
-0.62104702 -0.04348600 0.45502600 2.000000
-0.55441397 -0.04348600 0.28616199 2.000000
-0.16937900 -0.04348600 0.33398399 2.000000
-0.40164301 -0.04348600 0.13457400 2.000000
0.06004100 -0.04348600 0.33252501 2.000000
-0.49146301 -0.04348600 -0.47907799 2.000000
-0.50724900 -0.04348600 -0.08669400 2.000000
-0.57946199 -0.04348600 0.21270700 2.000000
-0.25289899 -0.04348600 0.37335300 2.000000
0.33298701 -0.04348600 -0.31211600 2.000000
-0.62787497 -0.04348600 0.10438600 2.000000
0.69664800 -0.04348600 0.31239301 2.000000
0.21850900 -0.04348600 0.54913902 2.000000
-0.65442502 -0.04348600 0.40001699 2.000000
-0.60048199 -0.04348600 0.16621900 2.000000
-0.61170202 -0.04348600 -0.04210500 2.000000
0.66877002 -0.04348600 -0.46867299 2.000000
0.23804601 -0.04348600 0.48418200 2.000000
-0.19159301 -0.04348600 -0.64374000 2.000000
-0.35823199 -0.04348600 0.24631000 2.000000
0.55472201 -0.04348600 0.62688297 2.000000
-0.19216301 -0.04348600 -0.54024798 2.000000
0.29532900 -0.04348600 0.12949100 2.000000
-0.02811000 -0.04348600 0.39911801 2.000000
0.17747600 -0.04348600 0.16578500 2.000000
0.72212797 -0.04348600 0.34735200 2.000000
0.61613899 -0.04348600 -0.58717000 2.000000
0.54155803 -0.04348600 0.56843299 2.000000
-0.14149600 -0.04348600 -0.27699301 2.000000
0.22305299 -0.04348600 -0.07353100 2.000000
0.62294197 -0.04348600 0.30799499 2.000000
-0.38160601 -0.04348600 0.03386800 2.000000
-0.45778400 -0.04348600 0.53909200 2.000000
0.66310000 -0.04348600 -0.14367101 2.000000
0.42912799 -0.04348600 0.02975900 2.000000
-0.56655198 -0.04348600 -0.45319000 2.000000
-0.15435700 -0.04348600 0.57608300 2.000000
0.62111503 -0.04348600 -0.55302501 2.000000
-0.73219198 -0.04348600 -0.26076600 2.000000
-0.08528300 -0.04348600 0.39271599 2.000000
0.29627100 -0.04348600 -0.28970399 2.000000
-0.26457500 -0.04348600 -0.21297900 2.000000
-0.47632000 -0.04348600 0.20883401 2.000000
0.30086699 -0.04348600 -0.55395901 2.000000
-0.70147800 -0.04348600 -0.14774600 2.000000
0.23514500 -0.04348600 -0.29355401 2.000000
-0.70627803 -0.04348600 -0.52050400 2.000000
0.07035000 -0.04348600 -0.30500001 2.000000
-0.64348400 -0.04348600 -0.41901499 2.000000
0.45844501 -0.04348600 -0.23854700 2.000000
0.44896701 -0.04348600 0.22760700 2.000000
0.21031199 -0.04348600 -0.08003400 2.000000
-0.21141000 -0.04348600 0.54273301 2.000000
-0.23086600 -0.04348600 -0.09412900 2.000000
-0.74076200 -0.04348600 0.61787301 2.000000
0.60367697 -0.04348600 0.61751997 2.000000
-0.22970700 -0.04348600 0.43239000 2.000000
-0.25770399 -0.04348600 -0.11379100 2.000000
-0.30174899 -0.04348600 0.60819399 2.000000
0.19550100 -0.04348600 -0.13895200 2.000000
-0.28092200 -0.04348600 -0.28534499 2.000000
-0.23134600 -0.04348600 -0.02744000 2.000000
0.48937199 -0.04348600 -0.34220800 2.000000
-0.52218902 -0.04348600 0.02553100 2.000000
0.52229702 -0.04348600 -0.63853598 2.000000
0.48488000 -0.04348600 0.07491500 2.000000
-0.02157400 -0.04348600 0.43746701 2.000000
0.07074100 -0.04348600 -0.40109301 2.000000
-0.69739699 -0.04348600 0.40658599 2.000000
0.42642501 -0.04348600 0.46061501 2.000000
-0.26910600 -0.04348600 -0.20968699 2.000000
0.37769601 -0.04348600 0.53103602 2.000000
-0.51241201 -0.04348600 -0.45043901 2.000000
0.71635097 -0.04348600 -0.53429699 2.000000
-0.17159501 -0.04348600 0.27942300 2.000000
-0.43324900 -0.04348600 0.24962500 2.000000
-0.39084801 -0.04348600 0.59657598 2.000000
0.29545799 -0.04348600 0.46814799 2.000000
0.57359397 -0.04348600 -0.32511300 2.000000
-0.19179600 -0.04348600 0.11775700 2.000000
0.61035597 -0.04348600 -0.17710400 2.000000
0.66052997 -0.04348600 0.53960103 2.000000
0.39042199 -0.04348600 -0.07515400 2.000000
-0.46748900 -0.04348600 0.05437900 2.000000
-0.59801197 -0.04348600 0.23160300 2.000000
0.30512100 -0.04348600 -0.57161301 2.000000
-0.05640400 -0.04348600 -0.27385700 2.000000
-0.20865799 -0.04348600 0.29768699 2.000000
-0.26406500 -0.04348600 -0.55454898 2.000000
0.26607499 -0.04348600 -0.00837200 2.000000
0.23943000 -0.04348600 -0.25266799 2.000000
-0.67589599 -0.04348600 -0.44209400 2.000000
-0.51281703 -0.04348600 -0.21420100 2.000000
-0.32788301 -0.04348600 -0.49324301 2.000000
0.46222800 -0.04348600 0.64868402 2.000000
-0.16260900 -0.04348600 -0.57466602 2.000000
0.05429700 -0.04348600 0.35518900 2.000000
0.13847899 -0.04348600 0.33609301 2.000000
-0.28449601 -0.04348600 0.61496300 2.000000
-0.46384901 -0.04348600 0.05944400 2.000000
0.48508200 -0.04348600 -0.58791900 2.000000
0.64249003 -0.04348600 0.47471601 2.000000
0.05202600 -0.04348600 -0.26221699 2.000000
-0.32181600 -0.04348600 -0.18531600 2.000000
0.07850300 -0.04348600 0.51566499 2.000000
-0.57137197 -0.04348600 0.40723300 2.000000
-0.61669201 -0.04348600 0.01076000 2.000000
-0.28080699 -0.04348600 0.41450599 2.000000
0.71680701 -0.04348600 -0.26765400 2.000000
0.59008902 -0.04348600 -0.49042699 2.000000
0.00354400 -0.04348600 0.25334799 2.000000
-0.40369001 -0.04348600 -0.32719401 2.000000
-0.31044900 -0.04348600 -0.13429300 2.000000
0.30752400 -0.04348600 0.49484199 2.000000
0.37318400 -0.04348600 0.01774800 2.000000
-0.64002001 -0.04348600 0.49570301 2.000000
-0.58680397 -0.04348600 0.19762900 2.000000
-0.60727900 -0.04348600 -0.47889501 2.000000
-0.68096203 -0.04348600 -0.37936199 2.000000
0.35527101 -0.04348600 0.00470400 2.000000
0.23293400 -0.04348600 0.53939998 2.000000
0.42176601 -0.04348600 0.13371900 2.000000
0.02161000 -0.04348600 0.63481098 2.000000
-0.69868398 -0.04348600 0.05763500 2.000000
-0.71498001 -0.04348600 -0.61835498 2.000000
-0.63783801 -0.04348600 0.54538900 2.000000
-0.31424999 -0.04348600 -0.16138899 2.000000
-0.74329197 -0.04348600 -0.00439700 2.000000
-0.02459200 -0.04348600 -0.55836701 2.000000
-0.51357597 -0.04348600 0.29359201 2.000000
0.47067600 -0.04348600 -0.36793199 2.000000
-0.31608400 -0.04348600 -0.25890899 2.000000
0.32929799 -0.04348600 -0.32589701 2.000000
0.13554101 -0.04348600 -0.20895100 2.000000
-0.64651000 -0.04348600 0.08501100 2.000000
-0.46413401 -0.04348600 0.10396900 2.000000
0.64153802 -0.04348600 0.19838600 2.000000
-0.70126802 -0.04348600 -0.52975398 2.000000
-0.26873001 -0.04348600 -0.43435499 2.000000
0.62860399 -0.04348600 0.17839500 2.000000
-0.30433601 -0.04348600 -0.53994101 2.000000
-0.18305400 -0.04348600 0.36525699 2.000000
0.45308700 -0.04348600 -0.40007600 2.000000
0.14761800 -0.04348600 -0.53106803 2.000000
0.06407100 -0.04348600 0.46191999 2.000000
0.62976700 -0.04348600 -0.12094900 2.000000
0.06681000 -0.04348600 -0.31276399 2.000000
0.40641600 -0.04348600 -0.65982002 2.000000
0.08270700 -0.04348600 0.54883099 2.000000
-0.58944398 -0.04348600 -0.51640999 2.000000
-0.02351400 -0.04348600 -0.26518500 2.000000
0.40522301 -0.04348600 0.34657300 2.000000
-0.35920101 -0.04348600 -0.58917999 2.000000
0.48912799 -0.04348600 0.32317999 2.000000
0.20084900 -0.04348600 0.53553802 2.000000
0.34145999 -0.04348600 -0.57593298 2.000000
0.03232000 -0.04348600 -0.41863799 2.000000
0.02419200 -0.04348600 -0.58771300 2.000000
0.69959098 -0.04348600 -0.54819602 2.000000
-0.47963199 -0.04348600 0.39782301 2.000000
-0.29442301 -0.04348600 0.51197797 2.000000
-0.44673800 -0.04348600 -0.47168499 2.000000
-0.52442801 -0.04348600 -0.60296398 2.000000
-0.38489100 -0.04348600 -0.43995199 2.000000
0.62268400 -0.04348600 -0.03210300 2.000000
-0.42524099 -0.04348600 0.41733801 2.000000
0.40042099 -0.04348600 0.33765200 2.000000
0.73538202 -0.04348600 0.61075401 2.000000
0.63542998 -0.04348600 -0.54562199 2.000000
-0.65966499 -0.04348600 -0.20414899 2.000000
-0.22670200 -0.04348600 0.53096300 2.000000
0.16084599 -0.04348600 0.46976501 2.000000
0.18609300 -0.04348600 -0.52629799 2.000000
0.60744101 -0.04348600 0.12854899 2.000000
0.20037200 -0.04348600 -0.43851000 2.000000
-0.33968800 -0.04348600 -0.16522001 2.000000
-0.45178601 -0.04348600 -0.03977400 2.000000
0.62521100 -0.04348600 0.13413800 2.000000
0.30972499 -0.04348600 0.40078300 2.000000
-0.33409399 -0.04348600 -0.36260301 2.000000
0.60696000 -0.04348600 -0.41830501 2.000000
-0.32342100 -0.04348600 -0.32266399 2.000000
-0.47092199 -0.04348600 -0.40562999 2.000000
0.27904499 -0.04348600 0.26923499 2.000000
0.15494600 -0.04348600 0.41771299 2.000000
0.57385302 -0.04348600 0.06516300 2.000000
-0.38676399 -0.04348600 0.30565199 2.000000
0.20854600 -0.04348600 -0.40342101 2.000000
0.12383100 -0.04348600 0.36017099 2.000000
-0.09281600 -0.04348600 -0.49182799 2.000000
-0.08769000 -0.04348600 -0.47961700 2.000000
-0.56294602 -0.04348600 0.55960202 2.000000
0.16615100 -0.04348600 -0.24496900 2.000000
0.55473298 -0.04348600 -0.17219201 2.000000
-0.68518001 -0.04348600 -0.55203599 2.000000
0.61478198 -0.04348600 0.38083100 2.000000
-0.59929299 -0.04348600 -0.13478300 2.000000
-0.50750500 -0.04348600 0.36656001 2.000000
-0.65750998 -0.04348600 -0.19605801 2.000000
0.59239501 -0.04348600 -0.50514698 2.000000
0.34952301 -0.04348600 -0.64258897 2.000000
0.23922201 -0.04348600 0.57749200 2.000000
0.22836100 -0.04348600 0.02054400 2.000000
-0.37327501 -0.04348600 0.36640599 2.000000
0.61553103 -0.04348600 0.13685600 2.000000
-0.61485600 -0.04348600 0.31564501 2.000000
-0.61475301 -0.04348600 -0.41324100 2.000000
-0.45832801 -0.04348600 0.06043600 2.000000
-0.65613902 -0.04348600 0.26568699 2.000000
-0.02959600 -0.04348600 0.25593299 2.000000
0.20794800 -0.04348600 0.34234300 2.000000
-0.05371000 -0.04348600 -0.50669903 2.000000
0.57159001 -0.04348600 -0.18828700 2.000000
0.40986899 -0.04348600 -0.02685900 2.000000
-0.49608499 -0.04348600 0.52012002 2.000000
-0.60074699 -0.04348600 -0.20467700 2.000000
0.50270200 -0.04348600 0.38866001 2.000000
-0.68883598 -0.04348600 -0.03970700 2.000000
0.62235302 -0.04348600 0.37335199 2.000000
-0.54672801 -0.04348600 -0.40547100 2.000000
-0.05669700 -0.04348600 0.29154700 2.000000
-0.03817300 -0.04348600 0.40662500 2.000000
-0.31613800 -0.04348600 0.37104800 2.000000
0.68270701 -0.04348600 -0.64228803 2.000000
0.15442801 -0.04348600 -0.35299799 2.000000
0.61781800 -0.04348600 0.49943399 2.000000
-0.03044700 -0.04348600 -0.51030803 2.000000
-0.52663898 -0.04348600 -0.22357599 2.000000
-0.63692302 -0.04348600 -0.11984800 2.000000
0.47718599 -0.04348600 -0.39672101 2.000000
-0.54054803 -0.04348600 0.55299503 2.000000
-0.34513599 -0.04348600 0.31758499 2.000000
-0.62643898 -0.04348600 0.62955099 2.000000
-0.02948900 -0.04348600 -0.43325600 2.000000
-0.26040500 -0.04348600 -0.62105298 2.000000
0.37733600 -0.04348600 -0.19771600 2.000000
0.64668202 -0.04348600 -0.61944699 2.000000
0.51177698 -0.04348600 -0.64162600 2.000000
-0.49860099 -0.04348600 -0.62062001 2.000000
-0.26186201 -0.04348600 0.55615503 2.000000
0.27314299 -0.04348600 0.38436201 2.000000
0.40154201 -0.04348600 -0.17915501 2.000000
0.18851000 -0.04348600 -0.21020199 2.000000
0.25472999 -0.04348600 -0.49715701 2.000000
0.53113198 -0.04348600 -0.08987800 2.000000
-0.24422100 -0.04348600 -0.17453900 2.000000
0.42414001 -0.04348600 -0.35174701 2.000000
-0.74118501 -0.04348600 0.49738300 2.000000
0.67522901 -0.04348600 -0.21630600 2.000000
0.46641901 -0.04348600 0.34489000 2.000000
-0.02645000 -0.04348600 0.59356499 2.000000
0.52630401 -0.04348600 0.58929503 2.000000
0.73074001 -0.04348600 0.36812800 2.000000
-0.13695499 -0.04348600 -0.20966800 2.000000
-0.31888899 -0.04348600 0.40156600 2.000000
-0.29195800 -0.04348600 0.52763700 2.000000
-0.62450302 -0.04348600 0.65116799 2.000000
0.33333299 -0.04348600 -0.37025699 2.000000
-0.71066397 -0.04348600 -0.31627801 2.000000
-0.52077001 -0.04348600 0.15037701 2.000000
0.57878399 -0.04348600 -0.38863999 2.000000
-0.44892401 -0.04348600 0.38026300 2.000000
0.56417000 -0.04348600 -0.14919800 2.000000
-0.05398800 -0.04348600 -0.64001298 2.000000
0.35048801 -0.04348600 -0.13268401 2.000000
0.68924302 -0.04348600 -0.37512600 2.000000
0.58152097 -0.04348600 -0.45559499 2.000000
-0.69150102 -0.04348600 0.59616500 2.000000
0.60285503 -0.04348600 0.36126399 2.000000
-0.65101498 -0.04348600 0.30501100 2.000000
-0.70229203 -0.04348600 -0.38910499 2.000000
0.69331199 -0.04348600 -0.62269002 2.000000
0.41090700 -0.04348600 0.55334198 2.000000
0.24783500 -0.04348600 -0.18076700 2.000000
0.04053400 -0.04348600 0.35634401 2.000000
0.31433001 -0.04348600 0.44912499 2.000000
-0.67463201 -0.04348600 0.24338900 2.000000
0.67217499 -0.04348600 0.55171299 2.000000
-0.37856600 -0.04348600 -0.56021398 2.000000
0.22637901 -0.04348600 0.03268200 2.000000
0.54603302 -0.04348600 0.40831500 2.000000
-0.64646697 -0.04348600 -0.22832300 2.000000
0.07212200 -0.04348600 -0.42359799 2.000000
-0.11681700 -0.04348600 0.43290600 2.000000
0.07382900 -0.04168200 -0.66137803 2.000000
-0.51469600 -0.04348600 -0.64879102 2.000000
-0.35957301 -0.04348600 -0.08869400 2.000000
0.04183900 -0.04348600 0.58936399 2.000000
-0.40172401 -0.04348600 0.56896198 2.000000
-0.72453201 -0.04348600 -0.26619500 2.000000
-0.05954900 -0.04348600 -0.49532101 2.000000
-0.51249498 -0.04348600 -0.19032399 2.000000
-0.42515501 -0.04348600 -0.31359801 2.000000
0.35531899 -0.04348600 0.23191400 2.000000
-0.59532201 -0.04348600 -0.30142701 2.000000
-0.50541198 -0.04348600 0.22346300 2.000000
0.34735301 -0.04348600 -0.00360000 2.000000
0.54288900 -0.04348600 0.51796597 2.000000
-0.54230398 -0.04348600 0.26493701 2.000000
0.31436700 -0.04348600 -0.65703201 2.000000
0.58632302 -0.04348600 -0.56614399 2.000000
0.27417499 -0.04348600 -0.31397900 2.000000
-0.68894798 -0.04348600 -0.25249001 2.000000
-0.18854000 -0.04348600 0.41597199 2.000000
0.60698998 -0.04348600 0.37155700 2.000000
-0.34457400 -0.04348600 -0.58127302 2.000000
-0.11571900 -0.04348600 0.62726498 2.000000
-0.51171201 -0.04348600 0.18202201 2.000000
-0.68725002 -0.04348600 0.49099001 2.000000
0.71015698 -0.04348600 -0.26773599 2.000000
0.69981498 -0.04348600 -0.25252199 2.000000
-0.68165100 -0.04348600 0.01498000 2.000000
-0.27741301 -0.04348600 -0.05214600 2.000000
-0.70651799 -0.04348600 0.24403600 2.000000
-0.68161500 -0.04348600 0.13024500 2.000000
0.41427699 -0.04348600 -0.38533300 2.000000
-0.16007000 -0.04348600 0.50176698 2.000000
-0.42901000 -0.04348600 -0.00405000 2.000000
0.34203300 -0.04348600 -0.64135301 2.000000
0.39114600 -0.04348600 -0.01976100 2.000000
-0.53644198 -0.04348600 0.19973400 2.000000
0.63638502 -0.04348600 -0.33678901 2.000000
-0.53437799 -0.04348600 -0.30009401 2.000000
-0.30911201 -0.04348600 0.41764000 2.000000
0.55029899 -0.04348600 0.17660700 2.000000
-0.31603900 -0.04348600 0.37043199 2.000000
0.45674101 -0.04348600 0.26522300 2.000000
-0.09986600 -0.04348600 -0.63812000 2.000000
-0.75004703 -0.04159900 0.20501600 2.000000
0.26951900 -0.04348600 -0.12148800 2.000000
-0.75004703 -0.02125000 -0.42831200 3.000000
-0.75004703 -0.02203600 0.59881401 3.000000
-0.75004703 -0.01641100 -0.43262401 3.000000
-0.75004703 -0.01352400 -0.30687401 3.000000
-0.75004703 0.00237400 0.05127900 3.000000
-0.75004703 -0.02438800 -0.64962202 3.000000
-0.75004703 0.02908400 0.14831300 3.000000
-0.75004703 0.01504000 0.54789799 3.000000
-0.75004703 0.00030500 0.52477401 3.000000
-0.75004703 -0.01874800 0.28450000 3.000000
-0.75004703 0.01548100 0.02995700 3.000000
-0.75004703 -0.00002100 0.15045100 3.000000
-0.75004703 0.03215600 0.40631199 3.000000
-0.75004703 0.02600200 -0.31009200 3.000000
-0.75004703 0.02880300 0.43979099 3.000000
-0.75004703 0.02780600 0.60235202 3.000000
-0.75004703 0.01181700 -0.34910199 3.000000
-0.75004703 0.02477500 -0.61152500 3.000000
-0.75004703 -0.01578200 -0.23051099 3.000000
-0.75004703 0.00210100 0.10515300 3.000000
-0.75004703 -0.02309000 -0.03076700 3.000000
-0.75004703 -0.01847500 -0.30676600 3.000000
-0.75004703 0.02862000 0.12403700 3.000000
-0.75004703 -0.01831500 -0.36174899 3.000000
-0.75004703 -0.00983700 -0.10146500 3.000000
-0.75004703 0.02571700 0.47907799 3.000000
-0.75004703 0.00151600 0.28731599 3.000000
-0.75004703 0.00368000 -0.12137100 3.000000
-0.75004703 -0.01570700 -0.43336400 3.000000
-0.75004703 0.03081200 -0.25300899 3.000000
-0.75004703 0.02439900 0.30694300 3.000000
-0.75004703 0.01564000 -0.26974100 3.000000
-0.75004703 0.00810600 0.00447900 3.000000
-0.75004703 0.03113200 -0.38915101 3.000000
-0.75004703 -0.00748300 0.51564503 3.000000
-0.75004703 0.02287900 0.26889500 3.000000
-0.75004703 -0.01450100 0.46070400 3.000000
-0.75004703 0.02288500 0.58871800 3.000000
-0.75004703 0.01626900 -0.59080499 3.000000
-0.75004703 -0.00725700 -0.19541401 3.000000
-0.75004703 -0.01088700 0.15635300 3.000000
-0.75004703 -0.00050000 -0.00016600 3.000000
-0.75004703 0.02413800 -0.59129202 3.000000
-0.75004703 0.00853600 0.12306100 3.000000
-0.75004703 -0.01419600 -0.14795201 3.000000
-0.75004703 0.03394400 0.06727700 3.000000
-0.75004703 -0.02263100 -0.26923600 3.000000
-0.75004703 0.03631000 0.24468499 3.000000
-0.75004703 -0.00353900 -0.32165799 3.000000
-0.75004703 0.01106900 0.31843600 3.000000
-0.75004703 -0.02505700 0.45009801 3.000000
-0.75004703 0.00640900 0.48982701 3.000000
-0.75004703 -0.01367800 0.30786800 3.000000
-0.75004703 0.01819500 0.32416901 3.000000
-0.75004703 -0.00232000 0.29616201 3.000000
-0.75004703 0.03548100 -0.13539299 3.000000
-0.75004703 -0.00350800 -0.20058800 3.000000
-0.75004703 -0.00139600 0.33253300 3.000000
-0.75004703 -0.02417700 -0.38482100 3.000000
-0.75004703 0.01460800 0.53547102 3.000000
-0.75004703 0.01230600 -0.33909601 3.000000
-0.75004703 -0.01439900 0.28584501 3.000000
-0.75004703 0.04067500 -0.52352703 3.000000
-0.75004703 -0.00750800 -0.54240400 3.000000
-0.75004703 -0.02078500 -0.35664499 3.000000
-0.75004703 -0.02160900 -0.04943300 3.000000
-0.75004703 -0.03014200 -0.25837901 3.000000
-0.75004703 0.00911700 0.50211400 3.000000
-0.75004703 0.01187000 0.31683901 3.000000
-0.75004703 0.00125800 -0.48093700 3.000000
-0.75004703 0.03868700 0.12911101 3.000000
-0.75004703 -0.01170300 0.53915203 3.000000
-0.75004703 0.00067200 -0.08401200 3.000000
-0.75004703 0.00903900 0.04161700 3.000000
-0.75004703 -0.03180000 -0.30361900 3.000000
-0.75004703 0.03392000 -0.00975500 3.000000
-0.75004703 0.00766700 0.40317300 3.000000
-0.75004703 0.00993500 0.30188200 3.000000
-0.75004703 -0.01944500 -0.04224400 3.000000
-0.75004703 0.03783900 -0.10512900 3.000000
-0.75004703 -0.03722900 -0.37757599 3.000000
-0.75004703 -0.02277700 0.42881399 3.000000
-0.75004703 -0.00322000 0.49855900 3.000000
-0.75004703 -0.01173600 0.55683899 3.000000
-0.75004703 -0.00878900 -0.09945400 3.000000
-0.75004703 -0.00682500 -0.41257799 3.000000
-0.75004703 -0.02774600 0.63526201 3.000000
-0.75004703 -0.01738700 0.38166001 3.000000
-0.75004703 -0.03083100 0.54638499 3.000000
-0.75004703 0.02501100 -0.25853199 3.000000
-0.75004703 0.02699000 -0.37242201 3.000000
-0.75004703 0.01578400 0.22365700 3.000000
-0.75002098 -0.00683800 -0.66137803 3.000000
-0.75004703 0.00907200 0.15318801 3.000000
-0.75004703 -0.01046700 0.17253500 3.000000
-0.75004703 0.01969700 0.39767200 3.000000
-0.75004703 -0.00498500 -0.54943198 3.000000
-0.75004703 -0.00790700 0.28742400 3.000000
-0.75004703 -0.00088900 -0.45045000 3.000000
-0.75004703 0.00716000 -0.21615000 3.000000
-0.75004703 -0.00659000 -0.21331701 3.000000
-0.75004703 -0.01623200 -0.13530999 3.000000
-0.75004703 -0.00821700 0.24183100 3.000000
-0.75004703 -0.03731800 0.30345500 3.000000
-0.75004703 0.03189900 -0.39449200 3.000000
-0.75004703 -0.02313200 -0.19315700 3.000000
-0.75004703 0.01340200 0.56018001 3.000000
-0.75004703 0.04016000 -0.51187599 3.000000
-0.75004703 -0.02195200 -0.17122100 3.000000
-0.75004703 -0.02641800 -0.44489899 3.000000
-0.75004703 0.00529200 -0.03821900 3.000000
-0.75004703 0.03142300 -0.22264600 3.000000
-0.75004703 0.02962700 -0.26313701 3.000000
-0.75004703 0.02799600 0.63622898 3.000000
-0.75004703 0.00442500 0.18443300 3.000000
-0.75004703 0.00083100 0.18009800 3.000000
-0.75004703 0.00529500 0.01723800 3.000000
-0.75004703 -0.03472000 0.60576999 3.000000
-0.75004703 -0.03849600 0.09347800 3.000000
-0.75004703 0.03942400 -0.08925300 3.000000
-0.75004703 0.02552600 0.11865700 3.000000
-0.75004703 -0.00625700 0.31991199 3.000000
-0.75004703 -0.00461900 0.04244900 3.000000
-0.75004703 0.03776100 0.36390701 3.000000
-0.75004703 -0.01561900 0.47286999 3.000000
-0.75004703 0.03412100 0.30765900 3.000000
-0.75004703 -0.00102500 -0.40335101 3.000000
-0.75004703 0.03464600 0.25802401 3.000000
-0.75004703 0.00283900 -0.47084999 3.000000
-0.75004703 -0.00252800 0.64070803 3.000000
-0.75004703 -0.02020000 0.42354700 3.000000
-0.74703002 -0.02268200 -0.66137803 3.000000
-0.75004703 0.03157500 -0.23846300 3.000000
-0.75004703 0.02507600 -0.39596000 3.000000
-0.75004703 -0.02720900 -0.40852201 3.000000
-0.75004703 0.02354100 0.54982001 3.000000
-0.75004703 0.03388000 0.28168699 3.000000
-0.75004703 0.02135400 0.19553301 3.000000
-0.75004703 0.00432700 0.50283200 3.000000
-0.75004703 0.01418800 0.52732199 3.000000
-0.75004703 0.01245200 -0.17269300 3.000000
-0.75004703 -0.02290200 -0.33057499 3.000000
-0.75004703 -0.01204200 -0.28579801 3.000000
-0.75004703 0.02739800 -0.01554300 3.000000
-0.75004703 -0.00575900 0.57033300 3.000000
-0.75004703 0.02685100 -0.30919701 3.000000
-0.75004703 -0.01176200 0.40805900 3.000000
-0.75004703 0.00760400 -0.56730700 3.000000
-0.75004703 0.00494100 -0.59041703 3.000000
-0.75004703 0.01722500 0.53889799 3.000000
-0.75004703 -0.02975900 0.47272199 3.000000
-0.75004703 0.00682400 0.32545900 3.000000
-0.75004703 -0.01332000 0.45093301 3.000000
-0.75004703 -0.00159900 0.34672099 3.000000
-0.75004703 -0.00608000 -0.65360099 3.000000
-0.75004703 -0.00754300 -0.35845900 3.000000
-0.75004703 0.02199100 -0.61253899 3.000000
-0.75004703 -0.02730100 0.43652001 3.000000
-0.75004703 -0.04016800 -0.26224300 3.000000
-0.75004703 -0.00799500 -0.51554102 3.000000
-0.75004703 -0.02943400 0.45861399 3.000000
-0.75004703 0.02587400 0.27288100 3.000000
-0.75004703 0.01858500 0.08834400 3.000000
-0.75004703 -0.02117800 -0.38668999 3.000000
-0.75004703 -0.00401800 -0.55516499 3.000000
-0.75004703 0.00933200 0.43495101 3.000000
-0.75004703 0.00258600 -0.45864299 3.000000
-0.75004703 -0.02297700 0.39314300 3.000000
-0.75004703 0.03388500 -0.25171399 3.000000
-0.75004703 0.02332600 0.62987798 3.000000
-0.75004703 0.03762300 0.21310700 3.000000
-0.75004703 -0.03315100 0.39400300 3.000000
-0.75004703 0.03166400 0.45388800 3.000000
-0.75004703 -0.01151000 -0.06902800 3.000000
-0.75004703 0.00422400 0.40867499 3.000000
-0.75004703 0.02009200 -0.12948900 3.000000
-0.75004703 0.00548400 0.60965401 3.000000
-0.75004703 0.01052400 0.27783799 3.000000
-0.75004703 0.00861800 0.18033700 3.000000
-0.75004703 -0.01146500 0.34148201 3.000000
-0.75004703 0.03563600 -0.29404601 3.000000
-0.75004703 -0.03388100 -0.47176901 3.000000
-0.75004703 0.00470600 -0.55296302 3.000000
-0.75004703 -0.01054000 -0.61900902 3.000000
-0.75004703 -0.01065100 -0.26980200 3.000000
-0.75004703 0.02919000 -0.02653100 3.000000
-0.75004703 -0.01944900 -0.38920000 3.000000
-0.75004703 0.01863100 -0.28758401 3.000000
-0.75004703 -0.03073700 -0.24892300 3.000000
-0.75004703 -0.02689000 0.10116900 3.000000
-0.75004703 -0.01344200 0.28394699 3.000000
-0.75004703 0.01757500 0.31444100 3.000000
-0.75004703 -0.03366700 0.12608300 3.000000
-0.75004703 -0.01898200 0.24949200 3.000000
-0.75004703 0.01858100 0.00926100 3.000000
-0.75004703 -0.00095700 0.61919099 3.000000
-0.75004703 0.03416800 -0.41068900 3.000000
-0.75004703 -0.02092200 -0.33746701 3.000000
-0.75004703 0.01263200 0.46221799 3.000000
-0.75004703 -0.02818100 -0.43005699 3.000000
-0.75004703 -0.01026400 0.59188199 3.000000
-0.75004703 0.01751200 -0.04023400 3.000000
-0.75004703 -0.01164400 0.03752100 3.000000
-0.75004703 -0.03122500 -0.14038700 3.000000
-0.75004703 0.03568700 -0.36199400 3.000000
-0.75004703 0.03689100 -0.18651000 3.000000
-0.75004703 -0.04072200 0.57469100 3.000000
0.46055800 -0.01810800 -0.66137803 4.000000
0.59538800 -0.00394000 -0.66137803 4.000000
0.72412997 -0.01803200 -0.66137803 4.000000
-0.34460101 0.02299500 -0.66137803 4.000000
0.67261398 0.02787600 -0.66137803 4.000000
0.36799800 -0.01157400 -0.66137803 4.000000
-0.01844500 0.00507900 -0.66137803 4.000000
-0.24627300 0.01147000 -0.66137803 4.000000
-0.22582500 -0.01933600 -0.66137803 4.000000
0.01638100 0.00355200 -0.66137803 4.000000
-0.28819701 0.03247600 -0.66137803 4.000000
-0.62707901 -0.02388900 -0.66137803 4.000000
-0.59188998 0.01427000 -0.66137803 4.000000
-0.28496099 0.00384300 -0.66137803 4.000000
-0.08541500 -0.03513600 -0.66137803 4.000000
0.44824100 -0.01283700 -0.66137803 4.000000
-0.73940301 0.00854500 -0.66137803 4.000000
0.17058100 0.00386300 -0.66137803 4.000000
-0.72708201 -0.01087800 -0.66137803 4.000000
-0.08651300 -0.02200300 -0.66137803 4.000000
0.17130899 -0.02211100 -0.66137803 4.000000
-0.00521800 0.03389800 -0.66137803 4.000000
-0.47838899 0.00829200 -0.66137803 4.000000
0.39184099 -0.03249800 -0.66137803 4.000000
0.66495001 0.00284900 -0.66137803 4.000000
-0.37823099 -0.02067400 -0.66137803 4.000000
0.60658598 -0.00480700 -0.66137803 4.000000
0.35389200 0.02515900 -0.66137803 4.000000
-0.58795702 -0.02810800 -0.66137803 4.000000
0.25000399 -0.03253600 -0.66137803 4.000000
-0.35207799 -0.02599700 -0.66137803 4.000000
0.58679402 -0.01646100 -0.66137803 4.000000
-0.26163799 0.01440600 -0.66137803 4.000000
0.00849800 -0.00370500 -0.66137803 4.000000
-0.50924999 -0.03653200 -0.66137803 4.000000
0.62056398 -0.00089300 -0.66137803 4.000000
0.11781900 -0.01704900 -0.66137803 4.000000
-0.48320201 -0.02991600 -0.66137803 4.000000
-0.03238400 0.00967800 -0.66137803 4.000000
0.46761301 0.03922500 -0.66137803 4.000000
0.61397898 0.03104900 -0.66137803 4.000000
-0.55815601 -0.00250700 -0.66137803 4.000000
0.15006199 0.00508100 -0.66137803 4.000000
-0.52251101 -0.03596200 -0.66137803 4.000000
-0.40773699 0.02830700 -0.66137803 4.000000
-0.49046299 -0.02869000 -0.66137803 4.000000
-0.14766701 0.03513100 -0.66137803 4.000000
0.11674400 0.01154300 -0.66137803 4.000000
-0.34086299 -0.02324500 -0.66137803 4.000000
-0.71203500 0.00840600 -0.66137803 4.000000
-0.34149000 -0.02235000 -0.66137803 4.000000
0.22187200 -0.01825300 -0.66137803 4.000000
-0.39335701 0.01747300 -0.66137803 4.000000
0.11400700 -0.01633200 -0.66137803 4.000000
0.63403201 -0.00395600 -0.66137803 4.000000
0.33994800 0.02387100 -0.66137803 4.000000
-0.71275300 0.03007500 -0.66137803 4.000000
0.69148898 -0.02214800 -0.66137803 4.000000
0.56764901 0.02113800 -0.66137803 4.000000
-0.52740902 0.04084700 -0.66137803 4.000000
-0.63033998 0.01861600 -0.66137803 4.000000
-0.12419500 -0.03552100 -0.66137803 4.000000
0.32252100 0.03241500 -0.66137803 4.000000
-0.72079599 0.02788000 -0.66137803 4.000000
-0.23359700 -0.02003000 -0.66137803 4.000000
0.57775700 -0.04004500 -0.66137803 4.000000
-0.26449901 -0.01364400 -0.66137803 4.000000
-0.22013900 -0.01840200 -0.66137803 4.000000
-0.06857300 0.03057700 -0.66137803 4.000000
-0.46150699 0.03784500 -0.66137803 4.000000
-0.59425902 -0.00418100 -0.66137803 4.000000
0.28617999 -0.02204700 -0.66137803 4.000000
0.40057901 -0.03984200 -0.66137803 4.000000
0.06632000 -0.01572800 -0.66137803 4.000000
-0.54166400 0.00418000 -0.66137803 4.000000
-0.50673902 -0.00520900 -0.66137803 4.000000
-0.41783401 0.01398000 -0.66137803 4.000000
0.37618101 -0.02217900 -0.66137803 4.000000
-0.17121500 0.02533400 -0.66137803 4.000000
-0.30328199 0.04075900 -0.66137803 4.000000
-0.24481200 0.00300000 -0.66137803 4.000000
-0.51797700 -0.03452000 -0.66137803 4.000000
0.21421300 0.00717700 -0.66137803 4.000000
-0.09908800 -0.03494000 -0.66137803 4.000000
-0.71556902 -0.01563200 -0.66137803 4.000000
-0.44830301 -0.01578900 -0.66137803 4.000000
0.04956100 0.00991400 -0.66137803 4.000000
0.43747500 -0.03453900 -0.66137803 4.000000
-0.00354200 -0.03244800 -0.66137803 4.000000
-0.73410600 -0.01723800 -0.66137803 4.000000
0.29683501 0.02881600 -0.66137803 4.000000
-0.16317400 -0.01227200 -0.66137803 4.000000
-0.18184800 -0.00336200 -0.66137803 4.000000
0.55593997 -0.00201300 -0.66137803 4.000000
0.21380299 0.01207900 -0.66137803 4.000000
0.17661300 -0.02700000 -0.66137803 4.000000
0.51681799 -0.01676400 -0.66137803 4.000000
0.50746298 0.03790300 -0.66137803 4.000000
-0.27811500 -0.02707200 -0.66137803 4.000000
0.60410899 0.02722100 -0.66137803 4.000000
0.45954499 0.02026500 -0.66137803 4.000000
0.38563600 0.03043800 -0.66137803 4.000000
0.12348900 0.02261600 -0.66137803 4.000000
-0.10170400 0.00296700 -0.66137803 4.000000
0.31506601 0.02462900 -0.66137803 4.000000
-0.52632600 -0.00299700 -0.66137803 4.000000
0.65301102 -0.01416600 -0.66137803 4.000000
0.55092001 -0.02859900 -0.66137803 4.000000
0.32486901 0.00523600 -0.66137803 4.000000
-0.30204099 0.01404200 -0.66137803 4.000000
-0.23511000 0.00127200 -0.66137803 4.000000
-0.55124003 0.00441900 -0.66137803 4.000000
-0.13992199 -0.00822500 -0.66137803 4.000000
0.59971601 0.00278000 -0.66137803 4.000000
-0.19530800 0.02766900 -0.66137803 4.000000
-0.32831100 0.02588800 -0.66137803 4.000000
0.61017001 -0.02481800 -0.66137803 4.000000
-0.10353400 -0.02641400 -0.66137803 4.000000
0.30191401 0.03672400 -0.66137803 4.000000
-0.05052900 0.02257400 -0.66137803 4.000000
0.35160500 -0.02622900 -0.66137803 4.000000
-0.44056001 0.01860200 -0.66137803 4.000000
0.34767601 -0.03585800 -0.66137803 4.000000
0.19167100 0.02412000 -0.66137803 4.000000
-0.50226098 -0.01414000 -0.66137803 4.000000
0.45262399 0.03773800 -0.66137803 4.000000
0.04751300 0.00831900 -0.66137803 4.000000
-0.31851900 -0.02144800 -0.66137803 4.000000
-0.20112599 -0.03206900 -0.66137803 4.000000
0.23949100 -0.00641900 -0.66137803 4.000000
0.64283198 -0.02847600 -0.66137803 4.000000
-0.11320000 -0.00119000 -0.66137803 4.000000
0.70168000 0.01739900 -0.66137803 4.000000
0.00122300 0.01826500 -0.66137803 4.000000
-0.35136801 -0.02836100 -0.66137803 4.000000
0.35285401 0.02975600 -0.66137803 4.000000
-0.04911900 -0.01881600 -0.66137803 4.000000
0.26320100 -0.00145500 -0.66137803 4.000000
0.55283397 -0.03228500 -0.66137803 4.000000
-0.55358303 -0.03146600 -0.66137803 4.000000
-0.24172799 -0.02660000 -0.66137803 4.000000
-0.63695502 0.03479400 -0.66137803 4.000000
0.00916200 0.03084000 -0.66137803 4.000000
-0.06561600 0.01062600 -0.66137803 4.000000
-0.51045102 -0.01098400 -0.66137803 4.000000
-0.24187300 0.00592800 -0.66137803 4.000000
-0.21684501 -0.01216800 -0.66137803 4.000000
-0.60405701 -0.02893600 -0.66137803 4.000000
0.16004699 0.03026200 -0.66137803 4.000000
-0.33592701 0.02180100 -0.66137803 4.000000
-0.35106000 0.00747800 -0.66137803 4.000000
-0.41612300 0.01993000 -0.66137803 4.000000
-0.71892399 0.03015700 -0.66137803 4.000000
0.52499199 0.02973600 -0.66137803 4.000000
-0.00381500 0.00655800 -0.66137803 4.000000
-0.21493500 -0.00734000 -0.66137803 4.000000
0.60605103 -0.03347200 -0.66137803 4.000000
-0.01344300 -0.01568300 -0.66137803 4.000000
-0.46811199 0.03317700 -0.66137803 4.000000
0.43942299 0.01391000 -0.66137803 4.000000
0.25110501 -0.00060000 -0.66137803 4.000000
-0.02903400 -0.00234500 -0.66137803 4.000000
-0.10027200 -0.01468500 -0.66137803 4.000000
0.13043800 -0.02019900 -0.66137803 4.000000
-0.55504602 -0.00076900 -0.66137803 4.000000
-0.62825900 0.00780200 -0.66137803 4.000000
-0.24986900 0.03502800 -0.66137803 4.000000
0.02610500 0.00417000 -0.66137803 4.000000
0.72196001 0.01563900 -0.66137803 4.000000
0.43951800 0.03035600 -0.66137803 4.000000
-0.15101101 -0.02253000 -0.66137803 4.000000
0.01024300 0.00918700 -0.66137803 4.000000
0.02840300 0.02096300 -0.66137803 4.000000
-0.39504001 -0.03534300 -0.66137803 4.000000
-0.20677701 0.02946300 -0.66137803 4.000000
0.37083000 -0.01862300 -0.66137803 4.000000
-0.73929697 0.00161200 -0.66137803 4.000000
-0.01195600 -0.03582000 -0.66137803 4.000000
-0.72992402 -0.01523500 -0.66137803 4.000000
-0.48308399 -0.02332400 -0.66137803 4.000000
-0.69309700 -0.03805500 -0.66137803 4.000000
0.44253400 -0.03152800 -0.66137803 4.000000
0.05093300 -0.01013000 -0.66137803 4.000000
-0.37651601 0.04022000 -0.66137803 4.000000
0.19561400 0.00606600 -0.66137803 4.000000
-0.72154498 0.03750300 -0.66137803 4.000000
0.17580900 0.02324500 -0.66137803 4.000000
-0.20720100 -0.00802000 -0.66137803 4.000000
-0.38447601 -0.01326800 -0.66137803 4.000000
-0.53758299 -0.03572300 -0.66137803 4.000000
-0.27972600 0.03380600 -0.66137803 4.000000
0.32323000 -0.00213200 -0.66137803 4.000000
-0.29749700 -0.02563000 -0.66137803 4.000000
0.20395300 -0.02004700 -0.66137803 4.000000
-0.44140899 0.02940100 -0.66137803 4.000000
0.71610099 -0.01559200 -0.66137803 4.000000
0.15454900 -0.01733600 -0.66137803 4.000000
0.13841800 -0.00250900 -0.66137803 4.000000
-0.32780200 -0.03900500 -0.66137803 4.000000
0.42658001 -0.01963200 -0.66137803 4.000000
0.26997799 -0.02545400 -0.66137803 4.000000
-0.02839600 -0.01609400 -0.66137803 4.000000
-0.28200600 0.01146700 -0.66137803 4.000000
-0.21177700 0.00671100 -0.66137803 4.000000
-0.43993300 0.01341600 -0.66137803 4.000000
-0.43570101 -0.00626400 -0.66137803 4.000000
-0.55834800 0.01209600 -0.66137803 4.000000
-0.15555900 0.02017400 -0.66137803 4.000000
-0.28420201 -0.00565200 -0.66137803 4.000000
-0.72923398 -0.03584000 -0.66137803 4.000000
0.02773900 0.02504800 -0.66137803 4.000000
-0.11471600 0.01686300 -0.66137803 4.000000
-0.28912899 0.02140400 -0.66137803 4.000000
0.49526700 0.00775300 -0.66137803 4.000000
-0.59780800 -0.00935500 -0.66137803 4.000000
0.24764299 0.02433200 -0.66137803 4.000000
0.15019201 0.01341900 -0.66137803 4.000000
-0.32357299 0.02668500 -0.66137803 4.000000
-0.52549499 0.01200000 -0.66137803 4.000000
0.19953001 -0.02713100 -0.66137803 4.000000
-0.61729699 0.02855600 -0.66137803 4.000000
-0.54956502 0.03071100 -0.66137803 4.000000
-0.67057401 -0.03227100 -0.66137803 4.000000
0.16897100 0.01340600 -0.66137803 4.000000
-0.20951501 -0.00703600 -0.66137803 4.000000
-0.47874701 0.02541900 -0.66137803 4.000000
0.44736099 -0.00021900 -0.66137803 4.000000
0.18388601 0.01553600 -0.66137803 4.000000
-0.46669400 -0.00197300 0.65162897 5.000000
-0.10936700 0.01198200 0.65162897 5.000000
-0.05391600 0.02353700 0.65162897 5.000000
0.03841300 0.02447200 0.65162897 5.000000
-0.69778001 -0.04045100 0.65162897 5.000000
0.47923300 0.01362100 0.65162897 5.000000
-0.57273602 -0.00811500 0.65162897 5.000000
0.02145900 -0.02761300 0.65162897 5.000000
0.65463102 0.03896100 0.65162897 5.000000
-0.62898397 0.01137400 0.65162897 5.000000
0.31959400 -0.03663200 0.65162897 5.000000
0.63901001 0.02268900 0.65162897 5.000000
-0.42214200 -0.02446400 0.65162897 5.000000
0.68400902 -0.01070100 0.65162897 5.000000
0.71060598 0.02960400 0.65162897 5.000000
-0.71680498 0.00126100 0.65162897 5.000000
-0.57553500 0.00204400 0.65162897 5.000000
-0.06314000 0.00932200 0.65162897 5.000000
0.61023498 -0.00686300 0.65162897 5.000000
-0.70321202 0.00857300 0.65162897 5.000000
0.26752099 0.02395900 0.65162897 5.000000
0.13088000 -0.02964400 0.65162897 5.000000
0.31676400 -0.01576000 0.65162897 5.000000
-0.36764500 0.01007000 0.65162897 5.000000
-0.41046399 0.00439000 0.65162897 5.000000
0.24755400 0.00271000 0.65162897 5.000000
-0.30629200 0.01407200 0.65162897 5.000000
-0.22885901 -0.02065500 0.65162897 5.000000
0.40706399 -0.00899500 0.65162897 5.000000
-0.16976801 0.03153800 0.65162897 5.000000
-0.40858901 -0.01256600 0.65162897 5.000000
-0.18967900 0.02612300 0.65162897 5.000000
-0.70209599 0.00234200 0.65162897 5.000000
0.36058900 -0.00134100 0.65162897 5.000000
0.40017200 0.03951800 0.65162897 5.000000
-0.64549500 -0.03421000 0.65162897 5.000000
0.72216201 0.03256700 0.65162897 5.000000
0.52922100 0.02371800 0.65162897 5.000000
-0.18992700 0.03331500 0.65162897 5.000000
0.05229000 0.02176100 0.65162897 5.000000
-0.68880600 0.00004700 0.65162897 5.000000
-0.02867900 -0.00498400 0.65162897 5.000000
0.25377300 -0.01522600 0.65162897 5.000000
-0.39694101 0.01747100 0.65162897 5.000000
-0.35500500 0.00892400 0.65162897 5.000000
0.50680101 0.00951200 0.65162897 5.000000
-0.56626600 0.01782500 0.65162897 5.000000
-0.28999999 0.00371400 0.65162897 5.000000
0.73597699 -0.01099200 0.65162897 5.000000
-0.32392699 -0.03895600 0.65162897 5.000000
-0.60710001 -0.01011700 0.65162897 5.000000
0.07722500 -0.01980100 0.65162897 5.000000
-0.09999900 0.03904600 0.65162897 5.000000
0.31133401 -0.02999700 0.65162897 5.000000
-0.37845799 0.02991700 0.65162897 5.000000
-0.59362698 0.02759600 0.65162897 5.000000
-0.37865099 -0.02018100 0.65162897 5.000000
-0.72163498 -0.02047900 0.65162897 5.000000
-0.54524797 -0.03165000 0.65162897 5.000000
-0.06258600 0.01854000 0.65162897 5.000000
0.40238199 0.01991000 0.65162897 5.000000
0.08098000 -0.03727300 0.65162897 5.000000
-0.09869800 0.00461800 0.65162897 5.000000
0.11159300 0.03071900 0.65162897 5.000000
0.21194100 -0.00741100 0.65162897 5.000000
-0.55264199 -0.01845200 0.65162897 5.000000
-0.59932703 -0.03902900 0.65162897 5.000000
0.38438699 -0.01862600 0.65162897 5.000000
0.27194601 -0.01793700 0.65162897 5.000000
-0.57028401 -0.01251700 0.65162897 5.000000
-0.43182701 0.00917600 0.65162897 5.000000
-0.64605403 0.03283800 0.65162897 5.000000
0.35915801 -0.02966300 0.65162897 5.000000
-0.62820101 0.02684000 0.65162897 5.000000
-0.55019802 0.02411500 0.65162897 5.000000
-0.41160700 -0.03973400 0.65162897 5.000000
0.39569801 -0.03223600 0.65162897 5.000000
0.52112001 -0.02134500 0.65162897 5.000000
-0.12732200 -0.01806400 0.65162897 5.000000
-0.61990499 0.03732400 0.65162897 5.000000
-0.17924000 0.02111000 0.65162897 5.000000
0.37745100 0.03527000 0.65162897 5.000000
0.49274299 -0.02232200 0.65162897 5.000000
0.53901398 -0.01098600 0.65162897 5.000000
0.12819301 -0.00924800 0.65162897 5.000000
-0.36630899 0.00665600 0.65162897 5.000000
0.27365500 -0.01390000 0.65162897 5.000000
0.36675701 0.00194200 0.65162897 5.000000
-0.00572500 -0.01289500 0.65162897 5.000000
0.39087099 -0.03671700 0.65162897 5.000000
0.54197001 0.02107900 0.65162897 5.000000
-0.60325199 -0.01551600 0.65162897 5.000000
0.30610099 -0.03386100 0.65162897 5.000000
-0.35755399 -0.00472600 0.65162897 5.000000
0.14443199 -0.01465600 0.65162897 5.000000
-0.51594698 0.02670900 0.65162897 5.000000
-0.26019701 -0.01331900 0.65162897 5.000000
-0.17808600 -0.00507000 0.65162897 5.000000
-0.15649700 0.00674500 0.65162897 5.000000
0.25131401 -0.02960300 0.65162897 5.000000
-0.65379101 -0.02441700 0.65162897 5.000000
-0.35561499 0.03676300 0.65162897 5.000000
0.22509800 0.00092100 0.65162897 5.000000
-0.24545500 0.01813100 0.65162897 5.000000
0.36730900 0.02552800 0.65162897 5.000000
0.46423301 -0.02759000 0.65162897 5.000000
-0.69812500 -0.01887200 0.65162897 5.000000
-0.58874398 0.00829700 0.65162897 5.000000
0.09585100 0.02368000 0.65162897 5.000000
0.62787801 0.00970900 0.65162897 5.000000
0.52139503 0.02191300 0.65162897 5.000000
-0.63163197 -0.01784500 0.65162897 5.000000
0.26751599 -0.00948700 0.65162897 5.000000
0.54984599 -0.02415400 0.65162897 5.000000
-0.07674800 0.03981700 0.65162897 5.000000
-0.67871600 -0.00096700 0.65162897 5.000000
0.32716900 0.03640100 0.65162897 5.000000
0.57024997 -0.00517600 0.65162897 5.000000
0.05899900 0.02867500 0.65162897 5.000000
0.40056700 0.02911400 0.65162897 5.000000
0.67654198 0.03768400 0.65162897 5.000000
-0.03247000 -0.03544100 0.65162897 5.000000
0.52289701 -0.02092500 0.65162897 5.000000
-0.56340498 -0.03915800 0.65162897 5.000000
0.02593200 -0.00555300 0.65162897 5.000000
0.66792399 0.03536800 0.65162897 5.000000
0.37471199 0.01803600 0.65162897 5.000000
-0.10817000 -0.03616300 0.65162897 5.000000
0.68049097 0.02245400 0.65162897 5.000000
-0.08020200 -0.01735700 0.65162897 5.000000
-0.53069299 -0.00011000 0.65162897 5.000000
-0.28122601 -0.03778400 0.65162897 5.000000
-0.61724198 -0.00557700 0.65162897 5.000000
0.07837700 -0.01112700 0.65162897 5.000000
0.14382800 0.02886000 0.65162897 5.000000
-0.53220099 0.03930700 0.65162897 5.000000
0.12453000 0.03860200 0.65162897 5.000000
0.37549201 0.00772800 0.65162897 5.000000
-0.34746400 -0.02420900 0.65162897 5.000000
0.52804399 -0.01444000 0.65162897 5.000000
0.41762400 -0.02141800 0.65162897 5.000000
0.09135100 0.00129500 0.65162897 5.000000
0.02984000 0.00362800 0.65162897 5.000000
-0.01535200 0.02051600 0.65162897 5.000000
0.11754000 -0.01210700 0.65162897 5.000000
0.21777900 0.00413400 0.65162897 5.000000
0.36273900 0.02381900 0.65162897 5.000000
0.31483600 -0.00340900 0.65162897 5.000000
-0.69923800 -0.01491900 0.65162897 5.000000
0.05002500 -0.02365300 0.65162897 5.000000
0.14439800 -0.00878000 0.65162897 5.000000
0.00865300 -0.03539400 0.65162897 5.000000
0.60005701 -0.02854000 0.65162897 5.000000
-0.01093700 -0.01545300 0.65162897 5.000000
0.44380400 -0.03942300 0.65162897 5.000000
-0.59562099 0.00740000 0.65162897 5.000000
-0.16749400 0.02911100 0.65162897 5.000000
0.61224699 -0.01521900 0.65162897 5.000000
-0.01131500 -0.00690100 0.65162897 5.000000
-0.67057902 0.01297900 0.65162897 5.000000
0.70661002 0.02843000 0.65162897 5.000000
0.37798199 -0.01964100 0.65162897 5.000000
0.51234001 -0.02216000 0.65162897 5.000000
0.69442999 0.02531000 0.65162897 5.000000
0.05284900 -0.03563100 0.65162897 5.000000
0.73625499 0.02815200 0.65162897 5.000000
0.61658800 -0.03311800 0.65162897 5.000000
0.24884801 -0.02292500 0.65162897 5.000000
0.54746699 0.01925200 0.65162897 5.000000
-0.29837301 0.00800200 0.65162897 5.000000
-0.68651199 -0.03332100 0.65162897 5.000000
0.48529401 0.01333700 0.65162897 5.000000
0.40789700 -0.02354900 0.65162897 5.000000
-0.18337201 0.02950000 0.65162897 5.000000
-0.26982200 -0.01526300 0.65162897 5.000000
-0.44269601 0.02815700 0.65162897 5.000000
-0.30261299 -0.03758400 0.65162897 5.000000
-0.00664200 0.01290500 0.65162897 5.000000
-0.03839400 0.03753000 0.65162897 5.000000
0.14706300 -0.00301000 0.65162897 5.000000
-0.41708699 0.03786500 0.65162897 5.000000
0.38094100 -0.01490800 0.65162897 5.000000
-0.71059299 -0.00723400 0.65162897 5.000000
0.21907701 -0.02947500 0.65162897 5.000000
-0.62534600 0.00570000 0.65162897 5.000000
0.51174498 0.03730400 0.65162897 5.000000
0.68199402 -0.02856100 0.65162897 5.000000
0.60380101 -0.01169900 0.65162897 5.000000
-0.02930700 -0.01508700 0.65162897 5.000000
-0.35523900 -0.01970300 0.65162897 5.000000
0.01023700 0.00714800 0.65162897 5.000000
-0.63274199 0.01226400 0.65162897 5.000000
-0.22231200 0.00682700 0.65162897 5.000000
-0.54759002 0.02923600 0.65162897 5.000000
-0.09502500 0.00453200 0.65162897 5.000000
0.27739000 -0.01052000 0.65162897 5.000000
0.40260699 -0.01657200 0.65162897 5.000000
0.50766402 0.01425400 0.65162897 5.000000
-0.08094600 -0.00376000 0.65162897 5.000000
0.07989800 0.02427600 0.65162897 5.000000
-0.08768000 0.00360900 0.65162897 5.000000
0.50749701 0.03904700 0.65162897 5.000000
-0.63626200 0.03033800 0.65162897 5.000000
-0.18125799 -0.01642800 0.65162897 5.000000
-0.48492399 0.00104300 0.65162897 5.000000
-0.66826302 0.03867600 0.65162897 5.000000
0.70120102 0.03507300 0.65162897 5.000000
-0.46220201 0.03683800 0.65162897 5.000000
0.52863199 -0.01066200 0.65162897 5.000000
-0.49759400 0.01707100 0.65162897 5.000000
-0.19692300 -0.04036900 0.65162897 5.000000
-0.30549300 0.02269900 0.65162897 5.000000
0.34499800 -0.01391900 0.65162897 5.000000
0.09839200 -0.01953700 0.65162897 5.000000
-0.27536201 -0.03982900 0.65162897 5.000000
-0.13852200 -0.01271300 0.65162897 5.000000
-0.02412700 -0.02345800 0.65162897 5.000000
0.48460299 0.02062800 0.65162897 5.000000
0.44047001 -0.02782700 0.65162897 5.000000
-0.58860397 0.00350300 0.65162897 5.000000
-0.11191000 0.00125500 0.65162897 5.000000
-0.17495500 0.03770500 0.65162897 5.000000
-0.71939898 -0.00581700 0.65162897 5.000000
-0.15571700 -0.01779400 0.65162897 5.000000
0.49112299 0.03524400 0.65162897 5.000000
-0.17106999 -0.01928200 0.65162897 5.000000
-0.20121001 -0.01387000 0.65162897 5.000000
-0.73018199 0.03509500 0.65162897 5.000000
-0.02238200 -0.04003200 0.65162897 5.000000
0.29735801 0.01688600 0.65162897 5.000000
0.08509400 0.03256500 0.65162897 5.000000
-0.21920399 -0.02794500 0.65162897 5.000000
0.30167499 -0.02514400 0.65162897 5.000000
-0.32131100 -0.00849200 0.65162897 5.000000
-0.05544200 0.00189700 0.65162897 5.000000
0.60713202 0.04027000 0.65162897 5.000000
-0.33977601 0.00206600 0.65162897 5.000000
0.16280700 -0.02378400 0.65162897 5.000000
0.28612000 -0.04146100 0.65162897 5.000000
0.73802799 -0.01077600 0.55141801 6.000000
0.73802799 -0.01328900 0.45755801 6.000000
0.73802799 -0.02385600 -0.24207100 6.000000
0.73802799 0.01109000 -0.51900500 6.000000
0.73802799 -0.01680600 0.62269199 6.000000
0.73802799 -0.02919800 0.30950299 6.000000
0.73802799 0.01620400 -0.65755302 6.000000
0.73802799 0.02691000 0.30960101 6.000000
0.73802799 -0.02801900 0.55606103 6.000000
0.73802799 -0.02147000 0.11009300 6.000000
0.73802799 -0.02190700 0.49266100 6.000000
0.73802799 0.02436100 0.60555100 6.000000
0.73802799 0.03169100 0.64210898 6.000000
0.73802799 -0.00898000 0.27431101 6.000000
0.73802799 0.01639000 0.17559700 6.000000
0.73802799 0.03549000 -0.41925499 6.000000
0.73802799 -0.03538800 -0.52519900 6.000000
0.73802799 0.03403000 -0.11820000 6.000000
0.73802799 -0.01957900 0.10209900 6.000000
0.73802799 -0.00950400 -0.08274500 6.000000
0.73802799 0.01273400 -0.12967899 6.000000
0.73802799 0.00388700 -0.41819501 6.000000
0.73802799 -0.02925100 0.43356499 6.000000
0.73802799 0.04097900 -0.43809900 6.000000
0.73802799 -0.00207300 0.11960300 6.000000
0.73802799 -0.03405800 -0.52943301 6.000000
0.73802799 0.00264600 -0.03683300 6.000000
0.73802799 -0.03152700 -0.54381102 6.000000
0.73802799 -0.00093900 -0.04157800 6.000000
0.73802799 0.00650200 -0.42405501 6.000000
0.73802799 0.01689400 -0.12491500 6.000000
0.73802799 -0.01709800 0.43036699 6.000000
0.73802799 0.01132800 0.27338001 6.000000
