-0.95392001 -0.08585200 -0.07192100 3.000000
-0.52031201 -0.16202600 -0.80052102 3.000000
-0.82844299 -0.21354800 0.48489001 3.000000
0.42872500 0.06355000 0.86276001 3.000000
0.67742503 0.01315000 0.68496299 3.000000
-0.87137097 -0.18642600 -0.39392301 3.000000
0.96133000 -0.16989601 0.03387200 3.000000
0.92093301 0.08559900 -0.27453700 3.000000
0.51977998 -0.26039001 -0.80414402 3.000000
-0.51028901 -0.18941399 0.81406701 3.000000
0.13227201 -0.18995900 0.95400500 3.000000
0.09326600 -0.22384299 -0.95212299 3.000000
0.64045799 0.05979600 0.72103602 3.000000
0.07705000 -0.21384400 0.96000999 3.000000
0.05569100 -0.10248500 -0.95409203 3.000000
-0.66565800 -0.05086300 -0.68464500 3.000000
0.95908201 -0.12889500 0.07677500 3.000000
-0.91990799 -0.14572001 -0.25952300 3.000000
-0.88042498 -0.02781700 -0.37256899 3.000000
-0.73149401 -0.12773600 -0.61404002 3.000000
0.84507900 0.06657000 0.46246901 3.000000
0.66962099 -0.20978799 0.69276702 3.000000
-0.68838102 0.10368400 0.66895902 3.000000
0.41118699 -0.09420600 -0.86465901 3.000000
0.13320100 0.12082600 0.95385700 3.000000
-0.61529100 -0.11515400 -0.73029202 3.000000
0.77825898 -0.13438800 0.56955999 3.000000
0.49402401 -0.14700000 0.82790798 3.000000
-0.66855597 0.05235400 0.68878400 3.000000
-0.88895297 -0.10332600 0.35738900 3.000000
0.20411900 0.04751900 0.94241500 3.000000
0.90321797 -0.13225301 -0.32634100 3.000000
0.65307301 -0.12627400 0.70931399 3.000000
0.65031499 0.04025100 0.71207303 3.000000
0.33105001 -0.01083600 -0.89768702 3.000000
0.38144699 -0.19818400 -0.87834102 3.000000
-0.87795001 -0.03868100 0.38605300 3.000000
0.86987698 0.00405900 0.41379899 3.000000
-0.49735400 0.00697600 0.82246703 3.000000
0.92637599 -0.25854599 0.26126099 3.000000
0.06303000 0.09713900 -0.95370799 3.000000
0.67313898 0.09896200 0.68924898 3.000000
0.46113601 -0.06381900 0.84624600 3.000000
0.73084599 0.12770100 -0.62107301 3.000000
0.71040797 0.09799400 -0.64494300 3.000000
0.52230299 -0.19727100 0.80954301 3.000000
-0.95428902 -0.25049901 0.07191200 3.000000
-0.43394300 -0.07572400 -0.85049200 3.000000
0.19804700 -0.12500100 0.94358701 3.000000
-0.89987600 -0.25381401 -0.32189599 3.000000
0.46452400 -0.24285600 -0.83748299 3.000000
0.83774602 0.01171200 -0.46982300 3.000000
0.74069297 -0.03182700 0.61595100 3.000000
-0.93145198 -0.08107900 -0.21644200 3.000000
0.51887602 0.00382600 -0.80473202 3.000000
0.47918400 -0.26592901 0.42802599 4.000000
-0.18682700 -0.26467100 -0.59648001 4.000000
-0.50159597 -0.26592901 -0.56982100 4.000000
-0.59092599 -0.26592901 -0.67790997 4.000000
0.07276500 -0.26592901 -0.94224203 4.000000
-0.74284202 -0.26592901 0.45793700 4.000000
0.28264499 -0.26592901 0.73944300 4.000000
0.18604399 -0.26592901 -0.88629502 4.000000
0.10103300 -0.26592901 -0.80209500 4.000000
-0.01832400 -0.26592901 -0.71542901 4.000000
0.12165900 -0.26592901 0.75639302 4.000000
0.22211300 -0.26592901 0.86368901 4.000000
0.83592999 -0.26592901 -0.33664301 4.000000
-0.65062702 -0.26592901 -0.24230200 4.000000
-0.79541701 -0.26592901 0.47600701 4.000000
-0.64927101 -0.26592901 -0.45510301 4.000000
-0.74701399 -0.26592901 0.22499800 4.000000
0.82481402 -0.26592901 0.42972401 4.000000
0.72073001 -0.26592901 -0.63235301 4.000000
0.52902102 -0.26592901 0.75003302 4.000000
0.38235000 -0.26592901 0.85250998 4.000000
0.79150200 -0.26592901 -0.31371200 4.000000
0.56935400 -0.26592901 0.59075999 4.000000
0.29029301 -0.26592901 0.77637702 4.000000
0.85355401 -0.26592901 -0.36026999 4.000000
-0.60309500 -0.26592901 -0.38501200 4.000000
0.60499197 -0.26592901 0.40467700 4.000000
-0.67501599 -0.26592901 0.60865498 4.000000
0.84314001 -0.26592901 0.44315901 4.000000
-0.39164099 -0.26592901 -0.65416199 4.000000
0.06495100 -0.26592901 0.68501103 4.000000
-0.31598601 -0.26592901 0.73263800 4.000000
-0.56160098 -0.26592901 0.51544303 4.000000
0.51593202 -0.26592901 0.61266601 4.000000
0.37688500 -0.26361200 0.50882500 4.000000
0.86233902 -0.26592901 0.16151901 4.000000
-0.71395802 -0.26592901 -0.34968901 4.000000
0.63867098 -0.26592901 0.36209300 4.000000
0.79229498 -0.26592901 -0.41334999 4.000000
-0.16757700 -0.26592901 -0.63826799 4.000000
0.34189600 -0.26592901 -0.78054202 4.000000
-0.70506299 -0.26592901 0.25968501 4.000000
0.67406398 -0.26592901 -0.32190499 4.000000
-0.74368000 -0.26592901 -0.15453300 4.000000
0.07611500 -0.26592901 0.77958202 4.000000
-0.04227800 -0.26592901 -0.86630303 4.000000
0.63175303 -0.26592901 -0.15120500 4.000000
0.19499101 -0.26592901 -0.60578400 4.000000
-0.23848800 -0.26592901 -0.59915102 4.000000
-0.58174002 -0.26592901 0.57414901 4.000000
0.68871301 -0.26592901 0.45404300 4.000000
0.59819299 -0.26592901 -0.50555599 4.000000
0.44050100 -0.26592901 -0.63454401 4.000000
0.38304099 -0.26592901 -0.61623502 4.000000
0.60218400 -0.26592901 0.38264701 4.000000
0.84568799 -0.26592901 -0.28853300 4.000000
-0.00539600 -0.26592901 0.68264902 4.000000
-0.53915602 -0.26592901 -0.34430000 4.000000
0.14473601 -0.26592901 0.62637001 4.000000
0.67334998 -0.26592901 0.24066900 4.000000
-0.24225700 -0.26592901 0.87341797 4.000000
0.87420100 -0.26592901 -0.27097100 4.000000
0.13653700 -0.26592901 0.86303401 4.000000
-0.87863803 -0.26592901 -0.23381101 4.000000
0.72631800 -0.26592901 0.45143399 4.000000
-0.74896997 -0.26592901 -0.51976103 4.000000
0.62235099 -0.26448101 -0.10390100 4.000000
-0.64770401 -0.26592901 -0.65738302 4.000000
0.68670702 -0.26592901 -0.54265898 4.000000
-0.10532900 -0.26592901 -0.68438399 4.000000
0.03548800 -0.26592901 -0.66329002 4.000000
0.08127000 -0.26592901 -0.72269100 4.000000
0.72482002 -0.26592901 0.11864300 4.000000
-0.55076897 -0.26592901 -0.45879301 4.000000
0.38902700 -0.26592901 -0.70117098 4.000000
0.55043101 -0.26592901 0.43452099 4.000000
-0.48270500 -0.26592901 -0.67188501 4.000000
-0.20053200 -0.26592901 0.83335698 4.000000
-0.43251699 -0.26592901 0.74748498 4.000000
0.43016100 -0.26592901 0.81797701 4.000000
-0.70878500 -0.26592901 0.50820398 4.000000
0.01598900 -0.26592901 0.72323900 4.000000
-0.70549202 -0.26592901 -0.45040801 4.000000
0.56380302 -0.26592901 -0.75503302 4.000000
-0.71631199 -0.26592901 -0.49342901 4.000000
0.92327899 -0.26592901 -0.13063499 4.000000
0.26979899 -0.26592901 0.91101801 4.000000
-0.48443201 -0.26592901 0.54435498 4.000000
-0.14675900 -0.26592901 0.61759198 4.000000
-0.27430299 -0.26592901 -0.75088400 4.000000
-0.38134500 -0.26592901 -0.79079002 4.000000
-0.02824200 -0.26592901 -0.72310299 4.000000
-0.03147400 -0.26592901 0.93797398 4.000000
-0.67914802 -0.26592901 0.53768200 4.000000
-0.03260200 -0.26592901 -0.76571202 4.000000
0.51291299 -0.26592901 -0.47568101 4.000000
-0.15263601 -0.26592901 -0.94186503 4.000000
0.53959298 -0.26592901 -0.78600299 4.000000
0.49513701 -0.26592901 0.65416902 4.000000
-0.38846201 -0.26592901 -0.50776899 4.000000
-0.00919000 -0.26592901 0.65084600 4.000000
0.40117499 -0.26592901 0.53519398 4.000000
0.76415300 -0.26592901 0.56957000 4.000000
-0.67387402 -0.26592901 -0.13393900 4.000000
-0.56666601 -0.26592901 0.33892301 4.000000
0.34852701 -0.26592901 0.62684399 4.000000
-0.83322501 -0.26592901 0.07161100 4.000000
0.58534902 -0.26592901 0.30569899 4.000000
0.74570000 -0.26592901 -0.53783798 4.000000
-0.29729599 -0.26592901 -0.90552503 4.000000
-0.51493901 -0.26592901 -0.79598200 4.000000
0.71344298 -0.26592901 -0.18045300 4.000000
0.18196000 -0.26496199 -0.93909800 4.000000
0.68529099 -0.26592901 -0.25077400 4.000000
0.02560900 -0.26592901 -0.89552200 4.000000
-0.77170002 -0.26592901 -0.17886101 4.000000
0.44906700 -0.26592901 -0.57935703 4.000000
-0.12757500 -0.26592901 -0.80234498 4.000000
0.64105600 -0.26592901 -0.34923300 4.000000
0.46989501 -0.26592901 0.47963700 4.000000
0.67261398 -0.26592901 0.59169400 4.000000
0.52914298 -0.26592901 0.63099498 4.000000
0.71238101 -0.26592901 -0.38095099 4.000000
0.65498298 -0.26592901 -0.08004000 4.000000
-0.51427197 -0.26592901 0.70170599 4.000000
-0.60597998 -0.26592901 0.67127001 4.000000
-0.37301600 -0.26592901 -0.51424098 4.000000
-0.10373400 -0.26592901 0.84856498 4.000000
-0.27687299 -0.26592901 -0.63012099 4.000000
-0.41354999 -0.26592901 -0.75167000 4.000000
0.66404402 -0.26592901 -0.32770401 4.000000
-0.85814798 -0.26592901 0.30785501 4.000000
-0.21248400 -0.26592901 -0.91433501 4.000000
-0.56452000 -0.26592901 0.56780797 4.000000
0.24720199 -0.26592901 -0.85611600 4.000000
-0.47871301 -0.26592901 0.51987398 4.000000
-0.19660699 -0.26592901 0.90561903 4.000000
0.74016899 -0.26592901 -0.04739900 4.000000
-0.47126701 -0.26592901 -0.50205499 4.000000
-0.54195601 -0.26592901 0.62296897 4.000000
-0.86301702 -0.26592901 -0.27491200 4.000000
0.38358200 -0.26592901 -0.85996097 4.000000
0.56537402 -0.26592901 -0.68669599 4.000000
0.47528499 -0.26592901 -0.65105599 4.000000
-0.70566398 -0.26592901 -0.59874499 4.000000
-0.45693699 -0.26592901 0.57206100 4.000000
-0.20111001 -0.26592901 0.70681399 4.000000
0.60467798 -0.26592901 -0.65950000 4.000000
-0.45363599 -0.26592901 -0.67371303 4.000000
0.05342000 -0.26592901 -0.72680300 4.000000
0.56669199 -0.26592901 -0.44594899 4.000000
-0.73930901 -0.26592901 -0.14765900 4.000000
-0.54172301 -0.26592901 -0.78341001 4.000000
-0.82560199 -0.26592901 -0.19025500 4.000000
0.63906503 -0.26592901 -0.64780700 4.000000
0.18878999 -0.26592901 0.70403302 4.000000
-0.20108201 -0.26592901 -0.63485003 4.000000
-0.65578002 -0.26592901 -0.30682501 4.000000
0.13358399 -0.26592901 0.67334300 4.000000
-0.76318300 -0.26592901 0.41725099 4.000000
0.14801700 -0.26592901 -0.77690500 4.000000
-0.04762800 -0.26592901 -0.87188703 4.000000
0.57381701 -0.26592901 -0.50342900 4.000000
-0.71163702 -0.26592901 -0.14324300 4.000000
0.13074601 -0.26592901 0.66042697 4.000000
0.89166200 -0.26592901 -0.00300100 4.000000
-0.72367799 -0.26592901 -0.57686901 4.000000
-0.83983803 -0.26592901 -0.43593499 4.000000
0.55930001 -0.26592901 0.43924701 4.000000
0.71156400 -0.26592901 -0.33639199 4.000000
-0.68576902 -0.26592901 -0.65803498 4.000000
-0.61674500 -0.26592901 -0.70648301 4.000000
0.56001103 -0.26592901 -0.61481601 4.000000
-0.80708200 -0.26592901 0.48732701 4.000000
-0.74192101 -0.26592901 0.24238300 4.000000
-0.04213400 -0.26592901 -0.73009300 4.000000
-0.57572502 -0.26592901 -0.73942798 4.000000
0.32374200 -0.26592901 0.62481302 4.000000
0.69745201 -0.26592901 -0.45768201 4.000000
-0.61232197 -0.26592901 -0.17300400 4.000000
0.10658500 -0.26592901 0.70031202 4.000000
0.06091200 -0.26592901 0.81568402 4.000000
-0.76542801 -0.26592901 0.06735000 4.000000
-0.49791500 -0.26592901 0.72286397 4.000000
-0.76554799 -0.26592901 0.05455700 4.000000
0.71922398 -0.26592901 -0.16907500 4.000000
-0.93150401 -0.26592901 -0.09591600 4.000000
0.33665901 -0.26592901 -0.83308500 4.000000
0.64705700 -0.26373401 -0.70829397 4.000000
0.75939399 -0.26592901 -0.26539001 4.000000
-0.37800801 -0.26592901 0.68215799 4.000000
0.60796303 -0.26592901 -0.55893803 4.000000
-0.80277801 -0.26592901 -0.15261699 4.000000
0.51606703 -0.26592901 -0.60933602 4.000000
-0.79353499 -0.26592901 -0.50976002 4.000000
0.55542701 -0.26592901 -0.57959801 4.000000
-0.41881901 -0.26592901 0.54433203 4.000000
-0.78388101 -0.26592901 -0.26280400 4.000000
-0.31251401 -0.26592901 0.65596199 4.000000
0.01866200 -0.26592901 0.87102002 4.000000
-0.95018703 -0.26592901 -0.05145800 4.000000
0.59609300 -0.26592901 -0.59372598 4.000000
0.06837200 -0.26340899 0.62950802 4.000000
0.26156500 -0.26359400 -0.56911099 4.000000
-0.18049400 -0.26592901 -0.73865700 4.000000
-0.44972599 -0.26592901 -0.80667102 4.000000
0.29027301 -0.26592901 0.75008899 4.000000
-0.83528900 -0.26592901 0.21484600 4.000000
0.87625200 -0.26592901 0.12636600 4.000000
0.75778002 -0.26592901 0.34353700 4.000000
0.28828999 -0.26592901 -0.69469100 4.000000
-0.17212100 -0.26592901 0.72010601 4.000000
-0.64279503 -0.26592901 -0.09776000 4.000000
0.62301099 -0.26592901 -0.33307800 4.000000
-0.63978100 -0.26592901 -0.65753400 4.000000
0.10092900 -0.26592901 -0.63322502 4.000000
-0.63660300 -0.26592901 -0.62937599 4.000000
-0.66459203 -0.26592901 0.03266700 4.000000
-0.72977698 -0.26592901 0.37399000 4.000000
-0.24690700 -0.26592901 0.83946800 4.000000
-0.00604100 -0.26592901 -0.81870699 4.000000
-0.22893301 -0.26592901 0.90303802 4.000000
-0.43763900 -0.26592901 -0.50014597 4.000000
0.17012100 -0.26592901 0.65684700 4.000000
0.26439601 -0.26592901 -0.76259601 4.000000
-0.27595600 -0.26592901 -0.83875799 4.000000
-0.65820700 -0.26592901 -0.17399099 4.000000
0.69310600 -0.26592901 -0.44549799 4.000000
0.72178501 -0.26592901 0.31680700 4.000000
-0.32027301 -0.26592901 0.55543298 4.000000
-0.53241998 -0.26592901 0.65784198 4.000000
-0.14957400 -0.26592901 -0.90902501 4.000000
-0.36237201 -0.26592901 -0.69379699 4.000000
0.57269800 -0.26592901 0.43391901 4.000000
-0.50965297 -0.26592901 0.37531301 4.000000
0.50281799 -0.26592901 -0.71909201 4.000000
0.93011498 -0.26592901 -0.15468900 4.000000
-0.16207200 -0.26592901 -0.87943399 4.000000
0.32852399 -0.26592901 -0.82808203 4.000000
0.20955800 -0.26592901 0.62721401 4.000000
0.78002399 -0.26592901 -0.33553100 4.000000
-0.46518201 -0.26592901 0.81813300 4.000000
0.02870100 -0.26592901 -0.68585902 4.000000
-0.45022801 -0.26592901 0.83250999 4.000000
0.67928803 -0.26592901 -0.34187800 4.000000
-0.77839297 -0.26592901 0.00628900 4.000000
0.68570101 -0.26592901 -0.60860699 4.000000
0.41811800 -0.26592901 -0.55683202 4.000000
-0.02458400 -0.26592901 -0.92605799 4.000000
-0.71041000 -0.26592901 0.53967601 4.000000
-0.35042000 -0.26592901 -0.76065302 4.000000
0.56398797 -0.26592901 0.60060602 4.000000
-0.31636599 -0.26592901 -0.63353699 4.000000
-0.14869100 -0.26592901 0.91103297 4.000000
-0.76928598 -0.26592901 0.30731601 4.000000
0.32685500 -0.26592901 0.79222202 4.000000
0.32542601 -0.26592901 0.84309298 4.000000
-0.10774500 -0.26592901 -0.80695498 4.000000
-0.30448699 -0.26592901 -0.66513503 4.000000
-0.82344002 -0.26592901 -0.38999099 4.000000
0.60734802 -0.26592901 -0.20803601 4.000000
0.06796500 -0.26592901 0.79389101 4.000000
0.78909701 -0.26592901 -0.23314101 4.000000
0.36846101 -0.26592901 0.81680501 4.000000
0.07158200 -0.26592901 0.67920399 4.000000
0.77035099 -0.26592901 0.57803297 4.000000
0.04649900 -0.26592901 -0.89132899 4.000000
-0.85047400 -0.26592901 0.37848499 4.000000
0.54683799 -0.26592901 -0.45331201 4.000000
0.22629701 -0.26592901 0.67968500 4.000000
0.53109097 -0.26592901 0.36447400 4.000000
-0.86911201 -0.26592901 0.20464499 4.000000
-0.33521500 -0.26592901 -0.69057101 4.000000
-0.61624002 -0.26592901 -0.64475203 4.000000
0.47207701 -0.26592901 -0.75286502 4.000000
-0.57447201 -0.26592901 -0.32131600 4.000000
0.19026101 -0.26592901 -0.59821898 4.000000
0.63682097 -0.26592901 0.58497202 4.000000
0.64419901 -0.26592901 -0.52017897 4.000000
0.52889299 -0.26592901 -0.47506800 4.000000
-0.73668998 -0.26592901 0.24029900 4.000000
-0.62481099 -0.26592901 0.35417601 4.000000
0.29810300 -0.26592901 -0.82395798 4.000000
-0.76632100 -0.26592901 0.37553400 4.000000
0.22442700 -0.26592901 0.63233399 4.000000
-0.34920400 -0.26592901 0.57970601 4.000000
-0.74228102 -0.26592901 -0.58772898 4.000000
0.62484199 -0.26330999 0.09161800 4.000000
0.92837203 -0.26592901 -0.11209400 4.000000
-0.46591499 -0.26592901 0.71585798 4.000000
0.16601001 -0.26592901 -0.84082800 4.000000
0.22757199 -0.26592901 -0.82736802 4.000000
-0.05683700 -0.26592901 -0.64185899 4.000000
-0.92215502 -0.26592901 0.20873500 4.000000
0.80675203 -0.26592901 -0.26260799 4.000000
0.47307801 -0.26592901 -0.45222399 4.000000
0.41809100 -0.26592901 -0.80536199 4.000000
-0.83199501 -0.26592901 0.20742400 4.000000
0.77197897 -0.26592901 0.24006300 4.000000
0.38756499 -0.26592901 -0.66763598 4.000000
0.62977999 -0.26592901 -0.12879100 4.000000
-0.31422400 -0.26592901 -0.82952100 4.000000
-0.30480799 -0.26592901 0.89022899 4.000000
-0.93866801 -0.26592901 0.13305099 4.000000
0.22137401 -0.26592901 0.77122599 4.000000
0.55441099 -0.26592901 -0.60395598 4.000000
0.58279198 -0.26592901 -0.53129101 4.000000
0.94672000 -0.26592901 -0.06315000 4.000000
-0.26740500 -0.26592901 -0.82447797 4.000000
-0.09148300 -0.26592901 0.74816102 4.000000
0.58270901 -0.26592901 -0.24629000 4.000000
0.59982902 -0.26592901 0.29385999 4.000000
0.56560200 -0.26592901 0.59592003 4.000000
0.69157302 -0.26592901 0.39594099 4.000000
0.19740599 -0.26548600 0.94368798 4.000000
0.77778703 -0.26592901 0.51475298 4.000000
0.37108600 -0.26592901 -0.70436198 4.000000
-0.57476997 -0.26592901 0.31868899 4.000000
0.65920001 -0.26592901 0.47138801 4.000000
-0.60476798 -0.26592901 0.61865002 4.000000
-0.18537800 -0.26592901 -0.72559702 4.000000
0.40601701 -0.26592901 -0.54202098 4.000000
0.70647901 -0.26592901 0.49241501 4.000000
0.61494499 -0.26592901 0.24480300 4.000000
-0.81821799 -0.26592901 0.01682500 4.000000
0.91622198 -0.26592901 -0.00667900 4.000000
-0.06272900 -0.26592901 0.64352500 4.000000
0.80738002 -0.26592901 -0.48938000 4.000000
0.79198599 -0.26592901 -0.09796300 4.000000
-0.38100901 -0.26592901 -0.67096198 4.000000
-0.05433800 -0.26592901 -0.70271200 4.000000
-0.06338500 -0.26592901 0.88708001 4.000000
0.31401500 -0.26592901 0.62997800 4.000000
0.41738901 -0.26592901 -0.59835202 4.000000
-0.17242800 -0.26592901 -0.83329803 4.000000
-0.58100498 -0.26592901 0.53434497 4.000000
0.24305800 -0.26592901 -0.82956600 4.000000
-0.62246901 -0.26592901 -0.14331099 4.000000
-0.36705500 -0.26592901 0.58152300 4.000000
0.81584901 -0.26592901 -0.42306599 4.000000
0.44023800 -0.26592901 0.75099099 4.000000
-0.83454198 -0.26592901 -0.36900100 4.000000
-0.75324601 -0.26592901 -0.36422899 4.000000
0.08550200 -0.26592901 0.87256402 4.000000
-0.37799200 -0.26592901 -0.70456898 4.000000
0.12270000 -0.26592901 -0.71467799 4.000000
0.63187099 -0.26592901 0.08051900 4.000000
-0.80761802 -0.26592901 -0.28013000 4.000000
0.03420000 -0.26592901 0.89537698 4.000000
-0.39687899 -0.26592901 0.66846400 4.000000
-0.10205600 -0.26592901 0.77060699 4.000000
-0.31263301 -0.26592901 -0.68496299 4.000000
0.60205197 -0.26592901 -0.22257400 4.000000
0.70996600 -0.26592901 0.21557800 4.000000
0.79724598 -0.26592901 0.21922500 4.000000
-0.10508300 -0.26592901 -0.89257598 4.000000
0.51467401 -0.26592901 -0.80030602 4.000000
-0.16602699 -0.26592901 -0.81419700 4.000000
-0.56087500 -0.26592901 -0.60634601 4.000000
0.28420401 -0.26592901 0.91207802 4.000000
-0.63214302 -0.26592901 -0.20374100 4.000000
-0.33346701 -0.26592901 -0.79506099 4.000000
0.84611702 -0.26592901 0.44345501 4.000000
-0.33782399 -0.26592901 -0.60552400 4.000000
-0.65699399 -0.26592901 -0.64201498 4.000000
0.23395699 -0.26592901 0.72929299 4.000000
0.72805601 -0.26592901 -0.44567201 4.000000
0.09091600 -0.26592901 0.68467802 4.000000
0.05135800 -0.26592901 0.77260798 4.000000
-0.63646299 -0.26592901 0.22472200 4.000000
0.24399300 -0.26592901 -0.67457300 4.000000
0.41813901 -0.26592901 0.73344499 4.000000
0.52829802 -0.26592901 0.46704900 4.000000
-0.86014497 -0.26592901 0.11909500 4.000000
0.75314099 -0.26592901 0.42888701 4.000000
-0.52374500 -0.26592901 0.48979801 4.000000
0.55720198 -0.26592901 -0.29446599 4.000000
0.62757099 -0.26592901 0.10452700 4.000000
0.66612202 -0.26592901 0.32710201 4.000000
0.49578601 -0.26592901 -0.73675400 4.000000
0.63456303 -0.26592901 -0.29862499 4.000000
0.75968099 -0.26592901 0.17305700 4.000000
0.74819797 -0.26592901 -0.01996200 4.000000
0.50520402 -0.26592901 0.64462203 4.000000
0.60827100 -0.26592901 -0.27998900 4.000000
0.56374198 -0.26592901 0.48153499 4.000000
0.68114299 -0.26592901 0.46731800 4.000000
-0.17093299 -0.26592901 -0.67597502 4.000000
0.31776699 -0.26592901 0.85399902 4.000000
-0.14087801 -0.26592901 0.90435100 4.000000
-0.74786901 -0.26592901 -0.18519600 4.000000
-0.76974899 -0.26592901 -0.46780601 4.000000
-0.74157101 -0.26592901 0.49692401 4.000000
0.60931599 -0.26592901 -0.46355101 4.000000
0.33249199 -0.26592901 0.63840801 4.000000
-0.56303197 -0.26592901 0.65846902 4.000000
0.82334203 -0.26592901 0.41991600 4.000000
-0.50682002 -0.26592901 0.65564197 4.000000
0.47560900 -0.26592901 0.51741803 4.000000
0.70683002 -0.26592901 -0.60493898 4.000000
-0.84099400 -0.26592901 -0.28798699 4.000000
-0.85251403 -0.26592901 -0.13416900 4.000000
0.94847602 -0.26592901 -0.09146800 4.000000
-0.41062099 -0.26592901 0.65655202 4.000000
-0.72940099 -0.26592901 -0.26795900 4.000000
-0.74449801 -0.26592901 0.30369601 4.000000
0.62338001 -0.26592901 -0.48939601 4.000000
0.32449800 -0.26592901 0.84699899 4.000000
-0.62849402 -0.26592901 0.12361500 4.000000
-0.87790501 -0.26592901 -0.09171300 4.000000
-0.56487602 -0.26592901 0.59324998 4.000000
-0.80806798 -0.26592901 -0.36291000 4.000000
-0.24414700 -0.26592901 0.67178100 4.000000
0.56041902 -0.26592901 -0.44466501 4.000000
-0.04313400 -0.26592901 0.95379299 4.000000
-0.77842402 -0.26592901 0.45161900 4.000000
-0.43565199 -0.26592901 0.70438600 4.000000
0.91827399 -0.26592901 -0.01815200 4.000000
-0.49044600 -0.26592901 0.65373498 4.000000
0.17491800 -0.26592901 -0.93629497 4.000000
0.56614798 -0.26592901 -0.48314700 4.000000
0.90682101 -0.26592901 -0.31487501 4.000000
0.29292199 -0.26592901 -0.86600697 4.000000
0.52717501 -0.26592901 -0.77956200 4.000000
0.93846500 -0.26592901 0.07911200 4.000000
0.50566101 -0.26592901 -0.61512703 4.000000
-0.47255799 -0.26592901 0.60037303 4.000000
-0.49935099 -0.26592901 0.40404901 4.000000
0.86645597 -0.26592901 0.03723900 4.000000
0.34525201 -0.26592901 0.56516302 4.000000
-0.36576200 -0.26592901 -0.64816803 4.000000
-0.88567197 -0.26592901 -0.14339399 4.000000
-0.76934898 -0.26592901 -0.13436000 4.000000
0.61885500 -0.26592901 0.70348400 4.000000
0.70793003 -0.26592901 0.13526100 4.000000
0.10614300 -0.26592901 -0.73743498 4.000000
0.84640199 -0.26592901 0.08624400 4.000000
-0.24288900 -0.26592901 -0.63215601 4.000000
0.40096501 -0.26592901 -0.49754500 4.000000
-0.06849300 -0.26592901 0.91786700 4.000000
0.28326401 -0.26592901 0.60311300 4.000000
-0.92499900 -0.26592901 0.20934699 4.000000
-0.13936301 -0.26592901 -0.61809802 4.000000
-0.61489701 -0.26592901 0.48131701 4.000000
-0.86101598 -0.26592901 0.11509300 4.000000
-0.50175703 -0.26592901 -0.60306501 4.000000
-0.42048299 -0.26592901 0.57040101 4.000000
0.87969500 -0.26592901 0.34886500 4.000000
0.53974098 -0.26592901 -0.65832400 4.000000
-0.88253403 -0.26592901 0.33340400 4.000000
-0.36697099 -0.26592901 -0.72561097 4.000000
-0.57149500 -0.26592901 0.27944201 4.000000
0.71350801 -0.26592901 -0.49539700 4.000000
0.64107901 -0.26592901 -0.33752099 4.000000
0.69282901 -0.26592901 -0.35598001 4.000000
0.62191600 -0.26592901 -0.66013402 4.000000
0.75079501 -0.26592901 -0.39571100 4.000000
0.80807400 -0.26592901 0.30099201 4.000000
-0.19226900 -0.26592901 -0.73559397 4.000000
0.85787702 -0.26592901 -0.14001900 4.000000
-0.91961199 -0.26592901 0.06952100 4.000000
0.83253503 -0.26592901 -0.36147600 4.000000
0.68623298 -0.26592901 -0.52192998 4.000000
0.15099899 -0.26592901 0.79495001 4.000000
-0.52728099 -0.26592901 -0.59218699 4.000000
0.18542799 -0.26592901 0.90939701 4.000000
-0.38983801 -0.26592901 0.78955197 4.000000
0.54361701 -0.26592901 0.55937898 4.000000
-0.06660900 -0.26592901 0.72201598 4.000000
0.08875600 -0.26592901 -0.72226697 4.000000
-0.72504401 -0.26592901 0.42394200 4.000000
-0.66285300 -0.26592901 0.44298699 4.000000
0.43816200 -0.26592901 -0.50628000 4.000000
0.81858802 -0.26592901 -0.05065300 4.000000
0.04362900 -0.26592901 0.72680700 4.000000
0.57774103 -0.26592901 0.65107799 4.000000
-0.71198398 -0.26592901 0.10985700 4.000000
0.75051099 -0.26592901 0.57136703 4.000000
0.01039700 -0.26592901 -0.66286802 4.000000
-0.39051801 -0.26592901 -0.74918097 4.000000
-0.75099301 -0.26592901 -0.33059001 4.000000
-0.84777802 -0.26592901 -0.37441200 4.000000
-0.29956400 -0.26592901 -0.81029499 4.000000
-0.63098300 -0.26592901 0.71810102 4.000000
-0.07887000 -0.26592901 0.65085298 4.000000
-0.74526602 -0.26592901 0.40354601 4.000000
0.02109100 -0.26592901 0.88288599 4.000000
0.02984600 -0.26592901 0.85202903 4.000000
0.58488500 -0.26592901 0.34521300 4.000000
-0.88641602 -0.26592901 0.07898600 4.000000
0.19705600 -0.26592901 0.90996498 4.000000
0.17498200 -0.26592901 -0.69995803 4.000000
-0.40140700 -0.26592901 0.62760001 4.000000
-0.17472200 -0.26592901 -0.78374797 4.000000
-0.67632198 -0.26592901 0.03450100 4.000000
0.21807399 -0.26592901 -0.63927299 4.000000
-0.93400598 -0.26592901 -0.04684500 4.000000
-0.94072402 -0.26592901 0.16694599 4.000000
0.85250700 -0.26592901 0.22453400 4.000000
0.01949000 -0.26592901 0.78228700 4.000000
0.32359800 -0.26592901 -0.63565898 4.000000
0.64701802 -0.26592901 0.50243700 4.000000
0.07175900 -0.26592901 -0.84548903 4.000000
-0.60036302 -0.26592901 0.45082101 4.000000
-0.61526102 -0.26592901 -0.54169899 4.000000
-0.56670803 -0.26592901 -0.47147301 4.000000
-0.58568001 -0.26592901 -0.42219099 4.000000
0.30726501 -0.26592901 0.62451601 4.000000
-0.31542501 -0.26592901 0.88776499 4.000000
-0.68919700 -0.26592901 0.31941101 4.000000
-0.74083400 -0.26592901 0.40789399 4.000000
-0.21659601 -0.26592901 -0.92210698 4.000000
0.31420901 -0.26592901 0.80738199 4.000000
0.49349701 -0.26592901 0.50628299 4.000000
-0.18552400 -0.26592901 -0.93771398 4.000000
-0.18995300 -0.26592901 -0.68084800 4.000000
0.92451102 -0.26592901 0.12282600 4.000000
0.88413000 -0.26592901 -0.32620800 4.000000
0.47328299 -0.26592901 0.70139998 4.000000
0.43451300 -0.26592901 0.52882099 4.000000
0.00379100 -0.26592901 0.84724802 4.000000
0.12867500 -0.26518399 0.95457399 4.000000
0.82519299 -0.26592901 -0.35923600 4.000000
0.49024999 -0.26592901 -0.49821499 4.000000
-0.81462502 -0.26592901 0.29037100 4.000000
-0.30867299 -0.26592901 -0.83374399 4.000000
-0.38821000 -0.26592901 -0.63779300 4.000000
0.86570102 -0.26592901 0.37894800 4.000000
-0.78294998 -0.26592901 0.01326300 4.000000
-0.19175801 -0.26592901 -0.73381603 4.000000
0.55672300 -0.26591700 0.30020800 4.000000
-0.18756799 -0.26592901 -0.93508399 4.000000
0.40777999 -0.26592901 -0.81147200 4.000000
0.05980800 -0.26592901 0.82544601 4.000000
0.32942799 -0.26592901 -0.57661402 4.000000
0.73739398 -0.26592901 0.50751197 4.000000
0.47223899 -0.26592901 0.72565901 4.000000
0.10104400 -0.26592901 -0.71781802 4.000000
0.00588500 -0.26592901 0.74751598 4.000000
-0.08163700 -0.26592901 -0.75876701 4.000000
0.34902599 -0.26592901 0.69201702 4.000000
-0.44753799 -0.26592901 0.49443400 4.000000
0.60987699 -0.26592901 0.66592503 4.000000
-0.04452900 -0.26592901 -0.67433202 4.000000
-0.43716300 -0.26592901 -0.76775700 4.000000
-0.66780603 -0.26592901 0.29900199 4.000000
-0.41249999 -0.26592901 -0.68008000 4.000000
0.59249002 -0.26592901 -0.25082001 4.000000
-0.37943199 -0.26592901 0.69525802 4.000000
0.44906801 -0.26592901 -0.78980601 4.000000
-0.21576799 -0.26592901 -0.80420703 4.000000
0.66927999 -0.26592901 0.46189001 4.000000
-0.54975402 -0.26592901 -0.48905200 4.000000
-0.14689700 -0.26592901 -0.75436997 4.000000
-0.82377797 -0.26592901 -0.22219600 4.000000
0.52864498 -0.26592901 0.41525999 4.000000
0.48240200 -0.26592901 -0.73754799 4.000000
0.85908502 -0.26592901 0.36690900 4.000000
0.43948600 -0.26592901 -0.74895602 4.000000
0.05204100 -0.26592901 -0.71605998 4.000000
-0.80223501 -0.26592901 0.49424401 4.000000
-0.09085900 -0.26592901 0.64400500 4.000000
0.39918500 -0.26592901 -0.52426702 4.000000
-0.65245301 -0.26592901 -0.58886099 4.000000
-0.76375002 -0.26592901 0.49694300 4.000000
-0.82231200 -0.26592901 -0.45550400 4.000000
-0.86960298 -0.26592901 0.11718000 4.000000
0.61118698 -0.26592901 -0.72872299 4.000000
-0.89752102 -0.26592901 0.15418901 4.000000
0.87491602 -0.26592901 0.37639099 4.000000
0.51770300 -0.26592901 0.76628500 4.000000
-0.28279799 -0.26592901 -0.57015300 4.000000
-0.18047500 -0.26592901 0.62309003 4.000000
-0.20492500 -0.26592901 0.70086300 4.000000
-0.64223701 -0.26592901 0.15180200 4.000000
-0.45877701 -0.26592901 0.44246501 4.000000
0.63572001 -0.26592901 -0.29598999 4.000000
0.85716802 -0.26592901 0.24793300 4.000000
-0.77293903 -0.26592901 0.52380699 4.000000
-0.26742399 -0.26592901 -0.70751500 4.000000
-0.65465200 -0.26592901 0.20946699 4.000000
-0.66251898 -0.26592901 0.39056101 4.000000
0.77866900 -0.26592901 -0.45386001 4.000000
0.19427601 -0.26592901 0.93936002 4.000000
-0.90597397 -0.26592901 0.15357900 4.000000
-0.87273699 -0.26592901 -0.07648800 4.000000
0.72809303 -0.26592901 -0.22870500 4.000000
0.55853999 -0.26592901 -0.58807200 4.000000
-0.57746798 -0.26592901 -0.26229101 4.000000
0.77543002 -0.26592901 0.07757100 4.000000
-0.31304300 -0.26592901 0.56942099 4.000000
0.73575002 -0.26592901 -0.06239700 4.000000
-0.05733100 -0.26592901 -0.76388901 4.000000
0.41336700 -0.26592901 -0.61917901 4.000000
0.80270898 -0.26592901 -0.32956201 4.000000
0.39805099 -0.26592901 -0.70888501 4.000000
0.54806501 -0.26592901 -0.42962801 4.000000
0.22643501 -0.26592901 0.78279603 4.000000
-0.57266903 -0.26592901 0.58573997 4.000000
-0.80439901 -0.26592901 -0.28345799 4.000000
0.18179700 -0.26592901 -0.86780900 4.000000
0.11343700 -0.26592901 -0.78885901 4.000000
0.75541598 -0.26592901 -0.33499700 4.000000
-0.80701798 -0.26592901 0.00579200 4.000000
-0.31052500 -0.26592901 -0.77383602 4.000000
-0.00064000 -0.26592901 -0.82022703 4.000000
-0.87001997 -0.26592901 0.31827399 4.000000
0.69101000 -0.26592901 -0.04287800 4.000000
0.91763598 -0.26592901 0.20570999 4.000000
-0.78667498 -0.26592901 -0.36881101 4.000000
-0.74120700 -0.26592901 0.42996299 4.000000
0.61286497 -0.26592901 -0.50680500 4.000000
0.38855699 -0.26592901 0.63669401 4.000000
0.93838799 -0.26592901 -0.04981700 4.000000
-0.60698599 -0.26592901 -0.61427701 4.000000
0.65422702 -0.26592901 0.67847401 4.000000
-0.87639803 -0.26592901 -0.32914299 4.000000
0.31366000 -0.26592901 0.79916298 4.000000
0.71870100 -0.26592901 -0.57713997 4.000000
-0.47957301 -0.26592901 0.60103202 4.000000
-0.85520202 -0.26592901 -0.26529399 4.000000
-0.11237700 -0.26592901 -0.85940897 4.000000
-0.90232903 -0.26592901 0.09756600 4.000000
0.61124003 -0.26592901 0.50371599 4.000000
-0.00195000 -0.26592901 -0.69091100 4.000000
-0.48727599 -0.26592901 -0.70926899 4.000000
-0.40195301 -0.26592901 0.59053701 4.000000
-0.18103200 -0.26592901 -0.69081300 4.000000
-0.63821000 -0.26592901 -0.00934100 4.000000
-0.83389699 -0.26592901 -0.18929499 4.000000
-0.46379799 -0.26592901 -0.53095800 4.000000
0.34350201 -0.26592901 0.88260001 4.000000
0.55895501 -0.26592901 -0.31838301 4.000000
-0.48223099 -0.26592901 -0.61399102 4.000000
0.73467398 -0.26592901 -0.37890899 4.000000
0.17160100 -0.26592901 0.75137699 4.000000
-0.24676600 -0.26592901 0.89216202 4.000000
-0.84863001 -0.26592901 -0.15263601 4.000000
-0.66295701 -0.26592901 0.60343599 4.000000
-0.06657100 -0.26592901 -0.81331402 4.000000
-0.80327803 -0.26592901 0.29221201 4.000000
-0.49626800 -0.26592901 -0.79553002 4.000000
0.75645202 -0.26592901 0.13408101 4.000000
-0.31166101 -0.26592901 0.57924098 4.000000
-0.30276701 -0.26592901 0.75434399 4.000000
0.57257098 -0.26592901 0.39288101 4.000000
0.36203399 -0.26592901 -0.60346502 4.000000
-0.90618402 -0.26592901 0.04284500 4.000000
-0.64766401 -0.26592901 -0.55749100 4.000000
0.15365000 -0.26592901 -0.92530400 4.000000
0.12288700 -0.26592901 0.87705702 4.000000
0.60337597 -0.26592901 -0.62166399 4.000000
-0.77604598 -0.26592901 0.12494600 4.000000
-0.52722400 -0.26592901 0.42890000 4.000000
0.62259799 -0.26592901 0.21406800 4.000000
-0.67636198 -0.26592901 0.32102299 4.000000
-0.07567600 -0.26592901 -0.86399502 4.000000
0.59177798 -0.26592901 -0.64687300 4.000000
-0.78240597 -0.26592901 0.45057601 4.000000
0.52037799 -0.26592901 0.51248503 4.000000
0.12517899 -0.26592901 0.67735201 4.000000
-0.62047201 -0.26592901 -0.32987699 4.000000
-0.20314699 -0.26592901 0.84785801 4.000000
0.35513601 -0.26592901 0.66503900 4.000000
0.45829901 -0.26592901 -0.55596697 4.000000
0.74723798 -0.26592901 -0.33127001 4.000000
0.40950400 -0.26592901 0.50911701 4.000000
-0.24559000 -0.26592901 0.63774300 4.000000
-0.76631701 -0.26592901 -0.20350000 4.000000
-0.34578401 -0.26592901 -0.84316897 4.000000
0.61914998 -0.26592901 0.52882999 4.000000
0.47652200 -0.26592901 -0.63384700 4.000000
-0.75740099 -0.26592901 0.52763700 4.000000
0.23106600 -0.26592901 0.70074803 4.000000
0.11551600 -0.26592901 -0.77866203 4.000000
-0.11208200 -0.26592901 -0.82753998 4.000000
-0.12731400 -0.26592901 0.90382099 4.000000
0.02242700 -0.26592901 0.69101697 4.000000
-0.57535201 -0.26592901 -0.73079801 4.000000
0.78854400 -0.26592901 -0.11589900 4.000000
-0.64723003 -0.26592901 0.32850400 4.000000
0.83708102 -0.26592901 -0.14195900 4.000000
0.63301802 -0.26592901 -0.24334399 4.000000
0.78184098 -0.26592901 -0.09656000 4.000000
-0.70237201 -0.26592901 -0.21796601 4.000000
0.32198399 -0.26592901 0.67448902 4.000000
0.85874802 -0.26592901 0.28351700 4.000000
-0.26257500 -0.26499799 -0.56704003 4.000000
0.53837401 -0.26592901 0.36111900 4.000000
-0.89283901 -0.26592901 0.20872200 4.000000
-0.49885300 -0.26592901 -0.74853998 4.000000
-0.65376800 -0.26592901 0.19473501 4.000000
0.05727900 -0.26592901 0.84335500 4.000000
-0.57849097 -0.26592901 0.30736199 4.000000
0.75168997 -0.26592901 -0.14760900 4.000000
-0.04754800 -0.26592901 0.73061103 4.000000
-0.83684099 -0.26592901 0.29737100 4.000000
-0.86664200 -0.26592901 0.22050700 4.000000
0.73623502 -0.26592901 0.07202800 4.000000
-0.79056197 -0.26592901 -0.45085400 4.000000
0.05038100 -0.26592901 0.67486799 4.000000
-0.71487802 -0.26592901 0.51418501 4.000000
0.71928602 -0.26592901 -0.13616700 4.000000
0.83697200 -0.26592901 -0.14853799 4.000000
0.90421301 -0.26592901 0.15764900 4.000000
0.03292900 -0.26592901 -0.91895801 4.000000
0.40342501 -0.26592901 -0.53194898 4.000000
0.79634100 -0.26592901 0.15061501 4.000000
-0.21295200 -0.26592901 0.76657701 4.000000
0.40921301 -0.26592901 -0.75849599 4.000000
-0.57370800 -0.26592901 0.27264500 4.000000
0.56099498 -0.26592901 0.50933200 4.000000
-0.66864902 -0.26592901 -0.62689400 4.000000
-0.24767500 -0.26592901 -0.86299598 4.000000
-0.18001500 -0.26592901 0.66371202 4.000000
0.18430001 -0.26592901 0.70200002 4.000000
-0.65091401 -0.26592901 0.10830700 4.000000
-0.13235000 -0.26592901 0.92683202 4.000000
-0.45793000 -0.26592901 -0.53735399 4.000000
-0.64940500 -0.26592901 0.70675200 4.000000
0.70604402 -0.26592901 0.06914300 4.000000
-0.30763400 -0.26592901 0.82712400 4.000000
-0.23919700 -0.26592901 0.82502401 4.000000
-0.64242297 -0.26592901 -0.31370801 4.000000
-0.03077200 -0.26592901 -0.75583601 4.000000
0.69881201 -0.26592901 0.53515202 4.000000
-0.91303402 -0.26592901 0.21486101 4.000000
-0.71488100 -0.26592901 0.38050801 4.000000
-0.77802700 -0.26592901 0.44244701 4.000000
0.72739601 -0.26592901 0.15813500 4.000000
0.19116800 -0.26592901 0.78483802 4.000000
-0.93701899 -0.26592901 0.16081300 4.000000
-0.29690099 -0.26592901 -0.55982900 4.000000
0.23853201 -0.26592901 0.85948300 4.000000
0.39652300 -0.26592901 0.60903901 4.000000
-0.01088200 -0.26592901 0.95300502 4.000000
-0.63323998 -0.26592901 0.45967701 4.000000
0.45357701 -0.26592901 0.74920398 4.000000
-0.22192100 -0.26592901 -0.92784101 4.000000
-0.48086399 -0.26592901 -0.56274903 4.000000
0.60656297 -0.26592901 0.47179401 4.000000
0.82938701 -0.26592901 -0.36085501 4.000000
0.30775100 -0.26592901 0.64300400 4.000000
-0.59626800 -0.26592901 0.74092299 4.000000
-0.06736600 -0.26592901 0.74653798 4.000000
0.27193400 -0.26592901 0.69765103 4.000000
-0.52292699 -0.26592901 -0.76361400 4.000000
0.53468198 -0.26592901 -0.51385701 4.000000
-0.30514500 -0.26592901 -0.69359201 4.000000
-0.04638600 -0.26592901 -0.63451201 4.000000
0.40380299 -0.26592901 -0.49582601 4.000000
0.77160901 -0.26592901 -0.20684101 4.000000
-0.70870399 -0.26592901 -0.52782202 4.000000
-0.29427299 -0.26592901 0.89154601 4.000000
0.94276798 -0.26592901 -0.04706100 4.000000
0.84197098 -0.26592901 0.39079100 4.000000
0.91594797 -0.26592901 0.04520600 4.000000
-0.29457200 -0.26592901 -0.60022700 4.000000
-0.48935601 -0.26592901 -0.66147399 4.000000
0.68013197 -0.26592901 -0.56346297 4.000000
0.87381399 -0.26592901 0.17806600 4.000000
0.06192900 -0.26592901 -0.78511602 4.000000
0.47774300 -0.26592901 -0.64989698 4.000000
0.74455702 -0.26592901 -0.40060800 4.000000
0.84193802 -0.26592901 -0.06225400 4.000000
-0.68677098 -0.26592901 0.28170499 4.000000
0.73555702 -0.26592901 -0.18550900 4.000000
-0.27190700 -0.26592901 -0.65607703 4.000000
-0.65011299 -0.26592901 0.10288600 4.000000
0.20491700 -0.26592901 -0.83380198 4.000000
-0.67278498 -0.26592901 0.61479300 4.000000
0.83031499 -0.26592901 -0.31048799 4.000000
-0.41939801 -0.26592901 -0.49340299 4.000000
-0.65100002 -0.26592901 -0.13570200 4.000000
-0.37123901 -0.26592901 0.87861502 4.000000
-0.48518601 -0.26592901 -0.80200201 4.000000
0.18714701 -0.26360700 -0.93827599 4.000000
-0.72830498 -0.26592901 -0.48012799 4.000000
0.83289999 -0.26592901 0.34529400 4.000000
0.28564900 -0.26592901 -0.79760098 4.000000
0.89533401 -0.26342201 -0.34687799 4.000000
0.36525100 -0.26592901 -0.70967197 4.000000
-0.57055199 -0.26592901 0.68657100 4.000000
-0.45776299 -0.26592901 -0.49733901 4.000000
0.40292999 -0.26592901 -0.54796302 4.000000
-0.32903999 -0.26592901 0.70351398 4.000000
-0.78998899 -0.26592901 0.09219700 4.000000
-0.64845598 -0.26592901 -0.50732601 4.000000
0.59131598 -0.26592901 0.74808598 4.000000
-0.15264700 -0.26592901 0.82309598 4.000000
0.63346601 -0.26592901 0.16771600 4.000000
0.11546100 -0.26592901 0.66333801 4.000000
0.56815898 -0.26592901 -0.53961301 4.000000
-0.68075198 -0.26592901 0.10206300 4.000000
0.45400101 -0.26592901 -0.48130399 4.000000
0.66719502 -0.26592901 -0.61824697 4.000000
-0.47661400 -0.26592901 0.50983697 4.000000
0.47789800 -0.26592901 -0.57957602 4.000000
-0.73549402 -0.26592901 0.47538200 4.000000
-0.10348900 -0.26592901 -0.83933902 4.000000
-0.45960999 -0.26592901 0.56085700 4.000000
-0.55572200 -0.26592901 -0.56837302 4.000000
-0.06526300 -0.26592901 -0.82176501 4.000000
-0.81435001 -0.26592901 -0.21592700 4.000000
0.69835597 -0.26592901 -0.04951100 4.000000
0.59475303 -0.26592901 0.55488902 4.000000
0.65520799 -0.26592901 -0.36644799 4.000000
0.08184700 -0.26592901 0.73414898 4.000000
0.08071900 -0.26592901 -0.91306198 4.000000
-0.52581602 -0.26592901 0.77001399 4.000000
-0.36131501 -0.26592901 0.83237201 4.000000
0.52932501 -0.26592901 -0.38923800 4.000000
-0.33261701 -0.26592901 0.79544097 4.000000
-0.18967301 -0.26592901 0.86146402 4.000000
-0.65814298 -0.26592901 -0.14110300 4.000000
-0.62525398 -0.26592901 -0.29452601 4.000000
-0.41399401 -0.26592901 0.79400599 4.000000
0.50585502 -0.26592901 -0.75044203 4.000000
0.59449399 -0.26592901 -0.63178599 4.000000
-0.35460401 -0.26592901 -0.56436598 4.000000
-0.85602802 -0.26592901 0.00144700 4.000000
-0.09093700 -0.26592901 0.91548598 4.000000
0.62230599 -0.26592901 0.11835900 4.000000
0.48459801 -0.26592901 0.42420200 4.000000
0.47612599 -0.26592901 -0.68053001 4.000000
0.85022098 -0.26592901 -0.26327500 4.000000
-0.61563802 -0.26592901 -0.63529199 4.000000
-0.85163897 -0.26592901 -0.06042400 4.000000
-0.54396099 -0.26592901 -0.73786700 4.000000
0.55762601 -0.26592901 -0.68551099 4.000000
0.31163999 -0.26592901 -0.89168000 4.000000
-0.67784202 -0.26592901 0.33656201 4.000000
-0.16804001 -0.26592901 0.90169901 4.000000
-0.90325099 -0.26592901 0.21874100 4.000000
-0.58300298 -0.26592901 -0.70059502 4.000000
-0.52501398 -0.26592901 -0.60465902 4.000000
0.28752500 -0.26592901 0.65971601 4.000000
-0.52635598 -0.26592901 -0.63341898 4.000000
-0.74075502 -0.26592901 -0.59261698 4.000000
-0.61869401 -0.26592901 0.49090499 4.000000
-0.23380999 -0.26592901 -0.83625001 4.000000
0.39876801 -0.26592901 0.52675301 4.000000
0.71906197 -0.26592901 0.04787900 4.000000
0.78346801 -0.26592901 -0.42862901 4.000000
-0.27862301 -0.26592901 -0.72561401 4.000000
0.76075101 -0.26592901 0.37414601 4.000000
-0.25585300 -0.26592901 0.90231401 4.000000
0.38912299 -0.26592901 0.67862999 4.000000
-0.89555001 -0.26592901 -0.20785201 4.000000
0.67633301 -0.26592901 -0.15531500 4.000000
0.50045002 -0.26592901 0.53657901 4.000000
0.54259902 -0.26592901 0.35096800 4.000000
-0.51621902 -0.26592901 0.69465500 4.000000
0.82789898 -0.26423100 -0.48646301 4.000000
-0.34757599 -0.26592901 0.69524503 4.000000
-0.05877900 -0.26592901 -0.79754603 4.000000
0.84838700 -0.26592901 0.20276199 4.000000
-0.53276199 -0.26592901 -0.67553300 4.000000
0.87727201 -0.26592901 -0.06036900 4.000000
0.54136002 -0.26592901 0.54229099 4.000000
0.75594997 -0.26592901 -0.44734699 4.000000
0.33747900 -0.26592901 -0.57845998 4.000000
-0.35079801 -0.26592901 -0.77375901 4.000000
-0.78852898 -0.26592901 0.22299200 4.000000
0.57673901 -0.26592901 0.57883602 4.000000
0.78780103 -0.26592901 -0.07657400 4.000000
0.81006801 -0.26592901 0.01319900 4.000000
0.00956800 -0.26592901 -0.76640701 4.000000
0.24806599 -0.26592901 0.91874403 4.000000
-0.01284800 -0.26592901 0.68269902 4.000000
0.62553799 -0.26507500 0.08622000 4.000000
-0.42584899 -0.26592901 -0.47110999 4.000000
0.40233001 -0.26592901 0.53963101 4.000000
-0.67422599 -0.26592901 -0.33772501 4.000000
0.62893301 -0.26592901 -0.70234603 4.000000
-0.75481802 -0.26592901 -0.11906900 4.000000
0.25156900 -0.26592901 0.76254499 4.000000
0.96277797 -0.26230800 0.00624400 4.000000
-0.52236599 -0.26592901 0.77233398 4.000000
-0.55852002 -0.26592901 0.52458000 4.000000
-0.60527700 -0.26592901 -0.28108799 4.000000
-0.87802202 -0.26592901 -0.25116599 4.000000
0.72077203 -0.26592901 0.20829600 4.000000
0.74993902 -0.26592901 -0.17858499 4.000000
0.73231602 -0.26592901 0.21058300 4.000000
0.47851399 -0.26592901 0.67280197 4.000000
0.85718900 -0.26592901 -0.41264001 4.000000
0.84887999 -0.26592901 0.04312300 4.000000
0.56537801 -0.26592901 0.55127001 4.000000
-0.33916000 -0.26592901 0.66161901 4.000000
0.82846701 -0.26592901 -0.15669701 4.000000
-0.18186000 -0.26592901 -0.87747699 4.000000
0.29353800 -0.26592901 0.91023302 4.000000
-0.43425801 -0.26592901 -0.72129703 4.000000
-0.88439000 -0.26592901 -0.13120700 4.000000
0.37417600 -0.26592901 0.74533302 4.000000
0.32411900 -0.26592901 0.85971397 4.000000
0.31597000 -0.26592901 -0.71110201 4.000000
-0.76777101 -0.26592901 0.43160099 4.000000
0.27459899 -0.26592901 0.64843798 4.000000
0.62083799 -0.26592901 -0.36903799 4.000000
0.73129803 -0.26592901 0.31116799 4.000000
-0.44049501 -0.26592901 0.84565997 4.000000
-0.59655797 -0.26592901 0.68387300 4.000000
0.39313799 -0.26592901 -0.60042000 4.000000
-0.12395500 -0.26592901 -0.93591702 4.000000
-0.58215398 -0.26592901 -0.65926301 4.000000
-0.49494201 -0.26592901 0.41545299 4.000000
0.31937701 -0.26592901 0.71688002 4.000000
0.83059698 -0.26592901 0.15827800 4.000000
-0.07853100 -0.26592901 -0.82097697 4.000000
0.69786900 -0.26592901 -0.08737700 4.000000
0.58466202 -0.26592901 0.61677599 4.000000
-0.33297101 -0.26592901 -0.54183799 4.000000
-0.84422201 -0.26592901 0.08326200 4.000000
0.83307397 -0.26592901 -0.01350600 4.000000
0.76139998 -0.26592901 0.22071800 4.000000
-0.35717899 -0.26592901 0.58953398 4.000000
-0.92153299 -0.26592901 0.02565300 4.000000
-0.31782201 -0.26592901 0.63854402 4.000000
-0.65625900 -0.26592901 -0.33889401 4.000000
0.69993699 -0.26592901 0.11921300 4.000000
-0.24898700 -0.26592901 -0.63867599 4.000000
-0.49036101 -0.26592901 0.43814000 4.000000
-0.94139898 -0.26499000 0.17470700 4.000000
0.50277603 -0.26592901 0.76761901 4.000000
-0.57536101 -0.26592901 0.72978401 4.000000
-0.02698300 -0.26592901 -0.69963002 4.000000
-0.80405301 -0.26592901 0.49114001 4.000000
0.61898100 -0.26592901 -0.28400299 4.000000
0.21517400 -0.26592901 0.74408799 4.000000
0.71964800 -0.26592901 -0.54513401 4.000000
0.68431699 -0.26592901 0.36140999 4.000000
0.81703800 -0.26592901 -0.12992901 4.000000
-0.10120200 -0.26592901 0.67710501 4.000000
0.35233399 -0.26592901 0.62165201 4.000000
-0.70190400 -0.26592901 -0.48987600 4.000000
-0.67050600 -0.26592901 -0.56267601 4.000000
-0.65501601 -0.26592901 -0.41610900 4.000000
0.64317101 -0.26592901 0.21824600 4.000000
0.82288498 -0.26592901 0.32845500 4.000000
0.54576099 -0.26592901 -0.40663901 4.000000
-0.76670200 -0.26592901 0.54385900 4.000000
-0.00164300 -0.26592901 0.79275799 4.000000
-0.88180703 -0.26592901 -0.30689499 4.000000
-0.22075200 -0.26592901 -0.89908302 4.000000
-0.34645200 -0.26592901 0.58575702 4.000000
-0.35159400 -0.26592901 0.85805601 4.000000
0.59224099 -0.26592901 -0.46947101 4.000000
-0.20780399 -0.26592901 -0.74341899 4.000000
-0.79219800 -0.26592901 0.15914699 4.000000
0.82001400 -0.26569301 0.50564200 4.000000
0.04792500 -0.26592901 0.93685901 4.000000
0.73656201 -0.26592901 0.27168500 4.000000
0.36990100 -0.26592901 0.71250498 4.000000
0.87658799 -0.26592901 0.02852100 4.000000
-0.44527999 -0.26592901 0.80035102 4.000000
-0.54592800 -0.26592901 0.40897900 4.000000
0.21247301 -0.26592901 -0.91747302 4.000000
0.45836401 -0.26592901 -0.66294003 4.000000
-0.56463099 -0.26592901 -0.40724099 4.000000
0.19486700 -0.26592901 0.71758503 4.000000
-0.68253601 -0.26592901 -0.53257799 4.000000
-0.63483298 -0.26592901 0.59840500 4.000000
-0.74551702 -0.26592901 0.16382401 4.000000
-0.17845599 -0.26592901 -0.61199498 4.000000
0.72963500 -0.26592901 0.41858700 4.000000
0.25141099 -0.26592901 -0.78853101 4.000000
0.48433799 -0.26592901 0.59358197 4.000000
0.61595201 -0.26592901 0.52015400 4.000000
0.87994301 -0.26386401 0.39401001 4.000000
0.70365697 -0.26592901 0.12453300 4.000000
0.31076500 -0.26592901 0.83447200 4.000000
0.10910700 -0.26431200 -0.61588502 4.000000
-0.49301499 -0.26592901 0.72038502 4.000000
0.65832603 -0.26592901 -0.20849200 4.000000
0.95972198 -0.26592901 0.06333200 4.000000
-0.39590499 -0.26592901 0.68670398 4.000000
-0.37805399 -0.26592901 0.63673800 4.000000
0.63754201 -0.26592901 0.67359501 4.000000
-0.27440000 -0.26592901 -0.88483900 4.000000
0.77456403 -0.26592901 -0.46070001 4.000000
0.26857099 -0.26592901 -0.77891201 4.000000
0.77367997 -0.26592901 0.03334100 4.000000
0.91363603 -0.26592901 0.16834000 4.000000
-0.38363600 -0.26592901 -0.49493900 4.000000
0.68858802 -0.26592901 0.65356499 4.000000
0.07321400 -0.26592901 -0.67169702 4.000000
-0.85084701 -0.26592901 0.29763901 4.000000
-0.06228100 -0.26592901 0.80935401 4.000000
-0.62156498 -0.26592901 -0.15766700 4.000000
0.70192701 -0.26592901 0.31863600 4.000000
0.30146801 -0.26592901 -0.83348000 4.000000
0.13599700 -0.26592901 -0.82968599 4.000000
0.34888399 -0.26277500 -0.89084101 4.000000
0.40874401 -0.26592901 0.78188401 4.000000
0.06233100 -0.26592901 -0.90074497 4.000000
0.69722199 -0.26592901 -0.55416501 4.000000
0.31227899 -0.26592901 0.84339303 4.000000
-0.29345599 -0.26592901 -0.57849097 4.000000
-0.55552399 -0.26592901 0.57000101 4.000000
0.32185999 -0.26592901 -0.66516697 4.000000
-0.73726499 -0.26592901 0.59890002 4.000000
0.77108598 -0.26592901 0.08280900 4.000000
0.35003701 -0.26592901 0.78592497 4.000000
0.46158299 -0.26592901 0.69003999 4.000000
0.80770200 -0.26592901 0.36733600 4.000000
0.25979000 -0.26592901 0.83968401 4.000000
0.19108500 -0.26592901 0.61765897 4.000000
0.67063898 -0.26592901 -0.17192200 4.000000
-0.24482900 -0.26592901 0.86907297 4.000000
-0.61355698 -0.26592901 -0.53271401 4.000000
-0.21040501 -0.26592901 -0.65501100 4.000000
-0.56649399 -0.26592901 0.34878799 4.000000
0.71227300 -0.26592901 0.34189299 4.000000
0.54163897 -0.26592901 -0.68530399 4.000000
0.48446599 -0.26592901 -0.58217198 4.000000
-0.84702998 -0.26592901 -0.19581699 4.000000
0.75391501 -0.26592901 -0.08166200 4.000000
-0.03590200 -0.26592901 -0.69703197 4.000000
0.23985600 -0.26592901 0.66838503 4.000000
0.81400901 -0.26592901 -0.08363200 4.000000
0.15596700 -0.26592901 0.88527900 4.000000
-0.33206400 -0.26592901 -0.74282199 4.000000
-0.20269600 -0.26592901 0.89653999 4.000000
-0.12075300 -0.26592901 0.83081400 4.000000
-0.02218400 -0.26592901 -0.65170699 4.000000
0.23731799 -0.26592901 0.71546698 4.000000
-0.53185099 -0.26592901 -0.70653403 4.000000
-0.07538300 -0.26592901 0.68394703 4.000000
0.03133400 -0.26592901 0.73154598 4.000000
-0.32194501 -0.26592901 -0.62985498 4.000000
-0.46064100 -0.26592901 -0.76952100 4.000000
-0.61193198 -0.26592901 0.63522702 4.000000
-0.25268701 -0.26592901 0.81330198 4.000000
0.65835798 -0.26592901 0.57106602 4.000000
