-0.24912000 -0.52432799 -0.61957800 3.000000
-0.23508599 -0.52432799 0.40108201 3.000000
-0.15623701 -0.52432799 0.32378900 3.000000
-0.20470400 -0.52432799 0.22581300 3.000000
0.43675101 -0.52432799 -0.24662000 3.000000
0.00245300 -0.52432799 -0.55824000 3.000000
0.37078100 -0.52432799 -0.64065301 3.000000
0.22274400 -0.52432799 -0.02750500 3.000000
-0.06657700 -0.52432799 -0.56576800 3.000000
0.17809400 -0.52432799 0.40292299 3.000000
0.44279999 -0.52432799 0.30579999 3.000000
0.35488200 -0.52432799 0.47671601 3.000000
0.18606700 -0.52432799 -0.04077700 3.000000
-0.13373201 -0.52432799 -0.47974700 3.000000
0.31781101 -0.52432799 0.04310300 3.000000
0.03825900 -0.52432799 0.12730899 3.000000
0.06840900 -0.52432799 -0.01281500 3.000000
0.08588800 -0.52432799 0.37171501 3.000000
0.32505900 -0.52432799 -0.65132999 3.000000
-0.38423601 -0.52432799 -0.65566301 3.000000
0.16699500 -0.52432799 -0.13457800 3.000000
-0.30044299 -0.52432799 0.06995200 3.000000
-0.10690100 -0.52432799 0.21588100 3.000000
-0.04861500 -0.52432799 -0.50909102 3.000000
-0.41070899 -0.52432799 0.64471799 3.000000
-0.22493000 -0.52432799 -0.03429800 3.000000
0.02998500 -0.52432799 -0.21962900 3.000000
-0.45846999 -0.52432799 0.62998402 3.000000
-0.17647500 -0.52432799 0.08599000 3.000000
0.42787701 -0.52432799 0.00739000 3.000000
-0.20184401 -0.52432799 -0.35426301 3.000000
0.11790100 -0.52432799 0.06622400 3.000000
0.25943199 -0.52432799 0.19973500 3.000000
-0.39783099 -0.52432799 -0.59937000 3.000000
-0.06964800 -0.52432799 -0.18707500 3.000000
0.29980901 -0.52432799 0.00546100 3.000000
-0.31069699 -0.52432799 0.49903101 3.000000
-0.35679701 -0.52432799 -0.56779498 3.000000
0.33168000 -0.52432799 0.20025200 3.000000
-0.04877600 -0.52432799 -0.47773501 3.000000
-0.15812901 -0.52432799 0.32714599 3.000000
-0.37354401 -0.52432799 -0.52915102 3.000000
0.08583800 -0.52432799 -0.43137100 3.000000
0.12399100 -0.52432799 0.28592101 3.000000
0.41018200 -0.52432799 -0.54419702 3.000000
0.46138701 -0.52432799 -0.35817701 3.000000
0.22549400 -0.52432799 -0.35765600 3.000000
0.34534100 -0.52432799 -0.39985499 3.000000
0.16911100 -0.52432799 -0.40143901 3.000000
0.01601600 -0.52432799 -0.06178200 3.000000
0.03033500 -0.52432799 -0.24806100 3.000000
0.36976200 -0.52432799 -0.18686800 3.000000
-0.06109700 -0.52432799 -0.46068299 3.000000
-0.11397200 -0.52432799 0.46152300 3.000000
-0.43858299 -0.52432799 0.17094000 3.000000
-0.10492800 -0.52432799 -0.63337499 3.000000
-0.35813800 -0.52432799 0.22774801 3.000000
-0.23132800 -0.52432799 0.48444200 3.000000
-0.30338001 -0.52432799 0.10856000 3.000000
0.45798501 -0.52432799 0.13300300 3.000000
0.12647600 -0.52432799 0.12468000 3.000000
0.09936200 -0.52432799 -0.19969800 3.000000
0.14983501 -0.52432799 0.26338500 3.000000
0.45190600 -0.52432799 -0.16199300 3.000000
0.33006501 -0.52432799 -0.42706999 3.000000
0.46179900 -0.52432799 0.67839003 3.000000
-0.40043700 -0.52432799 0.36614299 3.000000
0.17155001 -0.52432799 0.44821900 3.000000
-0.40757301 -0.52432799 0.26314700 3.000000
0.14955799 -0.52432799 0.11943300 3.000000
-0.20589299 -0.52432799 -0.66663897 3.000000
0.34494901 -0.52432799 -0.01795400 3.000000
0.00531100 -0.52432799 -0.05369600 3.000000
0.36882499 -0.52432799 0.05787900 3.000000
-0.06171600 -0.52432799 0.04851400 3.000000
-0.48700899 -0.52432799 0.65730399 3.000000
-0.49789700 -0.52432799 0.19701201 3.000000
0.02067900 -0.52432799 -0.61209899 3.000000
-0.07398200 -0.52432799 0.33068100 3.000000
0.19903100 -0.52432799 0.57188898 3.000000
0.49852499 -0.52432799 -0.41380900 3.000000
-0.17408900 -0.52432799 0.31276101 3.000000
-0.45240301 -0.52432799 -0.40196800 3.000000
-0.41053700 -0.52432799 -0.27375999 3.000000
-0.38433799 -0.52432799 0.02966000 3.000000
0.32863399 -0.52432799 -0.05720600 3.000000
0.31788501 -0.52432799 0.27089500 3.000000
-0.18998100 -0.52432799 -0.22954699 3.000000
-0.39096501 -0.52432799 0.35533899 3.000000
0.46406600 -0.52432799 0.38446599 3.000000
-0.10145200 -0.52432799 0.56395799 3.000000
-0.30261201 -0.52432799 -0.19243500 3.000000
0.24277300 -0.52432799 0.56531203 3.000000
0.05203500 -0.52432799 -0.26829800 3.000000
-0.07620900 -0.52432799 0.14796001 3.000000
0.20598900 -0.52432799 -0.47683400 3.000000
-0.02636600 -0.52432799 -0.39972100 3.000000
-0.40642399 -0.52432799 0.67926198 3.000000
0.15828900 -0.52432799 -0.24101400 3.000000
-0.14475800 -0.52432799 -0.53909802 3.000000
-0.46849701 -0.52432799 0.53942299 3.000000
-0.17150700 -0.52432799 -0.29014400 3.000000
-0.10583100 -0.52432799 0.22640000 3.000000
-0.39081100 -0.52432799 -0.65933800 3.000000
0.49958500 -0.52432799 0.27413401 3.000000
0.23090100 -0.52432799 0.19684200 3.000000
0.22562400 -0.52432799 -0.32379600 3.000000
0.38716400 -0.52432799 -0.67173398 3.000000
-0.18383101 -0.52432799 -0.15467900 3.000000
0.02903300 -0.52432799 0.44134301 3.000000
0.20126200 -0.52432799 -0.34029001 3.000000
0.14453000 -0.52432799 -0.40173501 3.000000
0.42475101 -0.52432799 0.25999999 3.000000
-0.45823199 -0.52432799 -0.13579300 3.000000
-0.51411098 -0.52432799 0.48726499 3.000000
-0.37053701 -0.52432799 -0.58450598 3.000000
0.44360301 -0.52432799 0.59346801 3.000000
-0.10890100 -0.52432799 0.28142101 3.000000
-0.23288999 -0.52403700 0.68915200 3.000000
-0.49670300 -0.52432799 0.24239500 3.000000
-0.16832800 -0.52432799 0.30445501 3.000000
-0.11325400 -0.52432799 0.51209003 3.000000
-0.07744900 -0.52432799 -0.45988399 3.000000
-0.42897701 -0.52432799 0.39503199 3.000000
-0.03346500 -0.52432799 0.27982199 3.000000
0.34131500 -0.52432799 0.34692901 3.000000
0.10582900 -0.52432799 -0.09674300 3.000000
0.06282300 -0.52432799 -0.52482498 3.000000
-0.19528000 -0.52432799 0.37734899 3.000000
0.48707700 -0.52432799 0.60293102 3.000000
0.21610600 -0.52432799 0.62820101 3.000000
-0.47287700 -0.52432799 0.13417000 3.000000
-0.36901799 -0.52432799 0.19619100 3.000000
-0.23274100 -0.52432799 -0.09694700 3.000000
0.34875801 -0.52432799 -0.67390001 3.000000
0.11884800 -0.52432799 0.31514499 3.000000
0.05939300 -0.52432799 0.49629900 3.000000
0.09896200 -0.52432799 -0.29427001 3.000000
-0.20181100 -0.52432799 0.60327601 3.000000
0.49819699 -0.52432799 0.06625800 3.000000
0.21532500 -0.52432799 0.14684400 3.000000
-0.35469601 -0.52432799 0.64184600 3.000000
0.08751900 -0.52432799 0.24997100 3.000000
0.32792899 -0.52432799 -0.16838200 3.000000
-0.06719600 -0.52432799 0.22126900 3.000000
0.48638901 -0.52432799 0.33651301 3.000000
0.23150600 -0.52432799 -0.41805601 3.000000
-0.40042600 -0.52432799 0.47694299 3.000000
-0.36578801 -0.52432799 -0.57854599 3.000000
-0.03368400 -0.52432799 0.45498201 3.000000
0.12611000 -0.52432799 -0.41418901 3.000000
0.32942599 -0.52432799 -0.18144201 3.000000
-0.47182399 -0.52432799 -0.13309000 3.000000
-0.17047600 -0.52432799 0.41114101 3.000000
0.18625700 -0.52432799 0.56656098 3.000000
0.11304800 -0.52432799 -0.65345401 3.000000
-0.22332500 -0.52432799 -0.14912300 3.000000
0.40645301 -0.52432799 0.44529399 3.000000
-0.22242901 -0.52432799 0.62322903 3.000000
-0.36026901 -0.52432799 -0.27517900 3.000000
-0.08728200 -0.52432799 0.39519301 3.000000
0.18482700 -0.52432799 0.29778901 3.000000
-0.29018101 -0.52432799 -0.63949603 3.000000
-0.32392299 -0.52432799 -0.17807500 3.000000
-0.01207500 -0.52432799 -0.02248700 3.000000
-0.51538801 -0.52420902 0.33407399 3.000000
0.36008099 -0.52432799 -0.03442200 3.000000
0.43198001 -0.52432799 -0.16980200 3.000000
0.11376600 -0.52432799 0.42249200 3.000000
0.34365600 -0.52432799 -0.01889800 3.000000
0.21484900 -0.52432799 -0.59055698 3.000000
-0.37908599 -0.52432799 0.43177000 3.000000
0.02084300 -0.52432799 0.14609000 3.000000
-0.23760600 -0.52432799 0.54108000 3.000000
0.23786500 -0.52432799 -0.41719201 3.000000
-0.39934099 -0.52432799 -0.10196600 3.000000
-0.47592801 -0.52432799 0.03099500 3.000000
0.27401200 -0.52432799 -0.21912199 3.000000
-0.22612900 -0.52432799 0.37903699 3.000000
0.50039101 -0.52432799 0.34980899 3.000000
0.33884001 -0.52432799 0.63222897 3.000000
0.40130901 -0.52432799 0.62302500 3.000000
-0.02842700 -0.52432799 0.07907600 3.000000
-0.09416100 -0.52432799 0.42713201 3.000000
0.01648200 -0.52432799 -0.40503600 3.000000
-0.07981100 -0.52432799 -0.26326001 3.000000
0.30732900 -0.52432799 -0.41941801 3.000000
0.15197000 -0.52432799 -0.30315199 3.000000
-0.49814099 -0.52432799 -0.16427200 3.000000
0.05576400 -0.52432799 0.27592900 3.000000
-0.29926100 -0.52432799 0.43871400 3.000000
-0.41060001 -0.52432799 0.18498300 3.000000
0.34340501 -0.52432799 0.36774901 3.000000
0.22170900 -0.52432799 0.17068100 3.000000
0.04907200 -0.52432799 -0.61332601 3.000000
0.35602799 -0.52432799 0.14003301 3.000000
0.40354899 -0.52432799 0.39499199 3.000000
0.28143099 -0.52432799 0.12277900 3.000000
0.35372901 -0.52432799 -0.10903300 3.000000
0.21536100 -0.52432799 0.19948800 3.000000
0.05122400 -0.52432799 -0.63051599 3.000000
-0.30818099 -0.52432799 -0.22461601 3.000000
-0.00524100 -0.52432799 0.02559700 3.000000
-0.24969301 -0.52432799 -0.62417299 3.000000
0.15030500 -0.52432799 0.09887400 3.000000
0.01659400 -0.52432799 -0.24941000 3.000000
-0.22873800 -0.52432799 0.68260503 3.000000
-0.46177000 -0.52432799 -0.08019900 3.000000
-0.40601501 -0.52432799 0.34166500 3.000000
0.20698400 -0.52432799 0.32551301 3.000000
-0.38804099 -0.52432799 -0.41255701 3.000000
0.24793901 -0.52432799 0.61943001 3.000000
0.03340700 -0.52432799 -0.08034700 3.000000
-0.16352101 -0.52432799 -0.61492699 3.000000
-0.29710400 -0.52432799 -0.64081502 3.000000
-0.08170800 -0.52432799 -0.55584002 3.000000
-0.28549999 -0.52432799 -0.54402298 3.000000
0.40963101 -0.52432799 -0.14968701 3.000000
0.45361799 -0.52432799 -0.29913101 3.000000
0.47900400 -0.52432799 0.12389800 3.000000
-0.47574300 -0.52432799 0.41881499 3.000000
0.02068500 -0.52432799 -0.66489398 3.000000
0.28598601 -0.52432799 -0.62362599 3.000000
0.29654801 -0.52432799 0.58848900 3.000000
-0.31495601 -0.52432799 -0.17471400 3.000000
0.30900401 -0.52432799 -0.60983902 3.000000
0.40981999 -0.52432799 0.55389100 3.000000
0.20213699 -0.52432799 0.10110000 3.000000
-0.47804400 -0.52432799 -0.57720602 3.000000
0.25050101 -0.52432799 0.05200300 3.000000
0.32833999 -0.52432799 0.01325400 3.000000
0.10867100 -0.52432799 -0.25253600 3.000000
0.10481600 -0.52432799 -0.29034701 3.000000
-0.42821100 -0.52432799 -0.19522201 3.000000
-0.41785899 -0.52432799 -0.03471600 3.000000
0.27380499 -0.52432799 0.33849701 3.000000
-0.37382299 -0.52432799 -0.24123199 3.000000
0.12710300 -0.52432799 0.01242300 3.000000
0.40770900 -0.52432799 -0.33722401 3.000000
-0.00812700 -0.52432799 -0.23818099 3.000000
-0.01481800 -0.52346200 0.68915200 3.000000
0.18263300 -0.52432799 -0.62312198 3.000000
-0.18436000 -0.52432799 0.66039801 3.000000
0.11106700 -0.52432799 -0.52812201 3.000000
0.20981200 -0.52432799 0.64103103 3.000000
-0.20566900 -0.52432799 -0.09304300 3.000000
-0.14648101 -0.52432799 0.12340600 3.000000
-0.07068900 -0.52432799 0.04413600 3.000000
-0.04749800 -0.52432799 -0.61390197 3.000000
0.03267000 -0.52432799 -0.51769102 3.000000
-0.03658900 -0.52432799 0.56163102 3.000000
-0.14083099 -0.52432799 0.19210599 3.000000
-0.12651600 -0.52432799 -0.60219502 3.000000
-0.37460101 -0.52432799 0.20478500 3.000000
0.32021800 -0.52432799 0.29443401 3.000000
0.06834400 -0.52432799 -0.05172300 3.000000
0.42535299 -0.52432799 -0.39561000 3.000000
-0.49156600 -0.52432799 0.02870500 3.000000
0.02184000 -0.52432799 0.50513202 3.000000
-0.43166199 -0.52432799 -0.64563602 3.000000
0.46985200 -0.52432799 0.09446700 3.000000
-0.21841900 -0.52432799 -0.16978399 3.000000
0.40105399 -0.52432799 -0.01490300 3.000000
-0.47893500 -0.52432799 -0.29517800 3.000000
-0.04162700 -0.52432799 -0.40428299 3.000000
0.11556300 -0.52432799 -0.09315900 3.000000
-0.21307300 -0.52432799 -0.37215099 3.000000
-0.45910800 -0.52432799 -0.34162599 3.000000
0.43383399 -0.52432799 -0.02289800 3.000000
0.45228100 -0.52432799 0.30068600 3.000000
0.44475201 -0.52432799 0.15979899 3.000000
-0.35298699 -0.52432799 0.57769197 3.000000
0.33569100 -0.52432799 0.08671000 3.000000
-0.44175601 -0.52432799 -0.14028800 3.000000
-0.23299000 -0.52432799 -0.60461599 3.000000
-0.32197401 -0.52432799 0.28765699 3.000000
-0.40420300 -0.52432799 0.64134198 3.000000
-0.29336700 -0.52432799 -0.57025599 3.000000
0.19347700 -0.52432799 0.06451700 3.000000
0.04159100 -0.52432799 -0.61164600 3.000000
-0.42994401 -0.52432799 -0.16118599 3.000000
0.20416100 -0.52432799 0.51080501 3.000000
0.13069400 -0.52432799 -0.12853201 3.000000
-0.18100700 -0.52432799 0.18661600 3.000000
-0.47728801 -0.52432799 -0.07945500 3.000000
0.32861701 -0.52432799 -0.48500100 3.000000
-0.01260300 -0.52432799 0.53176701 3.000000
0.14343201 -0.52432799 0.60297298 3.000000
0.37769201 -0.52120501 0.68915200 3.000000
0.41642901 -0.52432799 -0.26044700 3.000000
-0.05213700 -0.52432799 0.30018601 3.000000
0.20923001 -0.52432799 -0.50245899 3.000000
0.13294201 -0.52432799 -0.20584901 3.000000
0.15495700 -0.52432799 -0.25455400 3.000000
0.35270399 -0.52432799 -0.15643200 3.000000
0.04527100 -0.52432799 -0.51934397 3.000000
-0.13716400 -0.52432799 0.02568900 3.000000
-0.01793200 -0.52432799 0.00925100 3.000000
-0.14797901 -0.52432799 0.60113001 3.000000
0.39355201 -0.52432799 -0.16506401 3.000000
-0.05341400 -0.52432799 0.44497401 3.000000
0.26666701 -0.52432799 0.57301199 3.000000
-0.00992900 -0.52432799 -0.40740901 3.000000
0.41043499 -0.52432799 -0.09385100 3.000000
-0.50078499 -0.52432799 0.17747800 3.000000
-0.14990699 -0.52432799 -0.44080299 3.000000
0.01439700 -0.52432799 -0.03411400 3.000000
-0.34020400 -0.52432799 0.19424500 3.000000
-0.37634099 -0.52432799 0.11795600 3.000000
-0.47806600 -0.52432799 0.04648800 3.000000
0.49435899 -0.52432799 -0.04020200 3.000000
0.23327500 -0.52432799 0.02034100 3.000000
-0.26013699 -0.52432799 0.23958001 3.000000
-0.12518699 -0.52432799 0.14939000 3.000000
0.43661100 -0.52432799 -0.31614399 3.000000
-0.32313600 -0.52432799 -0.12482900 3.000000
0.35423201 -0.52432799 -0.38410100 3.000000
0.08166600 -0.52432799 0.25598499 3.000000
0.20837900 -0.52432799 -0.15106399 3.000000
-0.07012100 -0.52432799 0.50631899 3.000000
-0.31521299 -0.52432799 0.04990800 3.000000
0.01042900 -0.52432799 0.47233000 3.000000
-0.35779300 -0.52432799 -0.04341000 3.000000
-0.35101801 -0.52432799 0.14195800 3.000000
-0.11693400 -0.52432799 0.57161897 3.000000
-0.31811199 -0.52432799 0.02470400 3.000000
-0.20447700 -0.52432799 0.03114600 3.000000
-0.10726200 -0.52432799 -0.43109700 3.000000
0.43430799 -0.52432799 0.50824898 3.000000
-0.42658299 -0.52432799 -0.01353200 3.000000
0.39890799 -0.52432799 0.04099500 3.000000
-0.07264300 -0.52432799 0.21644001 3.000000
0.33671200 -0.52432799 0.43769300 3.000000
-0.09890200 -0.52432799 0.25890601 3.000000
0.20188600 -0.52432799 0.62101603 3.000000
0.19750200 -0.52432799 0.02106300 3.000000
0.27585700 -0.52432799 -0.51313102 3.000000
-0.22409800 -0.52432799 0.12758900 3.000000
0.21521300 -0.52432799 -0.31470001 3.000000
-0.48563501 -0.52432799 0.61464500 3.000000
0.31556901 -0.52432799 -0.64267099 3.000000
0.16803600 -0.52432799 -0.14630800 3.000000
-0.06147000 -0.52432799 -0.26535800 3.000000
0.08563100 -0.52432799 0.55596900 3.000000
0.03734300 -0.52080601 0.68915200 3.000000
-0.01997800 -0.52432799 0.14222100 3.000000
0.35883999 -0.52432799 -0.62458801 3.000000
-0.42703599 -0.52432799 0.09837200 3.000000
-0.25642899 -0.52432799 0.67254698 3.000000
0.30800501 -0.52432799 -0.07711800 3.000000
0.34638500 -0.52432799 0.02505000 3.000000
0.18541799 -0.52432799 -0.47338501 3.000000
-0.25559700 -0.52432799 -0.32416299 3.000000
0.12113500 -0.52432799 -0.45797601 3.000000
0.23057801 -0.52432799 -0.23563600 3.000000
0.28118700 -0.52432799 -0.03502300 3.000000
0.06459000 -0.52432799 0.52209997 3.000000
-0.17646000 -0.52432799 -0.34858599 3.000000
-0.38970599 -0.52432799 -0.14900900 3.000000
-0.08149200 -0.52432799 0.61331898 3.000000
0.43794101 -0.52432799 -0.18681900 3.000000
0.34808001 -0.52432799 0.40270200 3.000000
0.34211999 -0.52432799 0.32906899 3.000000
-0.00025800 -0.52432799 -0.30348700 3.000000
0.06557300 -0.52432799 0.14123499 3.000000
0.44605699 -0.52432799 -0.18604501 3.000000
0.06980800 -0.52432799 -0.50595999 3.000000
-0.43748301 -0.52432799 -0.11143500 3.000000
-0.06172400 -0.52432799 0.41461200 3.000000
-0.34896699 -0.52432799 0.42879501 3.000000
-0.06512000 -0.52432799 0.30387500 3.000000
0.31016299 -0.52432799 0.41563001 3.000000
0.19627599 -0.52432799 0.13214099 3.000000
0.20544299 -0.52432799 0.42057699 3.000000
0.21261200 -0.52432799 -0.26380801 3.000000
-0.21204300 -0.52432799 -0.21413501 3.000000
-0.08765400 -0.52432799 0.44058400 3.000000
0.38584000 -0.52432799 -0.02552400 3.000000
0.25818700 -0.52432799 -0.15864600 3.000000
0.15600500 -0.52432799 -0.57849598 3.000000
-0.28992200 -0.52432799 -0.02668500 3.000000
0.46184301 -0.52432799 -0.29550499 3.000000
0.39345601 -0.52432799 0.11055000 3.000000
-0.41787401 -0.52432799 -0.55091602 3.000000
0.46527901 -0.52432799 0.64486599 3.000000
0.49040601 -0.52432799 0.31131500 3.000000
-0.31887200 -0.52432799 0.02786400 3.000000
-0.17670600 -0.52432799 0.26826900 3.000000
-0.51366901 -0.52432799 0.59169102 3.000000
0.05573300 -0.52432799 0.60030401 3.000000
0.02544400 -0.52432799 -0.25455201 3.000000
-0.11634500 -0.52432799 0.65214097 3.000000
0.44174799 -0.52432799 -0.52460903 3.000000
-0.45069399 -0.52432799 -0.53266102 3.000000
0.31332201 -0.52432799 -0.39884400 3.000000
-0.04149000 -0.52432799 0.62848800 3.000000
-0.03725800 -0.52432799 -0.17599300 3.000000
-0.11943500 -0.52432799 -0.67203897 3.000000
0.27612400 -0.52432799 -0.37281799 3.000000
0.43614301 -0.52432799 -0.57418901 3.000000
0.43787301 -0.52432799 -0.00488900 3.000000
-0.00869800 -0.52432799 -0.04720600 3.000000
-0.27109200 -0.52432799 -0.38758799 3.000000
0.08975500 -0.52432799 0.54310203 3.000000
-0.18248700 -0.52432799 -0.45290399 3.000000
0.05410700 -0.52432799 0.56243497 3.000000
0.32968199 -0.52432799 -0.17703900 3.000000
0.21658500 -0.52432799 -0.18687600 3.000000
-0.42162400 -0.52432799 0.10283600 3.000000
-0.46168199 -0.52432799 -0.19723400 3.000000
-0.10689100 -0.52432799 0.34893900 3.000000
-0.43527400 -0.52432799 -0.06442400 3.000000
-0.26622599 -0.52432799 0.48931199 3.000000
0.12239100 -0.52432799 -0.64985198 3.000000
-0.04912600 -0.52432799 0.24002101 3.000000
-0.10223100 -0.52432799 -0.22197500 3.000000
-0.51185203 -0.52432799 0.21145099 3.000000
0.43245500 -0.52432799 0.60729402 3.000000
0.34949800 -0.52432799 -0.59861898 3.000000
0.25216201 -0.52432799 -0.58806503 3.000000
0.27797499 -0.52432799 -0.15502200 3.000000
-0.37230000 -0.52432799 0.65895200 3.000000
0.01124600 -0.52432799 -0.61362898 3.000000
0.28593200 -0.52432799 0.24656101 3.000000
0.38767299 -0.52432799 -0.12588200 3.000000
0.39291999 -0.52432799 -0.57210702 3.000000
-0.06524500 -0.52432799 -0.56522900 3.000000
-0.16956200 -0.52432799 -0.02204400 3.000000
0.35591200 -0.52432799 -0.17991400 3.000000
0.18978600 -0.52432799 0.34932700 3.000000
0.20783700 -0.52432799 -0.26148000 3.000000
-0.43904701 -0.52432799 -0.59305298 3.000000
-0.44264001 -0.52432799 -0.20500700 3.000000
0.41944399 -0.52432799 -0.20651200 3.000000
0.19853100 -0.52432799 -0.59265202 3.000000
-0.45419800 -0.52432799 0.14052200 3.000000
0.08584300 -0.52432799 0.15605600 3.000000
-0.39411801 -0.52432799 -0.60786599 3.000000
0.00173800 -0.52432799 0.64798802 3.000000
-0.11137900 -0.52432799 0.68229699 3.000000
0.47902399 -0.52432799 0.16412300 3.000000
0.09036300 -0.52432799 -0.47575799 3.000000
-0.01362700 -0.52432799 -0.44937500 3.000000
-0.09097000 -0.52432799 0.51743799 3.000000
-0.05609500 -0.52432799 0.40585801 3.000000
0.33184701 -0.52432799 -0.25028601 3.000000
0.49347201 -0.52432799 -0.33287299 3.000000
0.09432300 -0.52432799 -0.10893200 3.000000
-0.39254600 -0.52432799 -0.07421000 3.000000
0.34195101 -0.52432799 0.05555700 3.000000
-0.07369600 -0.52432799 -0.39104000 3.000000
0.15165199 -0.52432799 0.57649601 3.000000
-0.26809001 -0.52432799 -0.60604501 3.000000
-0.41554001 -0.52432799 0.05153800 3.000000
-0.30403200 -0.52432799 -0.02278500 3.000000
-0.07343500 -0.52432799 -0.36570400 3.000000
0.13947900 -0.52432799 0.56335098 3.000000
0.43315601 -0.52432799 0.52525598 3.000000
0.32525501 -0.52432799 -0.09036500 3.000000
-0.02407600 -0.52432799 0.62071300 3.000000
-0.51538801 -0.52320302 0.47901300 3.000000
0.03435400 -0.52432799 0.42899901 3.000000
-0.02498600 -0.52432799 0.59610403 3.000000
-0.43885100 -0.52432799 0.13370900 3.000000
0.27500501 -0.52432799 0.37794399 3.000000
-0.13427500 -0.52432799 -0.64877802 3.000000
0.09473900 -0.52432799 -0.26842400 3.000000
-0.25968200 -0.52432799 -0.25728300 3.000000
0.15550800 -0.52432799 -0.26799700 3.000000
-0.42173201 -0.52432799 0.19433001 3.000000
0.13510300 -0.52432799 -0.64210898 3.000000
0.07456300 -0.52432799 0.49880499 3.000000
-0.16615000 -0.52432799 0.30993101 3.000000
-0.34464300 -0.52432799 -0.61377299 3.000000
-0.49494699 -0.52432799 -0.10708600 3.000000
-0.07196600 -0.52432799 -0.29213899 3.000000
0.30468401 -0.52432799 0.15437600 3.000000
-0.05799100 -0.52432799 0.27381799 3.000000
-0.37314799 -0.52432799 0.47477400 3.000000
-0.14417000 -0.52432799 0.20222200 3.000000
0.42797601 -0.52432799 0.17309800 3.000000
-0.18727501 -0.52432799 -0.02945200 3.000000
-0.04410800 -0.52432799 0.25909400 3.000000
0.23792200 -0.52432799 0.16708700 3.000000
0.14067300 -0.52432799 -0.62612998 3.000000
0.34640399 -0.52432799 0.31895900 3.000000
-0.16283301 -0.52432799 0.37290999 3.000000
0.07316600 -0.52432799 -0.65705299 3.000000
-0.09336800 -0.52432799 -0.37117600 3.000000
-0.35112399 -0.52432799 0.56112999 3.000000
-0.39316899 -0.52432799 -0.55604899 3.000000
0.37945399 -0.52432799 -0.65302300 3.000000
0.43470800 -0.52432799 0.64160401 3.000000
-0.10034700 -0.52432799 0.42900601 3.000000
0.44949600 -0.52305597 -0.67564899 3.000000
0.29676601 -0.52432799 0.49263099 3.000000
0.50171900 -0.52432799 -0.61068302 3.000000
-0.29255500 -0.52432799 -0.39718100 3.000000
-0.07836500 -0.52432799 -0.33652300 3.000000
0.11757000 -0.52432799 -0.09500500 3.000000
0.46841601 -0.52432799 -0.09139000 3.000000
0.25523701 -0.52432799 0.09332300 3.000000
-0.35196000 -0.52432799 -0.03249800 3.000000
0.31793600 -0.52432799 0.18735600 3.000000
-0.08537000 -0.52432799 0.39030299 3.000000
0.35019800 -0.52432799 -0.49379900 3.000000
-0.44157001 -0.52432799 0.02954600 3.000000
-0.15248500 -0.52432799 -0.58347797 3.000000
-0.10773800 -0.52432799 0.67011398 3.000000
-0.31125399 -0.52432799 0.51701802 3.000000
-0.27022699 -0.52432799 0.09375200 3.000000
-0.04384000 -0.52432799 0.21477599 3.000000
-0.40274999 -0.52432799 0.67843401 3.000000
0.20215499 -0.52432799 0.01311400 3.000000
-0.13811401 -0.52432799 0.43653801 3.000000
-0.07089100 -0.52432799 -0.12628800 3.000000
0.20410199 -0.52432799 0.45764199 3.000000
0.27243301 -0.52432799 0.34017301 3.000000
0.48148900 -0.52432799 0.33421901 3.000000
0.03111700 -0.52432799 0.23759100 3.000000
0.14178599 -0.52432799 -0.10635900 3.000000
0.44919401 -0.52432799 -0.27299201 3.000000
-0.03548300 -0.52432799 -0.62334299 3.000000
0.39557999 -0.52432799 -0.45633200 3.000000
-0.14270601 -0.52432799 -0.38811800 3.000000
0.16194600 -0.52432799 -0.33928400 3.000000
0.22022501 -0.52432799 -0.61602700 3.000000
-0.39426801 -0.52432799 -0.11386000 3.000000
0.10194000 -0.52432799 0.26430500 3.000000
-0.05319600 -0.52432799 -0.44010600 3.000000
-0.43750799 -0.52432799 -0.42613700 3.000000
0.02109200 -0.52432799 0.13278700 3.000000
-0.06265200 -0.52432799 0.23184399 3.000000
0.27236301 -0.52432799 0.40922800 3.000000
-0.05265000 -0.52432799 -0.06807900 3.000000
-0.09621200 -0.52432799 -0.54491198 3.000000
-0.44854301 -0.52432799 0.13642301 3.000000
0.47620100 -0.52432799 -0.28178099 3.000000
-0.26767001 -0.52432799 -0.19829699 3.000000
0.19464600 -0.52432799 0.49717399 3.000000
0.11316500 -0.52432799 -0.57908601 3.000000
0.32506299 -0.52432799 -0.36837301 3.000000
-0.03562800 -0.52432799 0.68756098 3.000000
0.25736400 -0.52432799 -0.38016400 3.000000
-0.24964100 -0.52432799 -0.30736899 3.000000
-0.10222700 -0.52432799 -0.11493800 3.000000
-0.27886200 -0.52432799 0.41746101 3.000000
-0.48171699 -0.52432799 -0.11943400 3.000000
-0.07684400 -0.52432799 0.32880399 3.000000
0.40316099 -0.52432799 -0.44107100 3.000000
0.48875099 -0.52432799 0.66398799 3.000000
0.00103100 -0.52432799 -0.45831901 3.000000
0.38111201 -0.52432799 0.31052399 3.000000
-0.06704200 -0.52432799 -0.37339300 3.000000
0.14861600 -0.52432799 -0.15456299 3.000000
-0.00451100 -0.52432799 -0.11349400 3.000000
-0.48339000 -0.52432799 0.08835700 3.000000
0.29908401 -0.52432799 -0.57226300 3.000000
-0.50614202 -0.52432799 -0.29383600 3.000000
-0.03907900 -0.52432799 0.34401500 3.000000
0.13572800 -0.52432799 0.00293000 3.000000
0.17175101 -0.52432799 0.66916198 3.000000
-0.26052099 -0.52432799 0.27321601 3.000000
0.27888101 -0.52432799 0.57621598 3.000000
0.04788600 -0.52432799 0.37616301 3.000000
-0.48930299 -0.52432799 -0.23707899 3.000000
0.00498300 -0.52432799 0.19636700 3.000000
-0.25952601 -0.52432799 0.62553197 3.000000
0.11310100 -0.52432799 -0.31619000 3.000000
0.38419801 -0.52432799 0.38727301 3.000000
0.09055400 -0.52432799 -0.05413900 3.000000
-0.17827800 -0.52432799 -0.28374901 3.000000
-0.32560799 -0.52432799 0.58228999 3.000000
-0.26025701 -0.52432799 -0.26306701 3.000000
0.04672800 -0.52432799 0.47145200 3.000000
-0.46864000 -0.52432799 0.33058599 3.000000
0.10756900 -0.52432799 -0.30627999 3.000000
0.48971599 -0.52432799 0.02663900 3.000000
-0.35957199 -0.52432799 -0.62726998 3.000000
-0.37456700 -0.52432799 -0.46590900 3.000000
0.03100600 -0.52432799 -0.50047898 3.000000
0.11870600 -0.52432799 -0.37349501 3.000000
-0.43623799 -0.52432799 0.07059300 3.000000
-0.15642001 -0.52432799 0.34084100 3.000000
-0.15396100 -0.52432799 0.40103900 3.000000
-0.46081099 -0.52432799 0.20101900 3.000000
-0.29546899 -0.52432799 0.55188799 3.000000
-0.44510001 -0.52432799 -0.52236098 3.000000
-0.49239501 -0.52432799 -0.59745198 3.000000
0.05404000 -0.52432799 -0.61427099 3.000000
-0.44050601 -0.52432799 0.01485300 3.000000
-0.11181000 -0.52432799 0.24539900 3.000000
-0.21427099 -0.52432799 0.46436599 3.000000
-0.00230900 -0.52432799 0.00497700 3.000000
0.40138799 -0.52432799 0.10663600 3.000000
-0.19344200 -0.52432799 0.02712700 3.000000
0.16921300 -0.52432799 0.30576399 3.000000
-0.05623400 -0.52432799 0.63305598 3.000000
0.29005200 -0.52432799 0.47534800 3.000000
0.20672201 -0.52432799 -0.03314300 3.000000
0.41571099 -0.52432799 -0.35508701 3.000000
-0.48646301 -0.52432799 0.03441200 3.000000
0.44766501 -0.52432799 -0.26347101 3.000000
-0.43681800 -0.52432799 0.19289400 3.000000
0.27318999 -0.52432799 -0.25542501 3.000000
-0.18360400 -0.52432799 0.16114201 3.000000
0.18072499 -0.52432799 0.52170497 3.000000
-0.00403100 -0.52432799 -0.27858001 3.000000
-0.39506400 -0.52432799 0.43947399 3.000000
0.11117800 -0.52432799 -0.41879401 3.000000
-0.00450400 -0.52432799 0.04666200 3.000000
0.41023099 -0.52432799 -0.43510899 3.000000
0.45328701 -0.52432799 -0.54290903 3.000000
0.20559201 -0.52432799 0.66651398 3.000000
0.34923199 -0.52432799 0.21140100 3.000000
-0.15736100 -0.52432799 0.45732200 3.000000
-0.37632400 -0.52432799 -0.54017103 3.000000
0.26368999 -0.52432799 -0.51948202 3.000000
0.01970400 -0.52432799 -0.53135401 3.000000
0.45683900 -0.52432799 0.46564400 3.000000
0.29353401 -0.52432799 -0.20802900 3.000000
0.09552200 -0.52432799 -0.32710499 3.000000
0.48046201 -0.52432799 -0.10104300 3.000000
-0.31718701 -0.52432799 0.01695200 3.000000
-0.27300301 -0.52432799 0.13801900 3.000000
-0.42844999 -0.52432799 -0.50696200 3.000000
-0.44267100 -0.52432799 0.46180001 3.000000
0.23956899 -0.52432799 0.18119200 3.000000
0.19237299 -0.52432799 0.03098700 3.000000
0.12961601 -0.52432799 0.65459901 3.000000
0.42646301 -0.52432799 -0.42052701 3.000000
0.18580399 -0.52432799 -0.50714397 3.000000
-0.21486400 -0.52432799 0.45443600 3.000000
-0.46553600 -0.52432799 -0.57108903 3.000000
0.08506000 -0.52432799 0.61501598 3.000000
-0.21753600 -0.52432799 0.67406499 3.000000
0.19890900 -0.52432799 0.18608101 3.000000
-0.19614600 -0.52432799 -0.20011900 3.000000
-0.20906000 -0.52432799 -0.41495201 3.000000
0.07150900 -0.52432799 -0.48915100 3.000000
0.22385900 -0.52432799 0.14492400 3.000000
0.03079400 -0.52432799 0.53428000 3.000000
-0.04877100 -0.52432799 -0.10389000 3.000000
-0.39489099 -0.52432799 0.16086900 3.000000
0.18086100 -0.52432799 0.62469298 3.000000
0.25962499 -0.52432799 -0.11321700 3.000000
0.14564000 -0.52432799 0.60206902 3.000000
0.27066699 -0.52432799 0.33666199 3.000000
-0.49074700 -0.52432799 0.53986400 3.000000
-0.42632800 -0.52432799 -0.19020900 3.000000
-0.00151500 -0.52432799 -0.11403100 3.000000
-0.28312600 -0.52432799 -0.17656399 3.000000
0.21963701 -0.52432799 -0.55759001 3.000000
0.42224899 -0.52432799 -0.05529800 3.000000
-0.12109700 -0.52432799 -0.52366900 3.000000
0.40741500 -0.52432799 0.02390600 3.000000
-0.01458300 -0.52432799 0.24029700 3.000000
0.22868000 -0.52432799 0.32287800 3.000000
0.42085600 -0.52432799 -0.45100999 3.000000
-0.32044199 -0.52432799 -0.07624900 3.000000
0.15094800 -0.52432799 -0.13255200 3.000000
-0.24472600 -0.52432799 -0.54569900 3.000000
0.10364100 -0.52432799 -0.32026100 3.000000
0.16982900 -0.52432799 0.30313301 3.000000
0.12026900 -0.52432799 -0.23175400 3.000000
0.19620800 -0.52432799 -0.62774098 3.000000
0.31268799 -0.52432799 -0.55486703 3.000000
0.00254100 -0.52432799 -0.66037899 3.000000
-0.26075700 -0.52432799 0.20050400 3.000000
-0.10744400 -0.52432799 -0.33756101 3.000000
0.33153099 -0.52432799 0.21662000 3.000000
0.12276900 -0.52432799 -0.00644900 3.000000
-0.40231901 -0.52432799 -0.19588301 3.000000
0.01133500 -0.52432799 0.14337701 3.000000
0.01604100 -0.52432799 0.45396101 3.000000
0.48017401 -0.52432799 0.20148900 3.000000
0.19702999 -0.52432799 -0.04386800 3.000000
-0.37469801 -0.52432799 -0.52089500 3.000000
0.48767900 -0.52432799 0.35371301 3.000000
-0.49077201 -0.52432799 0.62412602 3.000000
-0.06233500 -0.52432799 -0.37821600 3.000000
-0.10842500 -0.52432799 -0.12770499 3.000000
-0.05172800 -0.52432799 -0.13307600 3.000000
0.23195501 -0.52432799 0.19583300 3.000000
0.21801899 -0.52432799 0.00862000 3.000000
0.28901500 -0.52432799 -0.31066599 3.000000
0.16086300 -0.52432799 -0.60165203 3.000000
0.40006500 -0.52432799 -0.07470300 3.000000
0.04029900 -0.52432799 0.15837200 3.000000
-0.30151501 -0.52432799 0.55973297 3.000000
0.30530900 -0.52432799 0.08824900 3.000000
0.34794000 -0.52432799 0.33787900 3.000000
0.22229400 -0.52432799 -0.36979201 3.000000
-0.27861899 -0.52432799 0.42754000 3.000000
0.08161900 -0.52432799 -0.13324800 3.000000
0.46771100 -0.52432799 -0.43307999 3.000000
-0.02813200 -0.52432799 0.03500500 3.000000
-0.35961300 -0.52021599 0.68915200 3.000000
-0.50160903 -0.52432799 0.17662300 3.000000
-0.14479300 -0.52432799 -0.12827200 3.000000
-0.27451599 -0.52432799 -0.07550900 3.000000
0.23721300 -0.52432799 0.05101400 3.000000
-0.44057301 -0.52432799 -0.08213900 3.000000
-0.39955199 -0.52432799 0.18219499 3.000000
-0.30326301 -0.52432799 -0.18759701 3.000000
-0.25187701 -0.52432799 -0.65273398 3.000000
-0.21022500 -0.52432799 -0.34101900 3.000000
-0.24296600 -0.52432799 -0.36502400 3.000000
0.36817199 -0.52432799 0.58550400 3.000000
-0.41573599 -0.52432799 0.67536998 3.000000
0.07351200 -0.52432799 -0.02933100 3.000000
0.27875000 -0.52432799 0.58904803 3.000000
-0.44980600 -0.52432799 -0.59843200 3.000000
0.41650900 -0.52432799 0.38060200 3.000000
-0.40972501 -0.52432799 0.29169101 3.000000
-0.02895400 -0.52432799 0.22810900 3.000000
-0.27946401 -0.52432799 -0.34063599 3.000000
-0.10029200 -0.52432799 0.46176401 3.000000
-0.06270700 -0.52432799 0.05726200 3.000000
-0.44580999 -0.52432799 -0.19891100 3.000000
0.47800601 -0.52432799 0.52844900 3.000000
-0.48012200 -0.52432799 -0.04289100 3.000000
-0.40687099 -0.52432799 0.31422400 3.000000
-0.42429799 -0.52432799 0.40358001 3.000000
-0.50240999 -0.52432799 -0.58500201 3.000000
0.45285001 -0.52432799 -0.09598800 3.000000
-0.18735000 -0.52432799 0.23765001 3.000000
0.08719900 -0.52432799 -0.06319200 3.000000
0.27404001 -0.52432799 0.06761600 3.000000
-0.14480899 -0.52432799 -0.07806000 3.000000
0.43374199 -0.52432799 -0.47869301 3.000000
0.14383499 -0.52432799 -0.18717800 3.000000
-0.49971500 -0.52432799 0.56707299 3.000000
-0.04727000 -0.52432799 -0.66533798 3.000000
-0.23944700 -0.52432799 0.49413300 3.000000
0.04819200 -0.52432799 0.13521400 3.000000
-0.42418399 -0.52432799 0.22644100 3.000000
-0.16153800 -0.52432799 -0.37146601 3.000000
-0.49867901 -0.52432799 -0.28362799 3.000000
-0.42672801 -0.52072102 0.68915200 3.000000
-0.48497501 -0.52432799 -0.39480099 3.000000
0.25002000 -0.52432799 -0.59345800 3.000000
0.21847600 -0.52432799 0.16307300 3.000000
-0.34187901 -0.52432799 -0.06540400 3.000000
-0.05285900 -0.52432799 -0.48301801 3.000000
-0.17617600 -0.52432799 0.48396000 3.000000
-0.14672001 -0.52432799 -0.24717700 3.000000
-0.25742200 -0.52432799 -0.31951600 3.000000
0.38895300 -0.52432799 0.37260300 3.000000
-0.04446500 -0.52432799 -0.24284700 3.000000
0.29336700 -0.52432799 0.43782100 3.000000
0.25319800 -0.52432799 -0.10702200 3.000000
-0.37667200 -0.52432799 -0.04357700 3.000000
-0.36798599 -0.52432799 0.17376401 3.000000
-0.37504101 -0.52432799 -0.00387300 3.000000
0.10897100 -0.52432799 0.44927099 3.000000
-0.13714200 -0.52432799 0.61645198 3.000000
0.12117300 -0.52432799 0.64535302 3.000000
0.22473601 -0.52432799 -0.09431900 3.000000
0.49148801 -0.52432799 0.49709901 3.000000
-0.27218801 -0.52432799 0.59735501 3.000000
0.18039501 -0.52432799 0.51587999 3.000000
-0.32054299 -0.52432799 0.34502301 3.000000
-0.04355900 -0.52432799 -0.53335297 3.000000
0.33372301 -0.52432799 -0.04435300 3.000000
-0.37740701 -0.52432799 -0.59780401 3.000000
-0.17921400 -0.52432799 0.41202101 3.000000
0.00391000 -0.52432799 -0.25611600 3.000000
0.12973100 -0.52432799 -0.55734199 3.000000
0.05514800 -0.52432799 -0.60622001 3.000000
-0.36462501 -0.52432799 -0.29350400 3.000000
-0.22077399 -0.52432799 -0.34055299 3.000000
-0.36350101 -0.52432799 -0.57173002 3.000000
0.16597199 -0.52432799 0.10745100 3.000000
0.35056001 -0.52432799 0.64354700 3.000000
0.44330701 -0.52432799 -0.21664400 3.000000
0.13224900 -0.52432799 -0.01681900 3.000000
-0.32511401 -0.52432799 -0.06939700 3.000000
0.45446500 -0.52432799 -0.05827400 3.000000
-0.31585601 -0.52432799 -0.56065398 3.000000
0.36968100 -0.52432799 0.05332800 3.000000
0.05721700 -0.52432799 0.19578999 3.000000
0.16880000 -0.52432799 -0.11633500 3.000000
0.44176501 -0.52432799 0.57758200 3.000000
-0.00540300 -0.52432799 0.42274299 3.000000
0.38603100 -0.52432799 -0.28461599 3.000000
0.17671099 -0.52432799 0.51419300 3.000000
0.03811600 -0.52432799 -0.29543701 3.000000
0.23926701 -0.52432799 -0.49805701 3.000000
-0.09743100 -0.52432799 0.32855701 3.000000
-0.12782800 -0.52432799 0.23903701 3.000000
-0.06956500 -0.52432799 -0.28444701 3.000000
0.11777300 -0.52432799 -0.06975300 3.000000
-0.34791899 -0.52432799 -0.59838903 3.000000
-0.36512300 -0.52432799 0.35281599 3.000000
0.12190100 -0.52432799 0.32806501 3.000000
0.23791599 -0.52432799 0.53536701 3.000000
0.03704700 -0.52432799 -0.61481303 3.000000
-0.25104901 -0.52432799 0.22133499 3.000000
-0.47113499 -0.52432799 -0.48565501 3.000000
-0.31795299 -0.52432799 -0.21652099 3.000000
-0.21940599 -0.52432799 -0.12782700 3.000000
-0.51108700 -0.52432799 -0.01085500 3.000000
0.44939300 -0.52432799 -0.15555900 3.000000
-0.13829000 -0.52432799 -0.01364900 3.000000
-0.03058900 -0.52432799 0.41570801 3.000000
-0.08513300 -0.52432799 0.22535799 3.000000
0.47317401 -0.52432799 0.68699002 3.000000
0.40983999 -0.52432799 -0.42128900 3.000000
-0.25670400 -0.52432799 0.49605799 3.000000
0.35739100 -0.52432799 0.58046800 3.000000
0.22884101 -0.52432799 0.16764601 3.000000
-0.45080701 -0.52432799 -0.33338001 3.000000
0.24946800 -0.52432799 -0.26121801 3.000000
0.14956599 -0.52432799 -0.50120002 3.000000
-0.48280400 -0.52432799 -0.26851800 3.000000
-0.06828600 -0.52432799 -0.59412998 3.000000
0.10214200 -0.52432799 -0.44631299 3.000000
0.39399499 -0.52432799 0.37896901 3.000000
0.28048101 -0.52432799 0.09551200 3.000000
0.00556900 -0.52432799 0.67526001 3.000000
-0.21246199 -0.52432799 0.46211600 3.000000
-0.16904300 -0.52432799 0.05294700 3.000000
0.09182800 -0.52432799 0.04834200 3.000000
-0.31751600 -0.52432799 -0.37088200 3.000000
-0.19582300 -0.52432799 -0.33423400 3.000000
-0.14465301 -0.52432799 -0.04228400 3.000000
0.08299800 -0.52432799 -0.18868101 3.000000
-0.31303301 -0.52432799 0.37164000 3.000000
-0.03542800 -0.52432799 -0.48078099 3.000000
0.17731400 -0.52432799 -0.25222000 3.000000
0.09636300 -0.52432799 -0.28915301 3.000000
0.28498301 -0.52432799 0.23978899 3.000000
0.09846300 -0.52432799 -0.06034100 3.000000
-0.22875100 -0.52432799 0.60740501 3.000000
0.35245299 -0.52432799 -0.00758600 3.000000
-0.34649700 -0.52432799 0.40645900 3.000000
0.08599900 -0.52432799 0.48603299 3.000000
0.23578399 -0.52432799 -0.50467700 3.000000
0.16326700 -0.52432799 -0.46501601 3.000000
0.49528199 -0.52432799 -0.26167899 3.000000
-0.03542000 -0.52432799 0.38566199 3.000000
-0.19276001 -0.52432799 -0.39507699 3.000000
0.20314400 -0.52432799 0.42951900 3.000000
0.32717901 -0.52432799 -0.65761697 3.000000
-0.14358400 -0.52432799 0.16377400 3.000000
-0.29017699 -0.52432799 -0.63851899 3.000000
0.42528701 -0.52432799 0.20994300 3.000000
0.12923799 -0.52432799 0.47711501 3.000000
0.39160001 -0.52432799 0.31774700 3.000000
0.40767401 -0.52432799 0.12880200 3.000000
0.24241900 -0.52432799 -0.13863900 3.000000
-0.14714099 -0.52432799 0.56960899 3.000000
-0.38174301 -0.52432799 -0.11644700 3.000000
0.21872000 -0.52432799 0.31648099 3.000000
0.26139501 -0.52432799 0.58661401 3.000000
-0.25113899 -0.52432799 -0.12817501 3.000000
-0.29141000 -0.52432799 -0.21251100 3.000000
-0.34675699 -0.52432799 -0.10362200 3.000000
-0.28027201 -0.52432799 -0.08387500 3.000000
0.22332400 -0.52432799 -0.24005900 3.000000
-0.09657100 -0.52432799 0.05293900 3.000000
0.44830200 -0.52432799 0.01002500 3.000000
-0.41607401 -0.52432799 0.27627099 3.000000
-0.19783500 -0.52432799 0.02859700 3.000000
-0.42992699 -0.52432799 -0.28045100 3.000000
0.43374699 -0.52236402 0.68915200 3.000000
0.32930499 -0.52432799 0.26977199 3.000000
-0.18649200 -0.52432799 -0.53536499 3.000000
0.23425700 -0.52432799 0.14033601 3.000000
0.44098401 -0.52432799 0.65067601 3.000000
0.01223300 -0.52432799 0.06889500 3.000000
0.46853301 -0.52432799 0.26839101 3.000000
-0.33762401 -0.52432799 -0.51724702 3.000000
-0.43883500 -0.52432799 -0.25682500 3.000000
-0.41551200 -0.52432799 0.32493001 3.000000
0.03645600 -0.52432799 -0.57253999 3.000000
0.04897900 -0.52432799 0.33341399 3.000000
0.14386700 -0.52432799 0.53585798 3.000000
-0.03848100 -0.52432799 -0.13640900 3.000000
0.40695700 -0.52432799 -0.67447102 3.000000
-0.44093999 -0.52432799 0.67169601 3.000000
0.29318601 -0.52432799 -0.32119900 3.000000
-0.28252199 -0.52432799 -0.21551099 3.000000
0.08949100 -0.52432799 -0.52026898 3.000000
0.18759701 -0.52432799 -0.06499600 3.000000
-0.21875100 -0.52432799 0.21540999 3.000000
-0.21687900 -0.52432799 -0.15008000 3.000000
-0.05664500 -0.52432799 -0.30036601 3.000000
0.08874600 -0.52432799 0.34290001 3.000000
0.33812401 -0.52432799 0.07694100 3.000000
0.23846801 -0.52432799 0.44320101 3.000000
0.34997901 -0.52432799 0.16440500 3.000000
0.38550699 -0.52432799 -0.14428200 3.000000
0.41461101 -0.52432799 0.39134201 3.000000
0.27120900 -0.52432799 0.17684101 3.000000
0.36194700 -0.52432799 0.01768100 3.000000
0.04915600 -0.52432799 -0.63987100 3.000000
0.24052800 -0.52432799 -0.52492899 3.000000
0.40211201 -0.52432799 0.21920900 3.000000
0.25992399 -0.52432799 0.38410699 3.000000
-0.17968100 -0.52432799 0.27709600 3.000000
0.48001301 -0.52432799 0.33911601 3.000000
-0.39941800 -0.52432799 0.08703200 3.000000
0.47368601 -0.52432799 0.51713997 3.000000
0.30783799 -0.52432799 0.15794399 3.000000
-0.30620700 -0.52432799 -0.32755500 3.000000
-0.35725799 -0.52432799 -0.27376199 3.000000
0.43471101 -0.52432799 0.56979603 3.000000
0.20501100 -0.52432799 0.36769301 3.000000
0.42608401 -0.52432799 -0.63797402 3.000000
-0.20814000 -0.52432799 0.47578400 3.000000
-0.38974899 -0.52432799 -0.56017202 3.000000
0.08179100 -0.52432799 -0.33890399 3.000000
0.12034200 -0.52432799 0.30862701 3.000000
0.30954200 -0.52432799 -0.50379097 3.000000
0.00903500 -0.52432799 -0.67244297 3.000000
0.09661900 -0.52432799 -0.32155401 3.000000
-0.33510900 -0.52432799 0.02755600 3.000000
0.14953201 -0.52432799 -0.20671700 3.000000
0.14227299 -0.52432799 0.54541898 3.000000
-0.14960200 -0.52432799 -0.59954202 3.000000
0.44321299 -0.52432799 0.46315500 3.000000
0.02868600 -0.52432799 0.11609100 3.000000
0.16514400 -0.52432799 -0.28301400 3.000000
-0.07406000 -0.52432799 0.26403800 3.000000
-0.02120100 -0.52432799 0.68592203 3.000000
-0.39347601 -0.52432799 0.45974901 3.000000
-0.46202400 -0.52432799 -0.05214100 3.000000
-0.27695599 -0.52432799 -0.34145501 3.000000
-0.25781399 -0.52432799 0.23417200 3.000000
0.22943699 -0.52432799 -0.05877200 3.000000
0.49658200 -0.52432799 -0.56918901 3.000000
0.28282201 -0.52432799 -0.27437299 3.000000
0.06137700 -0.52432799 0.16347601 3.000000
-0.22708599 -0.52432799 0.19438700 3.000000
-0.09948700 -0.52432799 0.67378700 3.000000
0.21764900 -0.52432799 -0.04792700 3.000000
0.49848500 -0.52432799 0.03564600 3.000000
-0.09664200 -0.52432799 -0.49998301 3.000000
-0.11187500 -0.52432799 -0.47276399 3.000000
0.49857599 -0.52432799 -0.31680501 3.000000
0.10564500 -0.52432799 -0.32602200 3.000000
0.30341801 -0.52432799 -0.43608600 3.000000
-0.19684599 -0.52432799 0.33907101 3.000000
0.47876000 -0.52432799 -0.19763300 3.000000
-0.16308901 -0.52432799 0.18776201 3.000000
-0.44832599 -0.52432799 -0.39516899 3.000000
0.48150101 -0.52432799 -0.32080001 3.000000
-0.08775400 -0.52432799 -0.27398399 3.000000
-0.28049901 -0.52432799 0.57947201 3.000000
-0.32718301 -0.52432799 0.25266999 3.000000
0.34875000 -0.52432799 0.38427001 3.000000
0.14681301 -0.52432799 0.03083700 3.000000
0.08934300 -0.52432799 -0.16921100 3.000000
-0.14847399 -0.52432799 -0.62977397 3.000000
-0.07013400 -0.52432799 0.09925000 3.000000
-0.17625099 -0.52432799 -0.03113500 3.000000
-0.48820800 -0.52432799 -0.40698400 3.000000
-0.50432700 -0.52432799 -0.21783100 3.000000
0.00882600 -0.52432799 0.11073700 3.000000
0.39708501 -0.52432799 -0.15401500 3.000000
-0.27517599 -0.52432799 0.20273399 3.000000
-0.04255700 -0.52432799 0.28027800 3.000000
-0.32956100 -0.52432799 -0.13673501 3.000000
-0.26281500 -0.52432799 -0.10666200 3.000000
-0.50108898 -0.52432799 -0.62499303 3.000000
0.29114500 -0.52432799 -0.26532799 3.000000
0.12004700 -0.52432799 0.25039300 3.000000
0.05009500 -0.52432799 0.50099200 3.000000
0.18047801 -0.52432799 -0.51863199 3.000000
0.01152400 -0.52432799 0.46804899 3.000000
0.02023200 -0.52432799 0.16276599 3.000000
-0.08823900 -0.52432799 0.23056300 3.000000
-0.19350900 -0.52432799 -0.50753701 3.000000
0.40930900 -0.52432799 -0.57196802 3.000000
-0.02404700 -0.52432799 0.51500797 3.000000
0.17673700 -0.52432799 0.01050800 3.000000
0.30983701 -0.52432799 0.19875599 3.000000
-0.51373899 -0.52432799 0.11337900 3.000000
-0.32998601 -0.52432799 0.24544699 3.000000
-0.39524901 -0.52432799 0.06127700 3.000000
-0.51538801 -0.52236098 0.00794700 3.000000
-0.17597701 -0.52432799 0.46361300 3.000000
-0.04599300 -0.52432799 0.23285601 3.000000
-0.50136602 -0.52432799 0.52551502 3.000000
-0.17080501 -0.52432799 0.17656900 3.000000
-0.26092300 -0.52432799 0.26328501 3.000000
0.17557700 -0.52432799 0.36582500 3.000000
0.49197999 -0.52432799 0.35008699 3.000000
-0.26070899 -0.52432799 0.50050902 3.000000
0.19835301 -0.52432799 0.45253301 3.000000
-0.08956900 -0.52432799 0.01465900 3.000000
-0.02644000 -0.52432799 0.47335699 3.000000
-0.31427300 -0.52432799 -0.25055301 3.000000
0.39412901 -0.52432799 0.00391600 3.000000
-0.12563400 -0.52432799 -0.00438800 3.000000
-0.00445000 -0.52432799 0.35748199 3.000000
-0.42421001 -0.52432799 0.59106100 3.000000
0.25708699 -0.52432799 -0.14038000 3.000000
0.07290400 -0.52432799 -0.67271101 3.000000
0.14952999 -0.52432799 -0.53710002 3.000000
0.43553299 -0.52432799 0.31255600 3.000000
0.33052799 -0.52432799 -0.26062599 3.000000
-0.43836501 -0.52432799 0.23098300 3.000000
-0.27720401 -0.52432799 -0.16642401 3.000000
0.36138299 -0.52432799 -0.59741902 3.000000
-0.23393901 -0.52432799 -0.01815400 3.000000
-0.03139700 -0.52432799 -0.64785302 3.000000
-0.05102900 -0.52432799 -0.19654900 3.000000
0.39904401 -0.52432799 0.17214701 3.000000
0.42563701 -0.52432799 0.53460997 3.000000
-0.48824301 -0.52432799 -0.47536200 3.000000
0.37076899 -0.52432799 0.43548399 3.000000
0.19134501 -0.52432799 0.02854500 3.000000
-0.16474600 -0.52432799 -0.30116099 3.000000
0.28472501 -0.52432799 -0.59585899 3.000000
-0.33961400 -0.52432799 -0.08265700 3.000000
-0.16677900 -0.52432799 0.67714399 3.000000
-0.38472199 -0.52432799 0.45112601 3.000000
-0.45153701 -0.52432799 0.26732501 3.000000
-0.21654400 -0.52432799 0.54092097 3.000000
0.19929799 -0.52432799 0.00834400 3.000000
0.02344300 -0.52432799 -0.13131399 3.000000
0.10497400 -0.52432799 0.50782901 3.000000
0.36350200 -0.52432799 0.45453200 3.000000
-0.43058801 -0.52432799 0.47524199 3.000000
-0.22343799 -0.52432799 -0.03518300 3.000000
0.24618299 -0.52432799 0.49073100 3.000000
-0.50762099 -0.52432799 0.68366700 3.000000
0.40490201 -0.52365500 0.68915200 3.000000
-0.40362400 -0.52432799 -0.53190500 3.000000
-0.00438000 -0.52432799 -0.37676901 3.000000
0.37064299 -0.52432799 0.34623101 3.000000
0.11189300 -0.52432799 0.21640600 3.000000
0.04654900 -0.52432799 0.28543699 3.000000
-0.40406600 -0.52432799 0.61984998 3.000000
-0.26547900 -0.52432799 0.05513400 3.000000
0.49141100 -0.52432799 0.04047300 3.000000
0.29106101 -0.52432799 -0.11642600 3.000000
-0.01539700 -0.52432799 0.46142000 3.000000
-0.29646099 -0.52432799 -0.03663400 3.000000
0.27744001 -0.52432799 -0.35624000 3.000000
0.04604900 -0.52432799 -0.45526600 3.000000
0.08459300 -0.52432799 -0.39665201 3.000000
-0.06036500 -0.52432799 -0.62954402 3.000000
0.27840200 -0.52432799 -0.25039399 3.000000
0.09465200 -0.52432799 0.09941300 3.000000
-0.02314400 -0.52432799 0.02656500 3.000000
0.34415901 -0.52432799 0.05003100 3.000000
0.46083000 -0.52432799 -0.59268099 3.000000
-0.48943999 -0.52432799 -0.50485301 3.000000
-0.15535501 -0.52432799 0.10783500 3.000000
0.46238300 -0.52432799 -0.54771602 3.000000
0.34818399 -0.52432799 -0.26558599 3.000000
0.24394700 -0.52432799 0.65032500 3.000000
0.27722400 -0.52432799 -0.40028599 3.000000
-0.04428700 -0.52432799 -0.28870100 3.000000
0.47742501 -0.52432799 0.09928000 3.000000
-0.33024201 -0.52432799 0.07342700 3.000000
-0.26827800 -0.52432799 0.09364700 3.000000
-0.13488799 -0.52432799 0.59182298 3.000000
-0.28846601 -0.52432799 0.66474497 3.000000
0.19712800 -0.52432799 -0.20213699 3.000000
-0.32066301 -0.52432799 0.66937798 3.000000
-0.13527399 -0.52432799 0.63257802 3.000000
-0.36240000 -0.52432799 0.06683300 3.000000
0.43409100 -0.52432799 0.15860300 3.000000
0.08048600 -0.52432799 0.67795098 3.000000
0.23013601 -0.52432799 0.64125800 3.000000
0.31589201 -0.52432799 -0.48500699 3.000000
0.00571800 -0.52432799 -0.04917500 3.000000
-0.46970400 -0.52432799 -0.64288598 3.000000
-0.47183299 -0.52432799 0.42982200 3.000000
-0.09727800 -0.52432799 0.31276301 3.000000
-0.00943900 -0.52432799 -0.31458801 3.000000
0.16565500 -0.52432799 0.57189202 3.000000
0.31184399 -0.52432799 0.67646903 3.000000
0.21825100 -0.52432799 -0.32438701 3.000000
0.24969099 -0.52432799 0.30097100 3.000000
-0.14058700 -0.52432799 -0.23713700 3.000000
0.15981600 -0.52432799 -0.64415598 3.000000
0.08470100 -0.52432799 0.11355300 3.000000
0.01685700 -0.52432799 -0.03874800 3.000000
-0.10883300 -0.52432799 -0.19153200 3.000000
0.40246999 -0.52432799 0.20975700 3.000000
0.26013499 -0.52432799 0.10943000 3.000000
0.21074700 -0.52432799 -0.59873801 3.000000
-0.08078800 -0.52432799 0.31513900 3.000000
-0.23812801 -0.52432799 0.40804401 3.000000
-0.43846500 -0.52432799 -0.38780800 3.000000
