-0.06050900 -0.38451299 -0.35659400 1.000000
0.17763500 0.21083800 -0.31508401 1.000000
-0.04151400 -0.47541600 -0.26222500 1.000000
0.07341400 -0.37549901 -0.36389399 1.000000
0.09077000 -0.01568100 0.43574801 1.000000
0.00793700 -0.45251200 0.28607899 1.000000
0.18379401 -0.38148400 -0.35904801 1.000000
-0.05914300 -0.55782700 -0.01506200 1.000000
0.15799201 0.26266101 -0.25098801 1.000000
0.08523500 0.25872400 0.25183201 1.000000
0.17082800 -0.37656900 0.35780999 1.000000
-0.01531700 -0.05647200 0.44233000 1.000000
-0.04570200 -0.49061701 -0.23881800 1.000000
0.18950400 -0.55286002 -0.06945600 1.000000
0.13766301 0.31701601 0.13396101 1.000000
0.01479800 0.33822301 -0.00649500 1.000000
0.12894200 -0.08096000 0.44432101 1.000000
0.11767100 -0.30439600 0.40097499 1.000000
-0.01812000 -0.19753300 0.43695199 1.000000
-0.01126800 -0.11917200 -0.45058301 1.000000
0.08754000 -0.52652800 -0.16724600 1.000000
0.16194899 -0.32613400 -0.39511701 1.000000
0.06256200 -0.32156700 0.39222601 1.000000
0.18963000 0.09160300 0.39727700 1.000000
-0.04151600 -0.50738102 -0.20920600 1.000000
0.03102800 -0.45218500 -0.29170099 1.000000
0.18802699 -0.44059500 -0.30537999 1.000000
-0.02870200 0.09446400 0.39581901 1.000000
-0.07072400 0.11109100 0.38734701 1.000000
0.11772100 0.32658100 0.09826400 1.000000
0.02167300 0.01875400 0.42652100 1.000000
0.11983500 0.28103501 0.21634001 1.000000
0.13419200 0.11308300 0.38633201 1.000000
-0.01412600 0.23697799 0.28049901 1.000000
-0.06729400 0.09944200 -0.39850000 1.000000
0.08570300 -0.47315800 0.26048401 1.000000
-0.02531900 0.26214501 0.24656400 1.000000
0.01171900 -0.55796999 0.00712100 1.000000
0.13871600 -0.54794002 -0.09860800 1.000000
-0.01706100 0.31939501 -0.13030300 1.000000
-0.05142500 -0.39665100 0.34154800 1.000000
0.05061800 0.01878100 -0.43173200 1.000000
-0.01722400 0.25240999 0.26144201 1.000000
0.13451000 0.11227100 -0.39196399 1.000000
0.02907600 0.04997000 0.41567400 1.000000
0.17432401 0.16031000 0.35473701 1.000000
0.04319700 0.33009899 0.08133300 1.000000
0.13413900 0.03251100 -0.42759401 1.000000
0.17187800 0.33536100 -0.05332900 1.000000
0.03087700 0.33787501 -0.01314400 1.000000
-0.05093900 -0.26510900 -0.42277801 1.000000
0.15584500 0.26323000 0.24489300 1.000000
0.01902800 -0.23307399 0.42805699 1.000000
0.10642900 -0.54052299 -0.12628999 1.000000
0.12872800 -0.34928599 0.37599999 1.000000
-0.03847200 -0.14791900 0.44385800 1.000000
0.17131300 0.23548201 0.28234601 1.000000
0.12281500 0.24498600 0.27060899 1.000000
0.16178600 -0.53686398 0.13472500 1.000000
0.12032700 0.33612901 0.04123200 1.000000
0.05504000 0.26341501 0.24460800 1.000000
-0.04881600 -0.50512898 -0.21362500 1.000000
0.12721901 0.06422900 0.41020000 1.000000
-0.03940900 -0.18748000 0.43854401 1.000000
0.13730299 -0.46852201 -0.27152601 1.000000
-0.05783600 -0.12078500 -0.45049801 1.000000
-0.05441200 -0.54568201 0.10181900 1.000000
0.15767001 -0.49494401 -0.23215500 1.000000
0.04531000 -0.11178200 -0.45096999 1.000000
-0.02507500 0.10275200 0.39159599 1.000000
0.07448300 0.07489400 0.40579000 1.000000
0.00893600 -0.47180501 0.26225400 1.000000
0.15408200 0.13872699 -0.37505299 1.000000
0.17377400 0.28906301 -0.20580000 1.000000
-0.00096300 -0.33318800 -0.39152399 1.000000
0.12210200 0.27398300 0.22833499 1.000000
0.03864800 0.29813001 0.18278800 1.000000
0.00562900 0.26965100 -0.24022400 1.000000
0.05778300 0.25886801 -0.25682801 1.000000
0.07409400 -0.01168200 -0.43989399 1.000000
0.06586200 -0.18042500 -0.44488001 1.000000
-0.04134900 -0.33583799 0.38473400 1.000000
-0.01032100 -0.32294601 -0.39674199 1.000000
0.16158301 0.25575799 -0.26161700 1.000000
0.02380400 0.22963899 0.28956199 1.000000
0.16190000 -0.32659701 0.38966399 1.000000
0.07852600 -0.35360199 0.37319699 1.000000
0.03092700 -0.22287001 -0.43600899 1.000000
0.00978900 0.27746600 0.22297101 1.000000
0.07693800 0.15386900 0.35995299 1.000000
0.00011700 0.28354999 -0.21662000 1.000000
-0.02250100 0.33215100 -0.07360000 1.000000
0.18355100 0.30170900 0.17444400 1.000000
0.03649100 0.29677901 -0.19065800 1.000000
0.13471100 0.30936301 -0.15972500 1.000000
0.09284300 0.13417500 -0.37800899 1.000000
0.13686299 -0.54207700 -0.12048900 1.000000
0.10479200 -0.26977000 0.41577101 1.000000
0.15846500 -0.33328700 0.38625500 1.000000
0.13318200 0.20173299 0.31897101 1.000000
0.02691400 -0.54342198 -0.11546900 1.000000
0.09614100 0.20358901 -0.32233301 1.000000
0.02054700 0.13004400 0.37547299 1.000000
0.11156800 -0.01903500 -0.44161800 1.000000
0.10438600 0.32237399 -0.11918200 1.000000
0.09775000 0.03145300 0.42278200 1.000000
0.06275700 0.13678400 0.37109700 1.000000
-0.03673800 -0.34822699 0.37668800 1.000000
-0.02426200 0.33302000 -0.06811000 1.000000
0.04763700 -0.23201300 0.42834100 1.000000
0.18523100 -0.47864500 -0.25725299 1.000000
0.16396201 0.22843300 -0.29626900 1.000000
0.09358500 -0.37717000 -0.36254099 1.000000
0.17456000 -0.43645999 -0.30951399 1.000000
0.10534600 -0.47412601 -0.26421201 1.000000
0.03790000 -0.33390200 0.38594201 1.000000
0.03399100 -0.45553800 0.28234199 1.000000
-0.01197600 -0.27169099 -0.42025200 1.000000
-0.04146100 -0.52671200 0.16155000 1.000000
0.15011500 0.25146499 0.26260900 1.000000
0.09530900 0.30561700 0.16426300 1.000000
0.12915801 0.33774900 -0.01553200 1.000000
0.13848200 0.10640300 -0.39495400 1.000000
0.04245600 -0.03563400 -0.44424701 1.000000
0.17593201 -0.53122902 -0.15499900 1.000000
0.03944200 -0.46002099 0.27680701 1.000000
-0.01119300 -0.47130600 -0.26808801 1.000000
0.14033701 -0.47765699 0.25355601 1.000000
0.13788100 0.14482901 0.36587301 1.000000
0.11142100 0.12853400 -0.38167199 1.000000
-0.00419600 -0.49317500 0.22966100 1.000000
0.05733100 -0.07706800 -0.44933501 1.000000
0.08846600 -0.01955700 0.43648300 1.000000
-0.04561800 0.27959701 -0.22437900 1.000000
0.06919600 -0.01416000 0.43533999 1.000000
0.06022900 -0.36019000 -0.37413701 1.000000
-0.00691000 -0.24404700 -0.43033499 1.000000
0.13192300 0.02384600 0.42515701 1.000000
0.00949100 0.33640799 -0.04112200 1.000000
0.00263100 -0.44725400 -0.29778999 1.000000
0.03036300 0.08259000 0.40186900 1.000000
0.18330701 -0.25224799 -0.42771500 1.000000
-0.07015600 0.23524100 0.28264400 1.000000
0.13945700 -0.43745300 0.30330399 1.000000
0.15854400 0.15002801 -0.36771399 1.000000
0.09448400 -0.38921899 -0.35278401 1.000000
0.09500100 0.31927800 -0.13074000 1.000000
-0.03188900 0.27912501 0.22008801 1.000000
-0.06080500 -0.15694800 -0.44859800 1.000000
-0.04721100 -0.41923201 0.32152501 1.000000
0.00445700 -0.11845800 -0.45062000 1.000000
-0.02197200 -0.42860499 -0.31736901 1.000000
0.16013400 -0.55267400 0.06541300 1.000000
0.11466200 -0.36798301 -0.36907601 1.000000
0.02890700 0.20672099 -0.31920099 1.000000
0.15073299 0.04677600 0.41690001 1.000000
0.07080700 -0.38384601 0.35191700 1.000000
-0.06313600 0.33121899 0.07426400 1.000000
-0.02765600 -0.20177500 0.43628001 1.000000
0.06078900 -0.48537001 0.24167900 1.000000
0.00155100 0.16940100 -0.35259399 1.000000
0.06319100 0.17392901 0.34370899 1.000000
-0.00693200 -0.51975399 -0.18489400 1.000000
0.15755400 -0.11862500 0.44539300 1.000000
0.13170600 0.00590600 0.42996299 1.000000
-0.04411800 0.18825901 -0.33732301 1.000000
0.01486300 -0.55408198 0.05652000 1.000000
0.06629800 -0.17804900 0.44003800 1.000000
0.07229200 0.12326700 -0.38509300 1.000000
-0.04322800 -0.09316700 -0.45017901 1.000000
0.18501900 0.19729900 -0.32862300 1.000000
0.10612900 -0.10328200 0.44549099 1.000000
0.15829100 -0.43048900 0.31026700 1.000000
0.16295400 0.32284600 0.11220300 1.000000
-0.03340100 -0.39158201 0.34565201 1.000000
0.10933400 -0.50224698 -0.21928100 1.000000
-0.03906700 -0.01606900 0.43585199 1.000000
0.12363300 -0.14434101 -0.44926399 1.000000
0.12728600 0.20347600 -0.32244599 1.000000
0.18322100 -0.12790300 0.44490701 1.000000
-0.06638800 0.06515700 0.40984401 1.000000
0.01113600 0.19636901 0.32433501 1.000000
-0.05864600 -0.45909700 0.27794799 1.000000
0.08156700 0.27412900 0.22811000 1.000000
0.02752000 0.29315701 -0.19776700 1.000000
0.04190900 0.32174301 -0.12153900 1.000000
0.00843500 -0.50247699 -0.21883100 1.000000
-0.05772900 -0.16799100 0.44163099 1.000000
-0.05931300 -0.14727101 -0.44911000 1.000000
0.17283800 -0.52784598 -0.16381200 1.000000
0.14955600 0.10257800 0.39168501 1.000000
0.13819700 -0.48469099 0.24272500 1.000000
0.12476200 0.15511701 -0.36416101 1.000000
0.12919900 -0.55773902 -0.01673500 1.000000
0.17213400 -0.43366301 0.30709401 1.000000
0.11093400 0.07384700 0.40632400 1.000000
0.02650900 -0.12476700 0.44507200 1.000000
0.16303299 0.33714101 0.02193300 1.000000
0.10308200 0.06553300 0.40970001 1.000000
0.04121000 0.22323100 0.29747301 1.000000
0.14632300 0.30737701 0.15967900 1.000000
0.16920000 0.14369200 0.36661100 1.000000
0.14468101 0.32846099 0.09125000 1.000000
0.09500600 0.08212700 -0.40732300 1.000000
-0.05737200 -0.53331202 -0.14957500 1.000000
0.10352500 -0.29640901 -0.41026300 1.000000
0.07851600 0.33378500 -0.06328100 1.000000
-0.05293800 -0.33548099 -0.39018300 1.000000
0.18862499 -0.53393698 0.14272600 1.000000
0.05886900 0.32130200 -0.12318400 1.000000
-0.06793200 -0.13520101 -0.44974300 1.000000
0.10148300 0.33597201 0.04422700 1.000000
0.13490801 -0.12368900 -0.45034599 1.000000
-0.05758000 -0.50331700 -0.21718200 1.000000
0.08499700 -0.29488900 -0.41103801 1.000000
0.15884100 0.32884201 0.08926900 1.000000
0.04800200 0.05743100 -0.41802800 1.000000
0.10952000 -0.33730400 -0.38899899 1.000000
0.12265600 0.15017200 0.36240199 1.000000
0.01609300 -0.55466098 -0.05808300 1.000000
0.14836800 -0.37409300 0.35981500 1.000000
0.13706800 0.03336900 0.42204699 1.000000
0.04551400 0.33761501 0.01287600 1.000000
0.10219800 -0.26686999 0.41688401 1.000000
0.12459600 -0.35978901 0.36917999 1.000000
-0.05395400 -0.02707100 0.43767300 1.000000
0.18767500 0.03411200 0.42176101 1.000000
0.10307800 0.21955299 -0.30636901 1.000000
0.08253400 -0.17211699 0.44097799 1.000000
0.13470399 -0.53573602 -0.14325801 1.000000
-0.00515900 -0.14475100 0.44402400 1.000000
0.04357000 -0.37566501 -0.36375901 1.000000
-0.01856900 -0.09979100 -0.45052600 1.000000
-0.03786800 -0.03721800 0.43928000 1.000000
0.12343000 0.30789000 0.15834200 1.000000
0.15441000 -0.24744800 -0.42942399 1.000000
0.12856901 0.25866199 -0.25714499 1.000000
0.04811300 0.33485499 0.05131000 1.000000
-0.00586900 -0.41356999 0.32718700 1.000000
0.12701900 -0.53494602 -0.14531600 1.000000
-0.01143200 -0.54509801 -0.10921400 1.000000
0.13738000 -0.55132300 -0.07916000 1.000000
0.15583800 -0.36347300 -0.37200499 1.000000
-0.04264600 -0.33301601 -0.39161101 1.000000
-0.00761000 -0.05570700 -0.44742700 1.000000
0.16930400 0.19984099 0.32086301 1.000000
0.01174200 0.09055200 0.39781201 1.000000
0.14584699 -0.13078301 0.44475600 1.000000
0.04064000 0.23555601 0.28225499 1.000000
0.13658300 -0.55389702 -0.06290800 1.000000
0.16215000 0.33559000 -0.05188200 1.000000
0.00825000 0.27589899 0.22538500 1.000000
-0.01816400 0.31308499 0.14480899 1.000000
0.01800300 -0.06370000 0.44341600 1.000000
0.15449500 -0.54416698 -0.11269100 1.000000
0.06028400 -0.05058700 -0.44661599 1.000000
0.00395400 -0.10073300 0.44535699 1.000000
-0.03753000 -0.53159797 0.14882000 1.000000
0.09200700 -0.26437601 0.41784200 1.000000
0.00089900 0.32325000 -0.11591600 1.000000
0.15499499 -0.04503300 0.44051799 1.000000
-0.06164600 -0.06191800 -0.44841000 1.000000
0.13174801 0.33805600 -0.00967600 1.000000
-0.06789400 0.24727701 0.26778001 1.000000
0.04127700 -0.52244699 0.17266101 1.000000
0.02565500 -0.54274702 0.11277000 1.000000
0.18383200 -0.47667399 -0.26028800 1.000000
0.15336300 0.17916200 -0.34468901 1.000000
0.10883900 0.17350800 0.34404999 1.000000
0.04473200 0.32398200 0.10796300 1.000000
0.18174200 -0.50698501 0.20476399 1.000000
0.02574200 0.05307200 -0.41970101 1.000000
0.18427099 -0.47146001 0.26267999 1.000000
-0.02212800 -0.28980699 -0.41329801 1.000000
0.13409200 -0.52229500 0.17305399 1.000000
0.13199501 -0.48525399 0.24185701 1.000000
-0.06759700 0.32123199 0.11822600 1.000000
0.18964200 -0.53731900 0.13302700 1.000000
-0.04298300 0.04045400 0.41932699 1.000000
0.12959300 -0.13088900 -0.44996899 1.000000
0.11137400 -0.55092901 -0.08164500 1.000000
-0.05296700 0.03750600 0.42045900 1.000000
0.01469400 0.22084500 -0.30507699 1.000000
0.03318900 0.16868900 0.34795201 1.000000
0.12558299 -0.04524000 0.44055101 1.000000
0.10366200 0.33620900 -0.04492000 1.000000
-0.04786900 -0.04115200 0.43990299 1.000000
0.15774199 0.10617300 0.38985300 1.000000
0.04048200 0.33559000 0.04666600 1.000000
0.12168100 -0.55733699 0.01919700 1.000000
0.05787300 0.10130000 -0.39755401 1.000000
0.12479300 0.17170000 -0.35073200 1.000000
0.10717000 -0.43394199 0.30681500 1.000000
0.04836500 -0.16798000 -0.44685099 1.000000
0.15337101 0.17303000 0.34443700 1.000000
0.12644900 0.05097900 0.41528699 1.000000
0.14002299 0.30237001 0.17272300 1.000000
0.11696500 -0.55829901 0.00082600 1.000000
-0.01792000 -0.09455400 0.44503301 1.000000
0.01998800 -0.15516300 0.44347900 1.000000
-0.00232100 0.33682999 -0.03307100 1.000000
0.13752000 0.04394100 -0.42320701 1.000000
-0.02442800 0.20644400 0.31426001 1.000000
-0.00139900 -0.17578800 -0.44561401 1.000000
0.13850901 -0.15175700 -0.44887501 1.000000
0.03410100 -0.42715299 -0.31882200 1.000000
0.04922000 0.33270100 -0.07012600 1.000000
0.14581700 0.27885100 -0.22584300 1.000000
0.13041499 0.20099901 0.31970501 1.000000
-0.00461600 0.23292300 -0.29072401 1.000000
0.06629700 0.31387699 0.14274600 1.000000
0.15957800 -0.11159400 -0.45098001 1.000000
0.17284700 0.30898401 0.15549199 1.000000
0.10415000 -0.13928001 -0.44952899 1.000000
0.13378499 -0.47064200 0.26368999 1.000000
0.06561000 0.32320401 -0.11608700 1.000000
0.02753300 -0.22684699 0.42972499 1.000000
-0.02597700 -0.47308299 -0.26581699 1.000000
0.06993400 0.03733600 0.42052400 1.000000
0.16841400 -0.50847602 -0.20705700 1.000000
-0.05954700 0.06759100 0.40891001 1.000000
0.01826600 0.09798000 0.39402699 1.000000
-0.06482400 -0.46436000 0.27144799 1.000000
0.16064000 -0.29800701 -0.40944901 1.000000
-0.04501300 -0.07261100 -0.44910100 1.000000
0.12753899 -0.45519000 -0.28799000 1.000000
-0.00626000 -0.09571800 0.44509399 1.000000
0.03742600 -0.42052501 -0.32545000 1.000000
-0.02161400 -0.25369200 -0.42716101 1.000000
0.07360200 0.31500399 -0.14502800 1.000000
0.10161000 -0.05692600 -0.44762000 1.000000
0.10629800 0.11894800 0.38268000 1.000000
0.02956400 -0.49223199 -0.23633100 1.000000
0.12338000 0.25475001 -0.26317000 1.000000
0.12706500 -0.01923900 -0.44165099 1.000000
0.09726200 0.32224399 -0.11966900 1.000000
-0.00005400 0.01369100 -0.43309599 1.000000
0.16588400 0.33764401 -0.01754300 1.000000
0.00080000 -0.39341199 -0.34938899 1.000000
0.10523700 0.33647400 0.03465800 1.000000
0.11147900 0.04224000 0.41864201 1.000000
-0.01551800 -0.50056601 0.21736200 1.000000
0.10248100 -0.53501099 0.13992999 1.000000
0.19125900 -0.28162199 -0.41644001 1.000000
0.01697900 0.19444899 0.32625499 1.000000
0.12121000 0.25343800 0.25997201 1.000000
0.19103400 0.33063099 0.07797600 1.000000
0.02919200 -0.55630302 -0.04413700 1.000000
-0.06993800 0.25118500 -0.26817301 1.000000
0.06307900 0.04179400 -0.42403001 1.000000
0.02755200 -0.50875503 0.20129000 1.000000
-0.06805500 -0.52624899 -0.16797400 1.000000
-0.00946000 -0.38693100 0.34941801 1.000000
0.06756600 -0.55814099 -0.00907000 1.000000
-0.02247000 -0.24458399 0.42497301 1.000000
0.14715600 -0.19552100 -0.44248900 1.000000
-0.05064900 0.33814299 -0.00802100 1.000000
-0.02283900 -0.26184699 -0.42403001 1.000000
0.11702000 -0.47757500 0.25368199 1.000000
-0.06281000 -0.43884000 0.30191699 1.000000
-0.02843000 -0.54402101 0.10801800 1.000000
0.06859100 0.14641599 -0.37005901 1.000000
0.15832999 -0.06021000 -0.44814000 1.000000
0.06793000 -0.46266201 0.27354500 1.000000
-0.01551300 0.13777301 0.37045500 1.000000
0.16420500 0.26171499 0.24722600 1.000000
0.13979299 -0.47135299 -0.26802999 1.000000
0.06491600 -0.41305399 0.32770199 1.000000
0.13927400 0.19567400 0.32502899 1.000000
0.09405000 -0.35411599 0.37286299 1.000000
-0.03716400 -0.38796499 0.34858099 1.000000
0.07596000 -0.38975200 -0.35235199 1.000000
-0.02200800 -0.19184700 -0.44307101 1.000000
0.15595800 0.22664100 0.29326299 1.000000
0.00622000 -0.18824600 0.43842301 1.000000
-0.00867200 0.17818500 -0.34548000 1.000000
0.17370699 -0.44750601 -0.29747900 1.000000
0.13264900 -0.53068298 -0.15642300 1.000000
0.11336900 0.32422000 -0.11229600 1.000000
0.03425500 -0.01752500 0.43616101 1.000000
0.06688800 -0.30960301 0.39832199 1.000000
0.15938100 -0.54831201 0.09200300 1.000000
0.06397400 -0.53112400 0.15005501 1.000000
0.07615300 -0.04610500 -0.44590601 1.000000
0.03947400 0.10158700 -0.39740801 1.000000
0.06815500 -0.49716499 -0.22873500 1.000000
-0.02932200 0.32123399 0.11821900 1.000000
-0.01808800 0.19058999 -0.33533201 1.000000
0.03143700 -0.13061900 0.44476500 1.000000
0.15949400 0.21787000 -0.30805099 1.000000
-0.00389100 0.08005800 0.40315899 1.000000
0.11521200 0.30733001 0.15980300 1.000000
-0.02752000 0.17980701 0.33894899 1.000000
0.18464300 0.01988300 -0.43143600 1.000000
0.07166500 -0.33200201 -0.39212799 1.000000
0.12993599 -0.49933600 0.21977700 1.000000
0.03066900 -0.48068199 -0.25411600 1.000000
0.17684101 -0.55777901 0.01075300 1.000000
-0.05145800 -0.26139000 -0.42420599 1.000000
0.02054200 0.21429700 -0.31162500 1.000000
-0.01178500 -0.50744402 0.20386399 1.000000
0.07904100 0.23005600 0.28904700 1.000000
0.17817500 -0.33179700 -0.39223200 1.000000
0.06153900 -0.05222800 0.44165701 1.000000
0.13825101 -0.44978601 0.28944501 1.000000
0.03466000 -0.13279200 0.44465101 1.000000
0.18802699 -0.01434700 -0.44060799 1.000000
0.01428700 -0.49965701 0.21914700 1.000000
0.12003400 0.22289300 -0.30302900 1.000000
0.14537100 -0.42395499 0.31680200 1.000000
0.07885100 0.00478200 -0.43548301 1.000000
0.06318100 0.18973200 0.33091199 1.000000
0.07340700 -0.55393600 0.05744400 1.000000
-0.03826500 0.17496499 0.34287000 1.000000
-0.02708600 0.24048799 -0.28138199 1.000000
-0.04197700 -0.22832100 -0.43454900 1.000000
-0.02619600 -0.55707097 0.02426700 1.000000
0.10802400 0.33331200 -0.06627000 1.000000
0.19147000 -0.04758900 -0.44614100 1.000000
-0.04536100 -0.53619599 -0.14206100 1.000000
-0.02670400 -0.36175001 0.36790600 1.000000
0.04142500 -0.22051001 0.43142301 1.000000
0.16785200 -0.47801000 -0.25823000 1.000000
0.06301700 -0.47520101 0.25733900 1.000000
-0.03444600 0.23431300 0.28378999 1.000000
-0.01494800 0.33599800 0.04374400 1.000000
0.06782000 0.10894900 0.38843799 1.000000
0.06085200 0.28023601 0.21790799 1.000000
0.05799000 -0.54257900 0.11339900 1.000000
0.13411900 0.16621800 0.34995300 1.000000
0.12685700 -0.55307800 -0.06808100 1.000000
0.14382800 0.33552900 0.04705200 1.000000
0.16789800 -0.48660299 0.23977999 1.000000
0.06623500 0.16491900 0.35100499 1.000000
0.00596100 0.27714401 -0.22868600 1.000000
0.16138500 -0.55639797 -0.04231800 1.000000
0.17056000 0.09751800 0.39426300 1.000000
0.10791600 -0.27777901 0.41269699 1.000000
-0.04374500 0.12268800 0.38025099 1.000000
0.13137800 -0.45010301 -0.29427201 1.000000
0.06419000 0.20452800 0.31617600 1.000000
0.09316900 -0.03196300 -0.44366601 1.000000
0.08797400 -0.55716300 0.02250500 1.000000
0.10180300 0.32878000 0.08966400 1.000000
0.10572900 -0.55604500 -0.04906600 1.000000
0.04559000 -0.48235601 -0.25153801 1.000000
-0.05617100 -0.26992899 0.41571000 1.000000
0.17859700 0.30788499 -0.16357300 1.000000
0.05739700 -0.53523499 0.13934501 1.000000
0.17092299 -0.28574800 -0.41485599 1.000000
-0.02685100 -0.14407100 0.44406000 1.000000
0.09318000 -0.08585200 0.44457701 1.000000
0.15113699 -0.52510601 -0.17094900 1.000000
0.04326200 -0.51687998 0.18534499 1.000000
0.09803300 -0.46693099 -0.27349100 1.000000
0.15312500 -0.55823898 -0.00719700 1.000000
0.16481200 0.29470101 0.18951800 1.000000
0.05503900 -0.44410300 0.29646301 1.000000
0.18830401 0.21782000 0.30288300 1.000000
0.14244100 0.06709900 -0.41431701 1.000000
0.02773900 0.18308499 0.33629501 1.000000
-0.02516300 -0.54584301 -0.10643300 1.000000
0.17984800 0.22584200 -0.29946801 1.000000
-0.05426900 0.32895499 0.08855800 1.000000
0.05726800 0.16194600 0.35341200 1.000000
0.18608300 0.32431000 0.10674000 1.000000
0.02926800 0.17201699 0.34525701 1.000000
0.07339800 -0.24311300 0.42536700 1.000000
0.17082199 -0.49113899 -0.23801300 1.000000
0.08350000 -0.15137599 0.44367701 1.000000
-0.01346300 -0.23932301 -0.43160099 1.000000
-0.05310600 -0.26920101 -0.42120799 1.000000
0.18495700 -0.12250100 0.44519001 1.000000
0.16715001 0.30527300 0.16516000 1.000000
0.16109300 0.08078300 -0.40800700 1.000000
0.06816600 0.28077400 0.21685199 1.000000
0.04304200 -0.00176000 0.43201801 1.000000
-0.04152000 0.32066399 0.12034600 1.000000
0.07562200 0.33344001 -0.06546000 1.000000
0.03714400 -0.55657601 -0.03892400 1.000000
0.17477199 0.08251500 -0.40712500 1.000000
0.05413100 -0.02889800 0.43796200 1.000000
-0.04106000 -0.55207002 -0.07444400 1.000000
0.00891700 0.23747700 -0.28510100 1.000000
0.11030000 0.06787900 -0.41401699 1.000000
-0.06233000 -0.09604800 0.44511199 1.000000
0.07809000 -0.47396100 0.25924700 1.000000
0.17964700 -0.54380602 0.10882000 1.000000
0.14074500 0.32485500 0.10470600 1.000000
0.02573900 0.19684000 0.32386401 1.000000
-0.03007600 -0.37586701 0.35837799 1.000000
0.18907601 -0.08080100 0.44431201 1.000000
-0.02011700 0.28189901 0.21464300 1.000000
0.12765300 -0.12289500 0.44516999 1.000000
0.05061300 -0.23131600 0.42852801 1.000000
0.09866200 -0.36551499 0.36546099 1.000000
-0.02056400 -0.17646299 0.44028899 1.000000
0.11649500 0.21522000 -0.31070200 1.000000
0.05859200 0.25048399 -0.26903799 1.000000
-0.05775700 -0.55810499 0.00453300 1.000000
-0.03657100 0.33721301 0.02055400 1.000000
-0.05064400 0.33732399 0.01843700 1.000000
0.05507400 -0.46443999 -0.27656701 1.000000
0.12724499 -0.44132900 0.29942799 1.000000
-0.04222200 0.31723601 -0.13835900 1.000000
-0.02557000 0.30595699 -0.16859800 1.000000
0.15990500 0.24710600 -0.27320999 1.000000
0.11370700 0.02172000 0.42572600 1.000000
0.04289700 -0.54591900 -0.10615000 1.000000
-0.04039900 0.32740000 0.09520900 1.000000
0.08451400 0.33689401 -0.03185300 1.000000
0.12178800 -0.55664802 -0.03756200 1.000000
-0.01137100 -0.29164600 0.40737399 1.000000
0.11433000 -0.28724200 0.40906399 1.000000
-0.02221400 0.26761001 -0.24336700 1.000000
0.03403100 -0.44909999 -0.29551101 1.000000
-0.05307300 0.03353200 0.42198399 1.000000
-0.05268200 -0.54686999 0.09738400 1.000000
0.16743100 -0.16603000 -0.44716001 1.000000
-0.06050700 -0.51235700 -0.19943900 1.000000
-0.00205700 -0.25751600 -0.42569301 1.000000
0.03036600 -0.45953399 0.27740699 1.000000
-0.05668400 0.28004399 -0.22350200 1.000000
-0.06152900 -0.55300403 -0.06854400 1.000000
0.17599601 -0.28359300 0.41046500 1.000000
-0.02546000 -0.13654500 0.44445401 1.000000
0.13474800 0.14407600 -0.37158000 1.000000
0.05027400 -0.13841200 0.44435599 1.000000
0.02244100 -0.01318200 -0.44029599 1.000000
0.08226400 -0.20266800 0.43613899 1.000000
0.04374400 -0.45842800 0.27877399 1.000000
0.16424000 -0.27707899 0.41296601 1.000000
0.06465700 0.19776700 0.32293701 1.000000
0.13197801 -0.38301599 0.35258901 1.000000
0.17906301 -0.27992800 -0.41709000 1.000000
0.16693300 -0.12403200 0.44510999 1.000000
-0.03581700 -0.14719400 0.44389600 1.000000
-0.00541100 -0.54753298 0.09490800 1.000000
0.03336600 -0.51806200 0.18302500 1.000000
0.02312700 -0.23389301 -0.43305600 1.000000
0.11129400 0.23636700 0.28125301 1.000000
0.13602100 0.28055000 -0.22250900 1.000000
0.16014500 0.07184200 -0.41249600 1.000000
-0.03659200 -0.30825800 0.39900801 1.000000
-0.00293900 0.14145499 0.36806300 1.000000
-0.04703400 0.12415200 0.37930000 1.000000
0.16127400 -0.52041203 0.17796101 1.000000
-0.04066700 0.33807299 -0.00935800 1.000000
0.06406700 -0.52781999 -0.16388200 1.000000
0.04427900 -0.03704700 -0.44447100 1.000000
-0.05725000 0.23624200 -0.28662601 1.000000
0.15244000 0.27624100 0.22485800 1.000000
0.15814701 -0.15945201 0.44298401 1.000000
-0.00170600 -0.54371399 -0.11438100 1.000000
0.01652500 -0.15695401 -0.44859701 1.000000
0.17417701 -0.53568703 0.13816801 1.000000
0.04299900 0.30350000 -0.17499800 1.000000
0.00735000 0.11565300 -0.39003801 1.000000
0.04984800 0.15429799 -0.36482301 1.000000
-0.03924200 -0.33248499 -0.39188099 1.000000
0.09031700 -0.49115399 -0.23799101 1.000000
0.00156200 0.29901800 -0.18626300 1.000000
0.00653400 -0.53949100 -0.13014001 1.000000
0.15977500 0.11875300 0.38280600 1.000000
0.05478400 -0.33500499 0.38527399 1.000000
0.00144800 0.25461999 0.25815099 1.000000
0.09130400 -0.20946200 0.43438399 1.000000
0.06127500 -0.51918501 -0.18603900 1.000000
0.03022200 -0.39080101 -0.35150301 1.000000
0.09545100 -0.50930101 -0.20543800 1.000000
0.03776800 0.08292900 0.40169600 1.000000
0.01891300 -0.54983401 -0.08855900 1.000000
0.05326200 0.02104500 -0.43112499 1.000000
-0.07000400 0.08482300 0.40073100 1.000000
0.07700400 -0.55718797 0.02202400 1.000000
0.08392000 -0.42546901 -0.32050499 1.000000
0.10581800 -0.43043000 -0.31554401 1.000000
0.18097900 0.02992100 0.42337000 1.000000
-0.02184000 -0.41012099 -0.33585301 1.000000
0.18742099 0.30579200 -0.16902600 1.000000
-0.04873100 -0.39470199 0.34312600 1.000000
-0.06670800 -0.55693299 -0.03212300 1.000000
0.01352600 0.24593000 0.26944399 1.000000
-0.05112800 -0.03000200 -0.44335499 1.000000
0.12104300 -0.38920000 0.34758100 1.000000
0.02491000 0.16825600 -0.35352099 1.000000
-0.02709300 0.29972801 -0.18482400 1.000000
0.11631900 0.25815499 -0.25792599 1.000000
0.00337900 -0.01172000 0.43468601 1.000000
0.09459400 0.23038700 -0.29385599 1.000000
0.10029500 -0.35126099 -0.37993500 1.000000
0.19003101 -0.55641299 0.03682600 1.000000
0.16281900 -0.55750501 0.01599100 1.000000
0.16811000 -0.48666999 0.23967700 1.000000
0.13576800 -0.41641399 -0.32956100 1.000000
-0.01835000 0.33796200 -0.01147700 1.000000
-0.05944600 -0.04170800 0.43999100 1.000000
0.12712599 -0.03565000 -0.44424999 1.000000
-0.05439200 0.23390201 -0.28951499 1.000000
-0.06099600 -0.55622298 0.04044400 1.000000
0.02790700 -0.40334901 -0.34134099 1.000000
0.13605499 -0.25791901 -0.42553800 1.000000
0.16900299 -0.32314101 0.39142501 1.000000
0.18430500 0.26456299 0.24284101 1.000000
0.12139100 0.33710200 0.02266000 1.000000
0.06300000 -0.01254000 -0.44012401 1.000000
0.12744200 -0.13352600 0.44461301 1.000000
0.04424200 0.31739900 0.13253200 1.000000
0.00510700 -0.06315300 -0.44860601 1.000000
-0.03123600 -0.55820602 0.00260400 1.000000
0.14611700 0.26343301 0.24458100 1.000000
0.04827000 0.05568000 -0.41870001 1.000000
-0.06012800 0.30804899 0.15792900 1.000000
-0.01862900 -0.06748700 -0.44883299 1.000000
0.02351000 0.19909000 0.32161400 1.000000
0.00285800 0.33634600 -0.04231200 1.000000
0.02664700 -0.54369199 0.10924500 1.000000
0.02549500 0.32463601 -0.11074300 1.000000
0.01398500 -0.53983903 0.12362200 1.000000
0.09638800 -0.53738302 0.13278800 1.000000
-0.05560000 -0.54289001 0.11223600 1.000000
0.10859300 0.18637000 0.33363399 1.000000
0.11883300 0.04977200 -0.42096800 1.000000
-0.06651000 -0.37222600 0.36110300 1.000000
0.02745100 0.15383799 0.35997799 1.000000
0.10196400 0.23524401 -0.28785801 1.000000
0.06267400 -0.36285299 -0.37240800 1.000000
0.16897801 -0.44126400 0.29949301 1.000000
0.11490700 0.28923601 -0.20546199 1.000000
0.10436600 -0.33238900 0.38671300 1.000000
-0.02514600 0.18489499 0.33482900 1.000000
0.18209399 -0.53732097 0.13302200 1.000000
-0.00808400 0.32843900 0.09133200 1.000000
0.13242599 0.33703101 0.02402600 1.000000
0.17324699 -0.14681400 0.44391599 1.000000
0.11965600 -0.55482203 -0.05706500 1.000000
0.01718000 0.33823100 -0.00634000 1.000000
0.09482400 -0.44472101 -0.30091801 1.000000
0.01545700 -0.49366099 0.22891299 1.000000
0.03308400 0.29752600 -0.18919100 1.000000
0.11642500 0.32996899 0.08215400 1.000000
0.09191600 0.29648101 -0.19124299 1.000000
-0.01811400 0.10205500 -0.39716899 1.000000
0.06705400 0.11220500 -0.39199701 1.000000
0.18796600 -0.48067600 0.24890800 1.000000
0.00353900 -0.54394501 0.10829900 1.000000
0.16111501 0.30730200 0.15987401 1.000000
0.08137100 0.27782500 -0.22763699 1.000000
-0.00618800 -0.49531499 0.22636500 1.000000
-0.01017800 -0.32843801 -0.39394400 1.000000
0.11835200 -0.54934400 -0.09165300 1.000000
0.07797200 0.16735800 0.34902999 1.000000
0.02525600 -0.45274299 0.28579301 1.000000
0.01428300 -0.39168999 -0.35078299 1.000000
0.04882600 -0.53483802 0.14038099 1.000000
0.00427800 0.15531000 0.35878599 1.000000
0.16843200 0.32988301 0.08269800 1.000000
-0.01801500 -0.55602503 0.04422100 1.000000
0.07797900 0.25797299 -0.25820699 1.000000
-0.06179200 0.06836100 -0.41383299 1.000000
0.03294400 -0.14896600 -0.44902101 1.000000
-0.04059700 0.12327400 -0.38508800 1.000000
0.15678699 0.12306800 0.38000399 1.000000
0.09407400 -0.16740000 -0.44694301 1.000000
0.06356900 0.29696700 -0.19028801 1.000000
-0.06858400 -0.07603700 -0.44928101 1.000000
0.06913300 -0.55795401 0.00742400 1.000000
0.08034200 -0.28936499 -0.41346699 1.000000
-0.05681400 0.20454700 0.31615701 1.000000
0.10568800 -0.42824501 0.31251201 1.000000
0.01169500 -0.40708300 0.33309999 1.000000
-0.01774400 -0.26244199 -0.42380199 1.000000
0.12243500 -0.55818999 -0.00813500 1.000000
0.17487501 0.33359101 -0.06450300 1.000000
0.00008000 -0.46017000 0.27662200 1.000000
0.11539400 -0.23604700 -0.43247801 1.000000
0.07859300 0.04771900 -0.42175600 1.000000
-0.06793200 -0.29715800 -0.40988201 1.000000
-0.04172600 0.04776100 0.41652200 1.000000
-0.03386100 -0.54211199 -0.12035800 1.000000
0.05340200 -0.18290600 -0.44448701 1.000000
0.12058200 0.28983900 -0.20427901 1.000000
-0.05334700 -0.48309499 -0.25040001 1.000000
0.16837101 0.18998000 -0.33592901 1.000000
0.15004499 -0.07674700 -0.44931799 1.000000
-0.03748900 -0.12557800 -0.45024699 1.000000
0.13063900 -0.49909800 0.22024301 1.000000
0.06326400 -0.13169999 -0.44992599 1.000000
0.03139500 -0.50514603 0.20837501 1.000000
-0.06282400 -0.55641901 -0.04193100 1.000000
0.01703500 -0.55106401 0.07557500 1.000000
0.11172700 -0.28573599 0.40964201 1.000000
0.14837600 -0.08209700 -0.44959801 1.000000
0.19134501 0.25472301 -0.26321000 1.000000
-0.01024400 0.27019599 0.23416600 1.000000
0.02359300 -0.48200700 -0.25207600 1.000000
0.18753900 0.20989899 0.31080499 1.000000
0.08130900 -0.38485500 0.35110000 1.000000
-0.01189400 -0.15191600 0.44364899 1.000000
-0.06477500 -0.54848403 0.09135900 1.000000
0.01793200 -0.52814901 0.15780400 1.000000
0.14349000 -0.06660700 -0.44878700 1.000000
0.10674700 0.16184700 -0.35871100 1.000000
0.06671000 -0.54372501 -0.11434000 1.000000
0.10599800 -0.55080301 -0.08243900 1.000000
0.05482400 -0.08107500 0.44432700 1.000000
-0.00358400 0.23507600 0.28284800 1.000000
-0.06594000 0.15988301 0.35508400 1.000000
0.01659600 -0.55159199 -0.07745700 1.000000
0.17130700 -0.05155200 -0.44676900 1.000000
0.02931600 -0.55568802 0.04637900 1.000000
-0.01811600 -0.10998100 0.44584200 1.000000
0.01570400 0.16830000 0.34826699 1.000000
0.09960200 0.06784200 0.40881401 1.000000
0.13695300 -0.55286402 -0.06943100 1.000000
0.04162600 -0.38016999 -0.36011100 1.000000
0.05639600 0.28037199 -0.22285900 1.000000
-0.06515500 0.28579599 0.20699500 1.000000
-0.03333500 0.33059499 -0.08342100 1.000000
-0.00005200 0.14466500 0.36597899 1.000000
0.16383600 -0.55635703 -0.04311700 1.000000
0.01307500 0.14008699 0.36895201 1.000000
0.03519600 -0.29319200 0.40668499 1.000000
0.00754200 0.14928100 0.36298099 1.000000
0.17769501 0.33761501 0.01287000 1.000000
0.02106100 -0.18482301 -0.44418299 1.000000
0.06948900 -0.48662099 0.23975199 1.000000
0.00848900 -0.08818700 0.44470000 1.000000
0.15423800 0.15383700 0.35997900 1.000000
-0.06351400 0.30646601 0.16205400 1.000000
0.04658500 0.00584300 0.42998099 1.000000
-0.03076300 0.31575400 -0.14307401 1.000000
0.05115500 0.16632400 0.34986800 1.000000
0.03965900 0.33815899 0.00250400 1.000000
0.02754700 0.07842000 -0.40921199 1.000000
0.15001300 -0.10688100 0.44567901 1.000000
-0.00658700 -0.52908301 -0.16058999 1.000000
-0.00866400 0.30802399 0.15799400 1.000000
0.01545100 -0.37833700 0.35637701 1.000000
-0.06623600 -0.06193000 0.44319400 1.000000
0.08250500 0.32270700 0.11272400 1.000000
-0.03887400 -0.25023800 0.42326900 1.000000
0.00240900 0.31498301 -0.14508200 1.000000
-0.01271500 0.07382400 -0.41155300 1.000000
-0.07013200 0.17134200 -0.35102201 1.000000
0.09468900 0.15754300 -0.36219600 1.000000
0.09562100 0.19998799 0.32071599 1.000000
-0.05364500 -0.20818400 0.43472600 1.000000
0.04086800 -0.52739102 -0.16499899 1.000000
0.03556600 -0.27953100 0.41202399 1.000000
0.06400400 -0.18789600 0.43847901 1.000000
0.17272800 0.17670999 0.34145701 1.000000
-0.05458100 -0.04621000 0.44070399 1.000000
0.12302900 -0.49613199 -0.23032500 1.000000
0.12742101 -0.08524000 -0.44976300 1.000000
0.06865500 0.07770500 -0.40957600 1.000000
-0.05480000 -0.02852800 0.43790400 1.000000
0.06907000 0.15755101 -0.36219001 1.000000
-0.02511300 -0.51623797 -0.19182301 1.000000
0.19203299 0.12228200 -0.38573200 1.000000
0.03050100 0.23674800 -0.28600100 1.000000
0.04865200 0.05108600 -0.42046401 1.000000
-0.01708300 0.18610001 0.33385301 1.000000
0.09500200 -0.15738399 0.44331101 1.000000
-0.01849400 0.06583500 -0.41480201 1.000000
0.13238700 -0.11919500 -0.45058200 1.000000
-0.01655200 0.17618100 0.34188500 1.000000
0.07992600 -0.21140300 -0.43908200 1.000000
0.14742300 -0.53962302 -0.12964600 1.000000
0.16107000 -0.51660901 -0.19109499 1.000000
0.05334400 0.27154499 -0.23730800 1.000000
0.05786400 0.11001700 -0.39311200 1.000000
0.17501000 -0.55716002 0.02257000 1.000000
0.15992400 -0.12337300 0.44514501 1.000000
0.18327101 0.07367000 -0.41163200 1.000000
0.03532400 -0.20204601 0.43623701 1.000000
0.12733901 -0.16619700 -0.44713300 1.000000
-0.05049500 -0.55799800 -0.01179200 1.000000
0.03176700 0.31655899 -0.14088599 1.000000
0.08406000 -0.01197500 -0.43997300 1.000000
0.07327200 -0.21887100 0.43186301 1.000000
0.02646600 0.33785400 -0.01353900 1.000000
-0.00160400 0.16463500 0.35123500 1.000000
0.09103400 -0.22977500 0.42894101 1.000000
0.01578300 -0.41416901 -0.33180600 1.000000
-0.01176900 -0.35446301 0.37263799 1.000000
-0.00397400 -0.16540000 -0.44725999 1.000000
0.16846199 0.03062700 0.42309901 1.000000
0.12354700 -0.23142201 -0.43371800 1.000000
0.12607500 -0.29407001 -0.41145501 1.000000
0.04285900 -0.55653900 -0.03964200 1.000000
0.17251800 0.11441100 -0.39084399 1.000000
0.02322900 -0.46804300 -0.27211800 1.000000
0.03001000 0.32001299 0.12277600 1.000000
0.14386800 -0.10928400 0.44580501 1.000000
0.04770500 -0.49185699 0.23169000 1.000000
0.06870500 0.20217501 0.31852901 1.000000
0.04718600 0.33665600 0.03118000 1.000000
0.18375900 -0.51659298 -0.19112600 1.000000
0.14248200 0.02817000 0.42399800 1.000000
0.18130299 -0.50549901 -0.21289800 1.000000
-0.01137400 0.21481000 0.30589300 1.000000
0.03833300 0.32177201 0.11621100 1.000000
0.04343500 0.05558100 -0.41873801 1.000000
0.15841500 0.33722499 -0.02554700 1.000000
0.07513500 -0.09727700 -0.45039400 1.000000
0.03683000 0.29590601 0.18715300 1.000000
0.10511500 0.04898900 -0.42126900 1.000000
0.11014700 -0.40814200 -0.33746001 1.000000
0.09421600 0.13207300 -0.37937400 1.000000
0.01027400 -0.53654701 -0.14112900 1.000000
0.05977300 -0.55787098 -0.01421100 1.000000
0.10510800 0.33832699 -0.00070400 1.000000
0.17341299 0.15213400 0.36112800 1.000000
0.13144501 0.32009199 0.12248300 1.000000
0.18764400 -0.20612600 -0.44049600 1.000000
0.16891500 -0.06583400 0.44352800 1.000000
0.15934800 0.23210201 0.28652099 1.000000
-0.02156100 0.05798700 0.41259700 1.000000
0.11892400 -0.44784799 0.29183799 1.000000
-0.02183300 0.20202699 0.31867701 1.000000
-0.03438500 -0.11059800 0.44581401 1.000000
0.01441900 0.13606000 0.37156701 1.000000
0.16643000 -0.45982400 -0.28226799 1.000000
-0.04882700 -0.10618800 -0.45086101 1.000000
0.15097000 0.15718600 -0.36248499 1.000000
0.10839100 -0.52359301 0.16967300 1.000000
0.13014001 0.11327300 0.38623500 1.000000
0.01267500 -0.41421100 0.32654601 1.000000
0.02612600 0.30131799 -0.18068200 1.000000
0.18587500 0.33704001 -0.02906200 1.000000
0.05338900 0.27065200 0.23346500 1.000000
0.12438500 -0.24209701 -0.43085700 1.000000
0.02086100 -0.43571201 0.30504400 1.000000
-0.00126400 0.31098300 -0.15550300 1.000000
0.06393900 -0.36019501 0.36891600 1.000000
0.08064100 -0.16417301 -0.44745401 1.000000
0.18424000 0.12236800 0.38045800 1.000000
-0.06737400 -0.06986700 -0.44895700 1.000000
0.17959200 0.30089000 -0.18179600 1.000000
-0.00990700 -0.55446899 0.05407800 1.000000
0.00568400 -0.34239700 -0.38569200 1.000000
0.10360700 0.01696800 -0.43221700 1.000000
-0.06186400 -0.55752999 -0.02073000 1.000000
0.09191400 0.32546100 0.10244400 1.000000
0.06378900 -0.14250600 0.44414201 1.000000
0.03796900 -0.55332297 0.06131300 1.000000
0.10529300 0.29216000 0.19450501 1.000000
0.13175599 -0.43212301 -0.31385201 1.000000
0.12484200 -0.53767699 0.13169099 1.000000
-0.00755800 0.29994100 0.17905100 1.000000
0.05922500 0.27191299 0.23152199 1.000000
-0.04130000 0.32828501 0.09190800 1.000000
0.08176300 0.25568300 0.25651401 1.000000
0.12180000 0.08193800 0.40220100 1.000000
0.13811500 0.26577601 -0.24619099 1.000000
-0.05949800 -0.34276101 0.38023800 1.000000
0.18977100 -0.11427500 -0.45083901 1.000000
0.17736401 -0.27006799 -0.42087501 1.000000
0.00963600 0.30098099 -0.18155900 1.000000
0.03664800 0.19963500 0.32106799 1.000000
-0.02431000 -0.53626001 -0.14189500 1.000000
0.04499400 -0.52235800 -0.17810901 1.000000
0.10391500 0.24095701 -0.28080299 1.000000
-0.03425000 0.24251901 0.27365601 1.000000
0.00198700 0.33073601 0.07731400 1.000000
0.07607700 0.11687400 0.38402599 1.000000
0.12878001 0.17325599 -0.34947199 1.000000
0.16364101 -0.12789300 0.44490799 1.000000
0.10117900 -0.54996300 -0.08774200 1.000000
-0.06029200 0.16078100 0.35435599 1.000000
0.18569100 -0.54901302 -0.09374500 1.000000
0.18277600 -0.55631000 0.03879100 1.000000
0.15677100 0.29743001 -0.18938100 1.000000
0.01678500 0.33687699 0.02696600 1.000000
0.02349400 -0.55355102 -0.06509200 1.000000
0.02052500 -0.52366197 0.16949500 1.000000
0.03025900 0.06926800 -0.41348401 1.000000
0.15104701 -0.53492600 0.14015099 1.000000
-0.05348300 -0.54278803 0.11261700 1.000000
0.15038200 -0.54917097 -0.09274500 1.000000
-0.03902300 -0.06994000 0.44374299 1.000000
0.13730800 -0.24816900 -0.42923000 1.000000
0.10276000 -0.45885199 -0.28346801 1.000000
0.18637100 -0.14905401 0.44379899 1.000000
0.13736600 0.33754301 0.01425300 1.000000
0.18637300 -0.55232900 -0.07280600 1.000000
-0.05062000 0.32455900 -0.11103000 1.000000
0.13863800 -0.50336099 0.21187800 1.000000
0.11141200 -0.53684998 0.13477901 1.000000
0.09759600 0.29266000 -0.19874100 1.000000
0.04221400 -0.27045500 0.41550800 1.000000
0.04748300 -0.53112400 -0.15527400 1.000000
0.10106700 0.32161000 -0.12203600 1.000000
0.09184300 -0.50214398 0.21426500 1.000000
0.06608400 -0.47380599 -0.26470399 1.000000
-0.00112100 -0.55303800 0.06311100 1.000000
0.19104500 0.15124100 -0.36692601 1.000000
0.06404600 0.33660901 -0.03730100 1.000000
0.07700800 -0.53186703 -0.15333800 1.000000
-0.01283100 0.23637500 -0.28646100 1.000000
0.06764800 -0.01708100 -0.44130901 1.000000
-0.06595300 -0.33311301 -0.39156201 1.000000
-0.06939200 0.00009000 0.43152201 1.000000
0.18041299 0.19552700 -0.33039501 1.000000
0.14427599 -0.48773301 -0.24325800 1.000000
0.03392800 -0.28438401 0.41016099 1.000000
0.06284200 0.33679101 -0.03382900 1.000000
0.16542000 -0.52109700 0.17617700 1.000000
0.14115199 0.22790501 -0.29692101 1.000000
0.08170500 0.26168200 -0.25249600 1.000000
0.12090000 0.07345300 0.40652499 1.000000
0.18525200 -0.09839800 -0.45045301 1.000000
-0.02368000 -0.23585699 -0.43252900 1.000000
0.12665699 -0.11405300 0.44563299 1.000000
-0.01036600 -0.09774500 -0.45041800 1.000000
-0.03035200 0.03345300 0.42201400 1.000000
0.09724900 -0.53569198 -0.14337300 1.000000
0.06214100 -0.48178101 0.24720600 1.000000
0.16743299 0.03319300 0.42211401 1.000000
0.09802400 0.33284900 -0.06919300 1.000000
-0.05085500 -0.50292999 -0.21794200 1.000000
0.11902100 -0.39052600 0.34650701 1.000000
0.04087700 -0.52037501 -0.18327400 1.000000
-0.00332400 0.20067400 0.32003000 1.000000
0.04056100 -0.11454700 0.44560701 1.000000
0.07779600 -0.52044302 -0.18309900 1.000000
0.08732300 -0.35898200 -0.37492099 1.000000
0.09682000 -0.08612900 -0.44981000 1.000000
0.05819000 -0.41468099 0.32607600 1.000000
0.03697600 0.28622499 0.20615201 1.000000
0.11384800 0.10539900 0.39024699 1.000000
0.00762100 -0.21925899 0.43175900 1.000000
0.03956700 0.20721400 -0.31870699 1.000000
0.10786700 -0.39214700 -0.35041299 1.000000
0.11043700 0.21252701 -0.31339499 1.000000
0.02031000 -0.38842699 0.34820700 1.000000
0.14521000 0.29417500 -0.19576900 1.000000
0.11490100 -0.41919699 0.32156000 1.000000
0.14879300 -0.48546699 -0.24674700 1.000000
0.04164500 -0.15285400 0.44360000 1.000000
0.18840700 -0.29112399 -0.41279200 1.000000
0.06865400 0.33775201 0.01026600 1.000000
0.18146200 0.26282600 -0.25073299 1.000000
0.05825500 0.09710200 -0.39969301 1.000000
0.09460300 -0.23676901 0.42706701 1.000000
0.13466799 0.07327500 -0.41183299 1.000000
0.06614700 -0.02744700 0.43773299 1.000000
0.15489399 -0.33860400 0.38293701 1.000000
0.05323400 -0.55312598 -0.06777200 1.000000
0.00058600 -0.55204600 -0.07459400 1.000000
-0.06432500 -0.53013200 -0.15785700 1.000000
0.04574900 -0.55016297 -0.08648000 1.000000
0.02003900 -0.17812100 0.44002700 1.000000
0.13726300 -0.52766597 0.15906300 1.000000
-0.06622400 0.31288701 0.14532501 1.000000
0.11898400 -0.53996801 0.12314200 1.000000
0.08119800 0.24030600 -0.28160599 1.000000
-0.03128500 -0.13826400 0.44436401 1.000000
-0.01437200 -0.05547700 -0.44738999 1.000000
0.03587400 0.13834500 0.37008300 1.000000
0.03278500 0.23755400 0.27978799 1.000000
0.18971001 0.33754200 0.01428000 1.000000
0.12544701 -0.42100099 -0.32497299 1.000000
0.11482900 -0.12850299 0.44487599 1.000000
0.02257200 0.14997700 0.36252901 1.000000
0.03638700 -0.49410999 0.22822100 1.000000
-0.03651600 -0.10813500 0.44574499 1.000000
-0.02051800 -0.53140903 0.14931300 1.000000
-0.06742200 -0.38893300 -0.35301501 1.000000
-0.01889000 -0.55351800 -0.06530100 1.000000
0.16688199 0.25358999 0.25973701 1.000000
0.05052900 -0.00914400 -0.43921399 1.000000
0.16887601 -0.23826800 0.42666501 1.000000
0.06758500 0.16307899 0.35249501 1.000000
-0.05719400 -0.04570600 0.44062400 1.000000
0.04386700 -0.43719801 0.30355799 1.000000
0.18421701 -0.55797499 0.00701800 1.000000
0.01256700 -0.45414600 -0.28927901 1.000000
0.19041400 -0.55391997 -0.06275900 1.000000
-0.05237100 0.33736199 -0.02293200 1.000000
0.05942000 -0.36311200 0.36702201 1.000000
0.15244000 -0.09233200 -0.45013499 1.000000
-0.00238600 -0.45810699 0.27916899 1.000000
-0.04193500 -0.32414100 -0.39613301 1.000000
0.03411900 -0.06670100 -0.44879201 1.000000
0.11203000 0.15722400 0.35723701 1.000000
0.18952700 -0.08404500 -0.44970000 1.000000
-0.01540000 -0.05547500 0.44217199 1.000000
0.16176599 -0.40923199 0.33136001 1.000000
0.03152100 -0.48044699 -0.25447801 1.000000
0.04882600 -0.08760500 0.44466901 1.000000
0.14023399 0.25706401 0.25438800 1.000000
-0.01847700 -0.52105200 -0.18151300 1.000000
0.03114400 -0.26601899 -0.42242900 1.000000
0.01574500 0.20727700 0.31342599 1.000000
0.01448300 -0.53295600 0.14528200 1.000000
0.00953900 0.10452500 -0.39591101 1.000000
0.16827001 0.05533000 0.41361701 1.000000
-0.03630600 -0.03508000 -0.44415900 1.000000
0.18399400 -0.33416301 -0.39102700 1.000000
0.01536200 0.32897201 -0.09367200 1.000000
0.09489000 0.31110701 0.14996199 1.000000
-0.02914200 -0.08175100 0.44436201 1.000000
0.13164100 0.28617299 0.20625500 1.000000
0.03206800 -0.55411798 -0.06151400 1.000000
0.07516500 -0.45011601 -0.29425499 1.000000
0.00697300 -0.15463400 -0.44872400 1.000000
-0.02681600 -0.29503000 0.40574801 1.000000
0.17435201 0.33223301 -0.07307900 1.000000
0.16505601 -0.34786400 -0.38214201 1.000000
-0.05858700 -0.55320197 -0.06729600 1.000000
-0.06528300 0.27567500 -0.23094800 1.000000
0.00593600 -0.42351100 -0.32246399 1.000000
-0.01849000 0.30351499 -0.17495801 1.000000
0.05169400 0.23638500 -0.28644899 1.000000
0.18364701 -0.53119498 0.14986999 1.000000
-0.05724700 -0.55687100 -0.03330500 1.000000
0.11724100 0.33830500 -0.00492800 1.000000
0.10048100 0.33757299 0.01367400 1.000000
0.07801700 -0.16430300 -0.44743299 1.000000
0.09996300 -0.05322000 0.44181499 1.000000
-0.03548900 0.07985300 0.40326399 1.000000
0.09631200 0.27936900 -0.22482701 1.000000
-0.01215100 0.23442499 -0.28887001 1.000000
0.00301100 0.06044900 0.41165200 1.000000
0.05272500 0.33692601 0.02602900 1.000000
0.11561000 0.23370799 -0.28975499 1.000000
0.01377700 0.33450499 0.05351900 1.000000
0.06422000 -0.10864900 0.44577199 1.000000
0.10569300 -0.54200798 0.11552700 1.000000
-0.04596500 -0.55822301 0.00228300 1.000000
0.05429700 -0.19999000 0.43656299 1.000000
-0.01997000 -0.38833401 0.34828201 1.000000
0.04541700 0.33481899 0.05153600 1.000000
0.16612600 -0.18871000 0.43834999 1.000000
-0.05795600 -0.18541400 -0.44409001 1.000000
0.11420000 -0.13065299 -0.44998100 1.000000
0.15178700 -0.37577200 -0.36367300 1.000000
0.06705400 0.01214300 -0.43351001 1.000000
-0.00053200 -0.46692601 0.26828000 1.000000
-0.00581500 0.21233800 -0.31358400 1.000000
0.07752700 -0.33530799 -0.39029500 1.000000
0.15569700 -0.53571802 -0.14330600 1.000000
0.10807400 -0.07059300 0.44377699 1.000000
-0.06364700 -0.04723800 -0.44608501 1.000000
-0.00099700 -0.15789001 -0.44844899 1.000000
0.09913000 -0.24725200 -0.42947599 1.000000
0.08672500 0.33508399 0.04986500 1.000000
0.16327600 -0.41892701 0.32182899 1.000000
0.09720200 -0.31664401 -0.39995301 1.000000
0.03465700 0.13296100 0.37357900 1.000000
-0.02721800 0.30874899 -0.16132300 1.000000
-0.06880500 -0.53334099 0.14427900 1.000000
0.16419099 -0.36993301 -0.36781001 1.000000
0.14094600 0.31902200 -0.13169301 1.000000
0.06922400 -0.34575400 -0.38351199 1.000000
0.00534100 -0.51310498 -0.19797200 1.000000
0.04953800 -0.26926801 -0.42118201 1.000000
0.18471700 0.33672500 -0.03507700 1.000000
-0.04091100 0.06769100 0.40887201 1.000000
-0.06483000 0.02132400 -0.43105000 1.000000
0.11814300 -0.11775700 -0.45065701 1.000000
0.13019399 -0.34745201 -0.38240901 1.000000
0.06091300 -0.01559300 0.43572399 1.000000
-0.00999600 -0.14629599 0.44394299 1.000000
0.16784400 -0.13347200 -0.44983301 1.000000
0.07529700 -0.06656400 0.44356599 1.000000
-0.06886500 0.20059501 0.32010901 1.000000
0.03005600 -0.33584300 -0.38994801 1.000000
-0.02267100 0.03263300 0.42232901 1.000000
0.01762200 -0.00042500 0.43166000 1.000000
0.16451900 0.33299801 -0.06824900 1.000000
-0.02260500 -0.18057700 -0.44485599 1.000000
-0.03228500 0.02155500 0.42577100 1.000000
0.09310700 0.29376599 0.19135401 1.000000
-0.02989500 -0.53302503 -0.15032101 1.000000
0.00931100 0.03083600 0.42301899 1.000000
-0.06570400 0.30659699 -0.16693000 1.000000
-0.01475600 0.02899600 -0.42894301 1.000000
0.00983100 -0.46854100 -0.27150199 1.000000
0.10426200 0.15261300 -0.36603501 1.000000
-0.03438700 0.01730500 0.42690900 1.000000
0.01262600 0.07969500 -0.40856200 1.000000
0.15252300 0.24567799 -0.27497301 1.000000
0.19132100 0.31742600 -0.13764900 1.000000
-0.03909600 -0.11107500 -0.45100701 1.000000
0.03002300 0.26710299 -0.24414700 1.000000
0.03961200 0.04015100 -0.42466101 1.000000
0.03454400 -0.19676600 0.43707401 1.000000
0.16597000 -0.52079397 0.17696500 1.000000
0.10168800 -0.46811900 0.26680499 1.000000
0.03602700 -0.55802298 0.00609500 1.000000
0.12596500 -0.47187600 0.26216599 1.000000
0.14770800 -0.55847299 -0.00274100 1.000000
0.06916300 -0.00795700 0.43367800 1.000000
0.11059000 -0.55696899 -0.03143900 1.000000
-0.00484900 -0.01205100 -0.43999299 1.000000
0.00161900 -0.27163899 -0.42027199 1.000000
0.13984101 -0.55063802 0.07826800 1.000000
-0.03311200 -0.22328401 0.43068001 1.000000
0.03208600 0.19138999 0.32931399 1.000000
0.17009400 -0.55844599 -0.00197200 1.000000
-0.00256600 -0.16811900 -0.44682899 1.000000
0.14690000 -0.53324801 -0.14973900 1.000000
0.02036700 0.33247501 0.06633200 1.000000
-0.06542200 -0.00216700 0.43212700 1.000000
0.02161900 -0.49624199 0.22493801 1.000000
