0.575758	-1.399637	-2.058961	-0.500000	0.866025	0.000000
0.212121	-1.609583	-2.058961	-0.500000	0.866025	0.000000
1.136364	-1.075971	-2.058961	-0.500000	0.866025	0.000000
0.242424	-1.592087	-2.058961	-0.500000	0.866025	0.000000
0.727273	-1.312160	-2.058961	-0.500000	0.866025	0.000000
0.606061	-1.382142	-2.058961	-0.500000	0.866025	0.000000
0.848485	-1.242178	-2.058961	-0.500000	0.866025	0.000000
-0.393939	1.504610	-2.058961	0.500000	-0.866025	0.000000
-1.151515	1.067223	-2.058961	0.500000	-0.866025	0.000000
-0.409091	1.495862	-2.058961	0.500000	-0.866025	0.000000
-0.424242	1.487114	-2.058961	0.500000	-0.866025	0.000000
-0.575758	1.399637	-2.058961	0.500000	-0.866025	0.000000
-0.727273	1.312160	-2.058961	0.500000	-0.866025	0.000000
-0.439394	1.478367	-2.058961	0.500000	-0.866025	0.000000
-0.742424	1.303412	-2.058961	0.500000	-0.866025	0.000000
-0.454545	1.469619	-2.058961	0.500000	-0.866025	0.000000
-0.712121	1.320907	-2.058961	0.500000	-0.866025	0.000000
-0.242424	1.592087	-2.058961	0.500000	-0.866025	0.000000
-0.681818	1.338403	-2.058961	0.500000	-0.866025	0.000000
-0.227273	1.600835	-2.058961	0.500000	-0.866025	0.000000
-1.045455	1.128457	-2.058961	0.500000	-0.866025	0.000000
-0.212121	1.609583	-2.058961	0.500000	-0.866025	0.000000
-0.515152	1.434628	-2.058961	0.500000	-0.866025	0.000000
-0.606061	1.382142	-2.058961	0.500000	-0.866025	0.000000
-0.803030	1.268421	-2.058961	0.500000	-0.866025	0.000000
-1.166667	1.058475	-2.058961	0.500000	-0.866025	0.000000
-0.257576	1.583339	-2.058961	0.500000	-0.866025	0.000000
-0.666667	1.347151	-2.058961	0.500000	-0.866025	0.000000
-0.651515	1.355898	-2.058961	0.500000	-0.866025	0.000000
-1.136364	1.075971	-2.058961	0.500000	-0.866025	0.000000
-0.348485	1.530853	-2.058961	0.500000	-0.866025	0.000000
-0.772727	1.285917	-2.058961	0.500000	-0.866025	0.000000
-0.590909	1.390889	-2.058961	0.500000	-0.866025	0.000000
-0.363636	1.522105	-2.058961	0.500000	-0.866025	0.000000
-0.787879	1.277169	-2.058961	0.500000	-0.866025	0.000000
-0.560606	1.408385	-2.058961	0.500000	-0.866025	0.000000
-0.833333	1.250926	-2.058961	0.500000	-0.866025	0.000000
-0.621212	1.373394	-2.058961	0.500000	-0.866025	0.000000
-1.106061	1.093466	-2.058961	0.500000	-0.866025	0.000000
-0.848485	1.242178	-2.058961	0.500000	-0.866025	0.000000
-0.500000	1.443376	-2.058961	0.500000	-0.866025	0.000000
-0.272727	1.574592	-2.058961	0.500000	-0.866025	0.000000
-1.196970	1.040980	-2.058961	0.500000	-0.866025	0.000000
-0.484848	1.452123	-2.058961	0.500000	-0.866025	0.000000
-1.242424	1.014737	-2.058961	0.500000	-0.866025	0.000000
-0.636364	1.364646	-2.058961	0.500000	-0.866025	0.000000
-0.757576	1.294664	-2.058961	0.500000	-0.866025	0.000000
-1.060606	1.119710	-2.058961	0.500000	-0.866025	0.000000
-0.198997	1.617160	-2.058961	0.500000	-0.866025	0.000000
-0.378788	1.513358	-2.058961	0.500000	-0.866025	0.000000
-1.121212	1.084719	-2.058961	0.500000	-0.866025	0.000000
-1.075758	1.110962	-2.058961	0.500000	-0.866025	0.000000
-0.469697	1.460871	-2.058961	0.500000	-0.866025	0.000000
-0.303030	1.557096	-2.058961	0.500000	-0.866025	0.000000
-1.227273	1.023485	-2.058961	0.500000	-0.866025	0.000000
-1.257576	1.005989	-2.058961	0.500000	-0.866025	0.000000
-0.818182	1.259673	-2.058961	0.500000	-0.866025	0.000000
-0.318182	1.548348	-2.058961	0.500000	-0.866025	0.000000
-0.333333	1.539601	-2.058961	0.500000	-0.866025	0.000000
-0.545455	1.417132	-2.058961	0.500000	-0.866025	0.000000
-0.287879	1.565844	-2.058961	0.500000	-0.866025	0.000000
-0.863636	1.233430	-2.058961	0.500000	-0.866025	0.000000
-0.878788	1.224682	-2.058961	0.500000	-0.866025	0.000000
-1.287879	0.988494	-2.058961	0.500000	-0.866025	0.000000
-1.272727	0.997241	-2.058961	0.500000	-0.866025	0.000000
-0.893939	1.215935	-2.058961	0.500000	-0.866025	0.000000
-1.090909	1.102214	-2.058961	0.500000	-0.866025	0.000000
-0.530303	1.425880	-2.058961	0.500000	-0.866025	0.000000
-0.909091	1.207187	-2.058961	0.500000	-0.866025	0.000000
-0.924242	1.198439	-2.058961	0.500000	-0.866025	0.000000
-0.939394	1.189691	-2.058961	0.500000	-0.866025	0.000000
-0.954545	1.180944	-2.058961	0.500000	-0.866025	0.000000
-0.969697	1.172196	-2.058961	0.500000	-0.866025	0.000000
-1.300957	0.980943	-2.058961	0.500000	-0.866025	0.000000
-0.984848	1.163448	-2.058961	0.500000	-0.866025	0.000000
-1.000000	1.154701	-2.058961	0.500000	-0.866025	0.000000
-1.212121	1.032232	-2.058961	0.500000	-0.866025	0.000000
-1.181818	1.049728	-2.058961	0.500000	-0.866025	0.000000
-0.696970	1.329655	-2.058961	0.500000	-0.866025	0.000000
-1.015152	1.145953	-2.058961	0.500000	-0.866025	0.000000
-1.030303	1.137205	-2.058961	0.500000	-0.866025	0.000000
0.199043	1.617133	-2.058961	-0.500000	-0.866025	0.000000
-0.212121	-1.609583	-2.058961	0.500000	0.866025	0.000000
-0.560606	-1.408385	-2.058961	0.500000	0.866025	0.000000
-1.227273	-1.023485	-2.058961	0.500000	0.866025	0.000000
1.301003	0.980916	-2.058961	-0.500000	-0.866025	0.000000
0.272727	1.574592	-2.058961	-0.500000	-0.866025	0.000000
-0.575758	-1.399637	-2.058961	0.500000	0.866025	0.000000
-1.212121	-1.032232	-2.058961	0.500000	0.866025	0.000000
-1.196970	-1.040980	-2.058961	0.500000	0.866025	0.000000
-1.181818	-1.049728	-2.058961	0.500000	0.866025	0.000000
-0.590909	-1.390889	-2.058961	0.500000	0.866025	0.000000
0.530303	1.425880	-2.058961	-0.500000	-0.866025	0.000000
0.924242	1.198439	-2.058961	-0.500000	-0.866025	0.000000
-1.166667	-1.058475	-2.058961	0.500000	0.866025	0.000000
1.212121	1.032232	-2.058961	-0.500000	-0.866025	0.000000
0.636364	1.364646	-2.058961	-0.500000	-0.866025	0.000000
-1.301003	-0.980916	-2.058961	0.500000	0.866025	0.000000
-1.151515	-1.067223	-2.058961	0.500000	0.866025	0.000000
1.242424	1.014737	-2.058961	-0.500000	-0.866025	0.000000
0.454545	1.469619	-2.058961	-0.500000	-0.866025	0.000000
-0.803030	-1.268421	-2.058961	0.500000	0.866025	0.000000
-0.606061	-1.382142	-2.058961	0.500000	0.866025	0.000000
-1.136364	-1.075971	-2.058961	0.500000	0.866025	0.000000
0.424242	1.487114	-2.058961	-0.500000	-0.866025	0.000000
-0.621212	-1.373394	-2.058961	0.500000	0.866025	0.000000
-0.636364	-1.364646	-2.058961	0.500000	0.866025	0.000000
-1.121212	-1.084719	-2.058961	0.500000	0.866025	0.000000
-1.106061	-1.093466	-2.058961	0.500000	0.866025	0.000000
-0.651515	-1.355898	-2.058961	0.500000	0.866025	0.000000
1.090909	1.102214	-2.058961	-0.500000	-0.866025	0.000000
0.469697	1.460871	-2.058961	-0.500000	-0.866025	0.000000
-1.090909	-1.102214	-2.058961	0.500000	0.866025	0.000000
0.409091	1.495862	-2.058961	-0.500000	-0.866025	0.000000
-1.075758	-1.110962	-2.058961	0.500000	0.866025	0.000000
-1.060606	-1.119710	-2.058961	0.500000	0.866025	0.000000
1.181818	1.049728	-2.058961	-0.500000	-0.866025	0.000000
-1.045455	-1.128457	-2.058961	0.500000	0.866025	0.000000
-1.030303	-1.137205	-2.058961	0.500000	0.866025	0.000000
-1.015152	-1.145953	-2.058961	0.500000	0.866025	0.000000
1.257576	1.005989	-2.058961	-0.500000	-0.866025	0.000000
0.242424	1.592087	-2.058961	-0.500000	-0.866025	0.000000
-0.666667	-1.347151	-2.058961	0.500000	0.866025	0.000000
-0.818182	-1.259673	-2.058961	0.500000	0.866025	0.000000
-0.681818	-1.338403	-2.058961	0.500000	0.866025	0.000000
0.500000	1.443376	-2.058961	-0.500000	-0.866025	0.000000
0.393939	1.504610	-2.058961	-0.500000	-0.866025	0.000000
1.136364	1.075971	-2.058961	-0.500000	-0.866025	0.000000
-0.696970	-1.329655	-2.058961	0.500000	0.866025	0.000000
0.757576	1.294664	-2.058961	-0.500000	-0.866025	0.000000
-0.712121	-1.320907	-2.058961	0.500000	0.866025	0.000000
-0.727273	-1.312160	-2.058961	0.500000	0.866025	0.000000
-0.742424	-1.303412	-2.058961	0.500000	0.866025	0.000000
0.560606	1.408385	-2.058961	-0.500000	-0.866025	0.000000
0.939394	1.189691	-2.058961	-0.500000	-0.866025	0.000000
0.287879	1.565844	-2.058961	-0.500000	-0.866025	0.000000
1.045455	1.128457	-2.058961	-0.500000	-0.866025	0.000000
-0.757576	-1.294664	-2.058961	0.500000	0.866025	0.000000
-0.772727	-1.285917	-2.058961	0.500000	0.866025	0.000000
0.818182	1.259673	-2.058961	-0.500000	-0.866025	0.000000
0.378788	1.513358	-2.058961	-0.500000	-0.866025	0.000000
1.227273	1.023485	-2.058961	-0.500000	-0.866025	0.000000
-1.000000	-1.154701	-2.058961	0.500000	0.866025	0.000000
0.984848	1.163448	-2.058961	-0.500000	-0.866025	0.000000
0.257576	1.583339	-2.058961	-0.500000	-0.866025	0.000000
-0.984848	-1.163448	-2.058961	0.500000	0.866025	0.000000
0.878788	1.224682	-2.058961	-0.500000	-0.866025	0.000000
-0.969697	-1.172196	-2.058961	0.500000	0.866025	0.000000
-0.954545	-1.180944	-2.058961	0.500000	0.866025	0.000000
-0.939394	-1.189691	-2.058961	0.500000	0.866025	0.000000
1.015152	1.145953	-2.058961	-0.500000	-0.866025	0.000000
1.060606	1.119710	-2.058961	-0.500000	-0.866025	0.000000
-0.924242	-1.198439	-2.058961	0.500000	0.866025	0.000000
-0.787879	-1.277169	-2.058961	0.500000	0.866025	0.000000
-0.909091	-1.207187	-2.058961	0.500000	0.866025	0.000000
-0.848485	-1.242178	-2.058961	0.500000	0.866025	0.000000
0.803030	1.268421	-2.058961	-0.500000	-0.866025	0.000000
0.954545	1.180944	-2.058961	-0.500000	-0.866025	0.000000
0.545455	1.417132	-2.058961	-0.500000	-0.866025	0.000000
1.000000	1.154701	-2.058961	-0.500000	-0.866025	0.000000
0.833333	1.250926	-2.058961	-0.500000	-0.866025	0.000000
1.272727	0.997241	-2.058961	-0.500000	-0.866025	0.000000
1.075758	1.110962	-2.058961	-0.500000	-0.866025	0.000000
0.303030	1.557096	-2.058961	-0.500000	-0.866025	0.000000
-1.242424	-1.014737	-2.058961	0.500000	0.866025	0.000000
1.106061	1.093466	-2.058961	-0.500000	-0.866025	0.000000
-1.257576	-1.005989	-2.058961	0.500000	0.866025	0.000000
0.787879	1.277169	-2.058961	-0.500000	-0.866025	0.000000
-1.272727	-0.997241	-2.058961	0.500000	0.866025	0.000000
0.772727	1.285917	-2.058961	-0.500000	-0.866025	0.000000
-1.287879	-0.988494	-2.058961	0.500000	0.866025	0.000000
0.333333	1.539601	-2.058961	-0.500000	-0.866025	0.000000
1.196970	1.040980	-2.058961	-0.500000	-0.866025	0.000000
0.348485	1.530853	-2.058961	-0.500000	-0.866025	0.000000
1.030303	1.137205	-2.058961	-0.500000	-0.866025	0.000000
0.848485	1.242178	-2.058961	-0.500000	-0.866025	0.000000
1.287879	0.988494	-2.058961	-0.500000	-0.866025	0.000000
0.363636	1.522105	-2.058961	-0.500000	-0.866025	0.000000
0.696970	1.329655	-2.058961	-0.500000	-0.866025	0.000000
-0.893939	-1.215935	-2.058961	0.500000	0.866025	0.000000
0.318182	1.548348	-2.058961	-0.500000	-0.866025	0.000000
0.969697	1.172196	-2.058961	-0.500000	-0.866025	0.000000
1.151515	1.067223	-2.058961	-0.500000	-0.866025	0.000000
0.863636	1.233430	-2.058961	-0.500000	-0.866025	0.000000
0.227273	1.600835	-2.058961	-0.500000	-0.866025	0.000000
0.212121	1.609583	-2.058961	-0.500000	-0.866025	0.000000
0.712121	1.320907	-2.058961	-0.500000	-0.866025	0.000000
-0.878788	-1.224682	-2.058961	0.500000	0.866025	0.000000
-0.863636	-1.233430	-2.058961	0.500000	0.866025	0.000000
0.621212	1.373394	-2.058961	-0.500000	-0.866025	0.000000
-0.199043	-1.617133	-2.058961	0.500000	0.866025	0.000000
0.681818	1.338403	-2.058961	-0.500000	-0.866025	0.000000
0.893939	1.215935	-2.058961	-0.500000	-0.866025	0.000000
1.166667	1.058475	-2.058961	-0.500000	-0.866025	0.000000
0.439394	1.478367	-2.058961	-0.500000	-0.866025	0.000000
0.666667	1.347151	-2.058961	-0.500000	-0.866025	0.000000
0.606061	1.382142	-2.058961	-0.500000	-0.866025	0.000000
0.727273	1.312160	-2.058961	-0.500000	-0.866025	0.000000
0.742424	1.303412	-2.058961	-0.500000	-0.866025	0.000000
1.121212	1.084719	-2.058961	-0.500000	-0.866025	0.000000
-0.833333	-1.250926	-2.058961	0.500000	0.866025	0.000000
0.590909	1.390889	-2.058961	-0.500000	-0.866025	0.000000
-0.287879	-1.565844	-2.058961	0.500000	0.866025	0.000000
-0.303030	-1.557096	-2.058961	0.500000	0.866025	0.000000
0.515152	1.434628	-2.058961	-0.500000	-0.866025	0.000000
-0.484848	-1.452123	-2.058961	0.500000	0.866025	0.000000
-0.318182	-1.548348	-2.058961	0.500000	0.866025	0.000000
-0.500000	-1.443376	-2.058961	0.500000	0.866025	0.000000
0.651515	1.355898	-2.058961	-0.500000	-0.866025	0.000000
-0.333333	-1.539601	-2.058961	0.500000	0.866025	0.000000
-0.227273	-1.600835	-2.058961	0.500000	0.866025	0.000000
-0.348485	-1.530853	-2.058961	0.500000	0.866025	0.000000
-0.515152	-1.434628	-2.058961	0.500000	0.866025	0.000000
-0.530303	-1.425880	-2.058961	0.500000	0.866025	0.000000
-0.545455	-1.417132	-2.058961	0.500000	0.866025	0.000000
0.575758	1.399637	-2.058961	-0.500000	-0.866025	0.000000
-0.363636	-1.522105	-2.058961	0.500000	0.866025	0.000000
-0.378788	-1.513358	-2.058961	0.500000	0.866025	0.000000
0.909091	1.207187	-2.058961	-0.500000	-0.866025	0.000000
-0.393939	-1.504610	-2.058961	0.500000	0.866025	0.000000
-0.409091	-1.495862	-2.058961	0.500000	0.866025	0.000000
-0.272727	-1.574592	-2.058961	0.500000	0.866025	0.000000
-0.424242	-1.487114	-2.058961	0.500000	0.866025	0.000000
-0.257576	-1.583339	-2.058961	0.500000	0.866025	0.000000
-0.439394	-1.478367	-2.058961	0.500000	0.866025	0.000000
0.484848	1.452123	-2.058961	-0.500000	-0.866025	0.000000
-0.454545	-1.469619	-2.058961	0.500000	0.866025	0.000000
-0.242424	-1.592087	-2.058961	0.500000	0.866025	0.000000
-0.469697	-1.460871	-2.058961	0.500000	0.866025	0.000000
1.500000	0.636643	-2.058860	-1.000000	0.000000	0.000000
1.500000	-0.113721	-2.058860	-1.000000	0.000000	0.000000
1.500000	-0.096225	-2.058860	-1.000000	0.000000	0.000000
1.500000	-0.078730	-2.058860	-1.000000	0.000000	0.000000
1.500000	-0.061234	-2.058860	-1.000000	0.000000	0.000000
1.500000	-0.043739	-2.058860	-1.000000	0.000000	0.000000
1.500000	-0.026243	-2.058860	-1.000000	0.000000	0.000000
1.500000	-0.008748	-2.058860	-1.000000	0.000000	0.000000
1.500000	0.008748	-2.058860	-1.000000	0.000000	0.000000
1.500000	0.026243	-2.058860	-1.000000	0.000000	0.000000
1.500000	0.043739	-2.058860	-1.000000	0.000000	0.000000
1.500000	0.061234	-2.058860	-1.000000	0.000000	0.000000
1.500000	0.078730	-2.058860	-1.000000	0.000000	0.000000
1.500000	0.096225	-2.058860	-1.000000	0.000000	0.000000
1.500000	0.113721	-2.058860	-1.000000	0.000000	0.000000
1.500000	0.131216	-2.058860	-1.000000	0.000000	0.000000
1.500000	0.148711	-2.058860	-1.000000	0.000000	0.000000
1.500000	0.166207	-2.058860	-1.000000	0.000000	0.000000
1.500000	0.183702	-2.058860	-1.000000	0.000000	0.000000
1.500000	0.201198	-2.058860	-1.000000	0.000000	0.000000
1.500000	0.218693	-2.058860	-1.000000	0.000000	0.000000
1.500000	0.236189	-2.058860	-1.000000	0.000000	0.000000
1.500000	0.253684	-2.058860	-1.000000	0.000000	0.000000
1.500000	0.271180	-2.058860	-1.000000	0.000000	0.000000
1.500000	0.288675	-2.058860	-1.000000	0.000000	0.000000
1.500000	0.306171	-2.058860	-1.000000	0.000000	0.000000
1.500000	0.323666	-2.058860	-1.000000	0.000000	0.000000
1.500000	0.341162	-2.058860	-1.000000	0.000000	0.000000
1.500000	0.358657	-2.058860	-1.000000	0.000000	0.000000
1.500000	0.376152	-2.058860	-1.000000	0.000000	0.000000
1.500000	0.393648	-2.058860	-1.000000	0.000000	0.000000
1.500000	0.411143	-2.058860	-1.000000	0.000000	0.000000
1.500000	-0.498621	-2.058860	-1.000000	0.000000	0.000000
1.500000	0.428639	-2.058860	-1.000000	0.000000	0.000000
1.500000	0.446134	-2.058860	-1.000000	0.000000	0.000000
1.500000	0.463630	-2.058860	-1.000000	0.000000	0.000000
1.500000	0.481125	-2.058860	-1.000000	0.000000	0.000000
1.500000	0.498621	-2.058860	-1.000000	0.000000	0.000000
1.500000	0.516116	-2.058860	-1.000000	0.000000	0.000000
1.500000	0.533612	-2.058860	-1.000000	0.000000	0.000000
1.500000	0.551107	-2.058860	-1.000000	0.000000	0.000000
1.500000	0.568603	-2.058860	-1.000000	0.000000	0.000000
1.500000	0.586098	-2.058860	-1.000000	0.000000	0.000000
1.500000	0.603593	-2.058860	-1.000000	0.000000	0.000000
1.500000	-0.306171	-2.058860	-1.000000	0.000000	0.000000
1.500000	-0.323666	-2.058860	-1.000000	0.000000	0.000000
1.500000	-0.341162	-2.058860	-1.000000	0.000000	0.000000
1.500000	-0.358657	-2.058860	-1.000000	0.000000	0.000000
1.500000	-0.376152	-2.058860	-1.000000	0.000000	0.000000
1.500000	-0.393648	-2.058860	-1.000000	0.000000	0.000000
1.500000	-0.411143	-2.058860	-1.000000	0.000000	0.000000
1.500000	-0.428639	-2.058860	-1.000000	0.000000	0.000000
1.500000	-0.446134	-2.058860	-1.000000	0.000000	0.000000
1.500000	-0.463630	-2.058860	-1.000000	0.000000	0.000000
1.500000	-0.603593	-2.058860	-1.000000	0.000000	0.000000
1.500000	-0.481125	-2.058860	-1.000000	0.000000	0.000000
1.500000	-0.586098	-2.058860	-1.000000	0.000000	0.000000
1.500000	-0.568603	-2.058860	-1.000000	0.000000	0.000000
1.500000	-0.551107	-2.058860	-1.000000	0.000000	0.000000
1.500000	-0.533612	-2.058860	-1.000000	0.000000	0.000000
1.500000	-0.516116	-2.058860	-1.000000	0.000000	0.000000
1.500000	0.621089	-2.058860	-1.000000	0.000000	0.000000
1.500000	-0.621089	-2.058860	-1.000000	0.000000	0.000000
1.500000	-0.636701	-2.058860	-1.000000	0.000000	0.000000
1.500000	-0.288675	-2.058860	-1.000000	0.000000	0.000000
1.500000	-0.271180	-2.058860	-1.000000	0.000000	0.000000
1.500000	-0.253684	-2.058860	-1.000000	0.000000	0.000000
1.500000	-0.236189	-2.058860	-1.000000	0.000000	0.000000
1.500000	-0.218693	-2.058860	-1.000000	0.000000	0.000000
1.500000	-0.201198	-2.058860	-1.000000	0.000000	0.000000
1.500000	-0.183702	-2.058860	-1.000000	0.000000	0.000000
1.500000	-0.166207	-2.058860	-1.000000	0.000000	0.000000
1.500000	-0.148711	-2.058860	-1.000000	0.000000	0.000000
1.500000	-0.131216	-2.058860	-1.000000	0.000000	0.000000
-1.500000	0.393648	-2.058815	1.000000	0.000000	0.000000
-1.500000	0.376152	-2.058815	1.000000	0.000000	0.000000
-1.500000	0.358657	-2.058815	1.000000	0.000000	0.000000
-1.500000	0.341162	-2.058815	1.000000	0.000000	0.000000
-1.500000	0.323666	-2.058815	1.000000	0.000000	0.000000
-1.500000	0.306171	-2.058815	1.000000	0.000000	0.000000
-1.500000	0.288675	-2.058815	1.000000	0.000000	0.000000
-1.500000	0.271180	-2.058815	1.000000	0.000000	0.000000
-1.500000	0.253684	-2.058815	1.000000	0.000000	0.000000
-1.500000	0.236189	-2.058815	1.000000	0.000000	0.000000
-1.500000	0.218693	-2.058815	1.000000	0.000000	0.000000
-1.500000	0.201198	-2.058815	1.000000	0.000000	0.000000
-1.500000	0.183702	-2.058815	1.000000	0.000000	0.000000
-1.500000	0.166207	-2.058815	1.000000	0.000000	0.000000
-1.500000	0.148711	-2.058815	1.000000	0.000000	0.000000
-1.500000	0.131216	-2.058815	1.000000	0.000000	0.000000
-1.500000	0.113721	-2.058815	1.000000	0.000000	0.000000
-1.500000	0.096225	-2.058815	1.000000	0.000000	0.000000
-1.500000	0.078730	-2.058815	1.000000	0.000000	0.000000
-1.500000	0.061234	-2.058815	1.000000	0.000000	0.000000
-1.500000	0.043739	-2.058815	1.000000	0.000000	0.000000
-1.500000	0.026243	-2.058815	1.000000	0.000000	0.000000
-1.500000	0.008748	-2.058815	1.000000	0.000000	0.000000
-1.500000	-0.008748	-2.058815	1.000000	0.000000	0.000000
-1.500000	-0.026243	-2.058815	1.000000	0.000000	0.000000
-1.500000	-0.043739	-2.058815	1.000000	0.000000	0.000000
-1.500000	-0.061234	-2.058815	1.000000	0.000000	0.000000
-1.500000	-0.078730	-2.058815	1.000000	0.000000	0.000000
-1.500000	-0.096225	-2.058815	1.000000	0.000000	0.000000
-1.500000	-0.113721	-2.058815	1.000000	0.000000	0.000000
-1.500000	-0.131216	-2.058815	1.000000	0.000000	0.000000
-1.500000	-0.148711	-2.058815	1.000000	0.000000	0.000000
-1.500000	-0.166207	-2.058815	1.000000	0.000000	0.000000
-1.500000	-0.183702	-2.058815	1.000000	0.000000	0.000000
-1.500000	-0.201198	-2.058815	1.000000	0.000000	0.000000
-1.500000	-0.218693	-2.058815	1.000000	0.000000	0.000000
-1.500000	-0.236189	-2.058815	1.000000	0.000000	0.000000
-1.500000	-0.253684	-2.058815	1.000000	0.000000	0.000000
-1.500000	-0.271180	-2.058815	1.000000	0.000000	0.000000
-1.500000	-0.288675	-2.058815	1.000000	0.000000	0.000000
-1.500000	-0.306171	-2.058815	1.000000	0.000000	0.000000
-1.500000	-0.323666	-2.058815	1.000000	0.000000	0.000000
-1.500000	-0.341162	-2.058815	1.000000	0.000000	0.000000
-1.500000	-0.358657	-2.058815	1.000000	0.000000	0.000000
-1.500000	-0.376152	-2.058815	1.000000	0.000000	0.000000
-1.500000	-0.393648	-2.058815	1.000000	0.000000	0.000000
-1.500000	-0.411143	-2.058815	1.000000	0.000000	0.000000
-1.500000	-0.428639	-2.058815	1.000000	0.000000	0.000000
-1.500000	0.411143	-2.058815	1.000000	0.000000	0.000000
-1.500000	-0.551107	-2.058815	1.000000	0.000000	0.000000
-1.500000	-0.446134	-2.058815	1.000000	0.000000	0.000000
-1.500000	0.636908	-2.058815	1.000000	0.000000	0.000000
-1.500000	-0.463630	-2.058815	1.000000	0.000000	0.000000
-1.500000	0.428639	-2.058815	1.000000	0.000000	0.000000
-1.500000	0.446134	-2.058815	1.000000	0.000000	0.000000
-1.500000	0.463630	-2.058815	1.000000	0.000000	0.000000
-1.500000	0.621089	-2.058815	1.000000	0.000000	0.000000
-1.500000	0.603593	-2.058815	1.000000	0.000000	0.000000
-1.500000	0.481125	-2.058815	1.000000	0.000000	0.000000
-1.500000	0.498621	-2.058815	1.000000	0.000000	0.000000
-1.500000	-0.481125	-2.058815	1.000000	0.000000	0.000000
-1.500000	-0.498621	-2.058815	1.000000	0.000000	0.000000
-1.500000	-0.516116	-2.058815	1.000000	0.000000	0.000000
-1.500000	-0.533612	-2.058815	1.000000	0.000000	0.000000
-1.500000	0.586098	-2.058815	1.000000	0.000000	0.000000
-1.500000	0.568603	-2.058815	1.000000	0.000000	0.000000
-1.500000	-0.568603	-2.058815	1.000000	0.000000	0.000000
-1.500000	-0.586098	-2.058815	1.000000	0.000000	0.000000
-1.500000	-0.603593	-2.058815	1.000000	0.000000	0.000000
-1.500000	-0.621089	-2.058815	1.000000	0.000000	0.000000
-1.500000	0.551107	-2.058815	1.000000	0.000000	0.000000
-1.500000	0.516116	-2.058815	1.000000	0.000000	0.000000
-1.500000	0.533612	-2.058815	1.000000	0.000000	0.000000
-1.500000	-0.636837	-2.058815	1.000000	0.000000	0.000000
-1.500000	0.638584	-2.058439	1.000000	0.000000	0.000000
1.500000	-0.638584	-2.058438	-1.000000	0.000000	0.000000
0.196970	-1.618330	-2.058437	-0.500000	0.866025	0.000000
-1.303030	-0.979746	-2.058437	0.500000	0.866025	0.000000
-0.196970	1.618330	-2.058437	0.500000	-0.866025	0.000000
1.303030	0.979746	-2.058437	-0.500000	-0.866025	0.000000
-0.196970	-1.618330	-2.058427	0.500000	0.866025	0.000000
0.196970	1.618330	-2.058427	-0.500000	-0.866025	0.000000
-1.303030	0.979746	-2.058427	0.500000	-0.866025	0.000000
1.303030	-0.979746	-2.058427	-0.500000	0.866025	0.000000
1.500000	0.638584	-2.058426	-1.000000	0.000000	0.000000
-1.500000	-0.638584	-2.058425	1.000000	0.000000	0.000000
-0.189790	-1.622475	-2.056577	0.500000	0.866025	0.000000
-1.310210	0.975601	-2.056577	0.500000	-0.866025	0.000000
0.189790	1.622475	-2.056577	-0.500000	-0.866025	0.000000
1.310210	-0.975601	-2.056577	-0.500000	0.866025	0.000000
1.500000	0.646884	-2.056575	-1.000000	0.000000	0.000000
-1.500000	-0.646904	-2.056568	1.000000	0.000000	0.000000
-1.500000	0.649191	-2.056064	1.000000	0.000000	0.000000
1.500000	-0.649249	-2.056049	-1.000000	0.000000	0.000000
0.187659	-1.623706	-2.056029	-0.500000	0.866025	0.000000
-0.187659	1.623706	-2.056029	0.500000	-0.866025	0.000000
1.312341	0.974371	-2.056029	-0.500000	-0.866025	0.000000
-1.312341	-0.974371	-2.056029	0.500000	0.866025	0.000000
-1.500000	0.656080	-2.054473	1.000000	0.000000	0.000000
1.500000	-0.656080	-2.054472	-1.000000	0.000000	0.000000
0.181818	-1.627078	-2.054471	-0.500000	0.866025	0.000000
-1.318182	-0.970998	-2.054471	0.500000	0.866025	0.000000
1.318182	0.970998	-2.054471	-0.500000	-0.866025	0.000000
-0.181818	1.627078	-2.054471	0.500000	-0.866025	0.000000
-0.181818	-1.627078	-2.054458	0.500000	0.866025	0.000000
0.181818	1.627078	-2.054458	-0.500000	-0.866025	0.000000
-1.318182	0.970998	-2.054458	0.500000	-0.866025	0.000000
1.318182	-0.970998	-2.054458	-0.500000	0.866025	0.000000
1.500000	0.656080	-2.054458	-1.000000	0.000000	0.000000
-1.500000	-0.656080	-2.054456	1.000000	0.000000	0.000000
-0.169221	-1.634351	-2.051110	0.500000	0.866025	0.000000
-1.330779	0.963725	-2.051110	0.500000	-0.866025	0.000000
0.169221	1.634351	-2.051110	-0.500000	-0.866025	0.000000
1.330779	-0.963725	-2.051110	-0.500000	0.866025	0.000000
1.500000	0.670635	-2.051108	-1.000000	0.000000	0.000000
-1.500000	-0.670654	-2.051102	1.000000	0.000000	0.000000
-1.500000	0.672845	-2.050601	1.000000	0.000000	0.000000
1.500000	-0.672903	-2.050587	-1.000000	0.000000	0.000000
0.167174	-1.635533	-2.050566	-0.500000	0.866025	0.000000
-0.167174	1.635533	-2.050566	0.500000	-0.866025	0.000000
1.332826	0.962544	-2.050566	-0.500000	-0.866025	0.000000
-1.332826	-0.962544	-2.050566	0.500000	0.866025	0.000000
-1.500000	0.673575	-2.050428	1.000000	0.000000	0.000000
1.500000	-0.673575	-2.050427	-1.000000	0.000000	0.000000
-1.333333	-0.962250	-2.050426	0.500000	0.866025	0.000000
0.166667	-1.635826	-2.050426	-0.500000	0.866025	0.000000
1.333333	0.962250	-2.050426	-0.500000	-0.866025	0.000000
-0.166667	1.635826	-2.050426	0.500000	-0.866025	0.000000
-1.333333	0.962250	-2.050411	0.500000	-0.866025	0.000000
-0.166667	-1.635826	-2.050411	0.500000	0.866025	0.000000
0.166667	1.635826	-2.050411	-0.500000	-0.866025	0.000000
1.333333	-0.962250	-2.050411	-0.500000	0.866025	0.000000
1.500000	0.673575	-2.050411	-1.000000	0.000000	0.000000
-1.500000	-0.673575	-2.050409	1.000000	0.000000	0.000000
-1.500000	0.691071	-2.046266	1.000000	0.000000	0.000000
1.500000	-0.691071	-2.046265	-1.000000	0.000000	0.000000
-1.348485	-0.953503	-2.046264	0.500000	0.866025	0.000000
0.151515	-1.644573	-2.046264	-0.500000	0.866025	0.000000
-0.151515	1.644573	-2.046264	0.500000	-0.866025	0.000000
1.348485	0.953503	-2.046264	-0.500000	-0.866025	0.000000
0.151515	1.644573	-2.046262	-0.500000	-0.866025	0.000000
-0.151515	-1.644573	-2.046262	0.500000	0.866025	0.000000
-1.348485	0.953503	-2.046262	0.500000	-0.866025	0.000000
1.348485	-0.953503	-2.046262	-0.500000	0.866025	0.000000
1.500000	0.691071	-2.046261	-1.000000	0.000000	0.000000
-1.500000	-0.691071	-2.046260	1.000000	0.000000	0.000000
-0.148522	-1.646301	-2.045442	0.500000	0.866025	0.000000
-1.351478	0.951775	-2.045442	0.500000	-0.866025	0.000000
0.148522	1.646301	-2.045442	-0.500000	-0.866025	0.000000
1.351478	-0.951775	-2.045442	-0.500000	0.866025	0.000000
1.500000	0.694534	-2.045440	-1.000000	0.000000	0.000000
-1.500000	-0.694552	-2.045434	1.000000	0.000000	0.000000
-1.500000	0.696649	-2.044939	1.000000	0.000000	0.000000
1.500000	-0.696705	-2.044924	-1.000000	0.000000	0.000000
0.146561	-1.647434	-2.044903	-0.500000	0.866025	0.000000
-0.146561	1.647434	-2.044903	0.500000	-0.866025	0.000000
1.353439	0.950643	-2.044903	-0.500000	-0.866025	0.000000
-1.353439	-0.950643	-2.044903	0.500000	0.866025	0.000000
-1.500000	0.708566	-2.042021	1.000000	0.000000	0.000000
1.500000	-0.708566	-2.042020	-1.000000	0.000000	0.000000
-1.363636	-0.944755	-2.042020	0.500000	0.866025	0.000000
0.136364	-1.653321	-2.042020	-0.500000	0.866025	0.000000
-0.136364	1.653321	-2.042020	0.500000	-0.866025	0.000000
1.363636	0.944755	-2.042020	-0.500000	-0.866025	0.000000
0.136364	1.653321	-2.042014	-0.500000	-0.866025	0.000000
-0.136364	-1.653321	-2.042014	0.500000	0.866025	0.000000
-1.363636	0.944755	-2.042014	0.500000	-0.866025	0.000000
1.363636	-0.944755	-2.042014	-0.500000	0.866025	0.000000
1.500000	0.708566	-2.042014	-1.000000	0.000000	0.000000
-1.500000	-0.708566	-2.042013	1.000000	0.000000	0.000000
0.134042	-1.654662	-2.041363	-0.500000	0.866025	0.000000
1.196970	-1.040980	-2.041363	-0.500000	0.866025	0.000000
0.833333	-1.250926	-2.041363	-0.500000	0.866025	0.000000
0.984848	-1.163448	-2.041363	-0.500000	0.866025	0.000000
1.318182	-0.970998	-2.041363	-0.500000	0.866025	0.000000
1.090909	-1.102214	-2.041363	-0.500000	0.866025	0.000000
0.151515	-1.644573	-2.041363	-0.500000	0.866025	0.000000
1.212121	-1.032232	-2.041363	-0.500000	0.866025	0.000000
0.636364	-1.364646	-2.041363	-0.500000	0.866025	0.000000
0.515152	-1.434628	-2.041363	-0.500000	0.866025	0.000000
1.015152	-1.145953	-2.041363	-0.500000	0.866025	0.000000
0.378788	-1.513358	-2.041363	-0.500000	0.866025	0.000000
0.560606	-1.408385	-2.041363	-0.500000	0.866025	0.000000
0.318182	-1.548348	-2.041363	-0.500000	0.866025	0.000000
1.303030	-0.979746	-2.041363	-0.500000	0.866025	0.000000
0.454545	-1.469619	-2.041363	-0.500000	0.866025	0.000000
0.287879	-1.565844	-2.041363	-0.500000	0.866025	0.000000
0.439394	-1.478367	-2.041363	-0.500000	0.866025	0.000000
0.681818	-1.338403	-2.041363	-0.500000	0.866025	0.000000
0.575758	-1.399637	-2.041363	-0.500000	0.866025	0.000000
1.365946	-0.943422	-2.041363	-0.500000	0.866025	0.000000
1.106061	-1.093466	-2.041363	-0.500000	0.866025	0.000000
0.409091	-1.495862	-2.041363	-0.500000	0.866025	0.000000
1.121212	-1.084719	-2.041363	-0.500000	0.866025	0.000000
0.272727	-1.574592	-2.041363	-0.500000	0.866025	0.000000
0.303030	-1.557096	-2.041363	-0.500000	0.866025	0.000000
0.848485	-1.242178	-2.041363	-0.500000	0.866025	0.000000
1.075758	-1.110962	-2.041363	-0.500000	0.866025	0.000000
0.348485	-1.530853	-2.041363	-0.500000	0.866025	0.000000
0.863636	-1.233430	-2.041363	-0.500000	0.866025	0.000000
0.424242	-1.487114	-2.041363	-0.500000	0.866025	0.000000
1.242424	-1.014737	-2.041363	-0.500000	0.866025	0.000000
0.606061	-1.382142	-2.041363	-0.500000	0.866025	0.000000
0.803030	-1.268421	-2.041363	-0.500000	0.866025	0.000000
0.242424	-1.592087	-2.041363	-0.500000	0.866025	0.000000
1.363636	-0.944755	-2.041363	-0.500000	0.866025	0.000000
1.348485	-0.953503	-2.041363	-0.500000	0.866025	0.000000
1.045455	-1.128457	-2.041363	-0.500000	0.866025	0.000000
0.787879	-1.277169	-2.041363	-0.500000	0.866025	0.000000
0.621212	-1.373394	-2.041363	-0.500000	0.866025	0.000000
0.742424	-1.303412	-2.041363	-0.500000	0.866025	0.000000
0.166667	-1.635826	-2.041363	-0.500000	0.866025	0.000000
1.136364	-1.075971	-2.041363	-0.500000	0.866025	0.000000
0.530303	-1.425880	-2.041363	-0.500000	0.866025	0.000000
1.060606	-1.119710	-2.041363	-0.500000	0.866025	0.000000
0.469697	-1.460871	-2.041363	-0.500000	0.866025	0.000000
0.878788	-1.224682	-2.041363	-0.500000	0.866025	0.000000
1.257576	-1.005989	-2.041363	-0.500000	0.866025	0.000000
0.500000	-1.443376	-2.041363	-0.500000	0.866025	0.000000
0.227273	-1.600835	-2.041363	-0.500000	0.866025	0.000000
0.393939	-1.504610	-2.041363	-0.500000	0.866025	0.000000
0.909091	-1.207187	-2.041363	-0.500000	0.866025	0.000000
1.272727	-0.997241	-2.041363	-0.500000	0.866025	0.000000
0.727273	-1.312160	-2.041363	-0.500000	0.866025	0.000000
0.696970	-1.329655	-2.041363	-0.500000	0.866025	0.000000
0.545455	-1.417132	-2.041363	-0.500000	0.866025	0.000000
0.969697	-1.172196	-2.041363	-0.500000	0.866025	0.000000
1.151515	-1.067223	-2.041363	-0.500000	0.866025	0.000000
0.954545	-1.180944	-2.041363	-0.500000	0.866025	0.000000
0.651515	-1.355898	-2.041363	-0.500000	0.866025	0.000000
0.939394	-1.189691	-2.041363	-0.500000	0.866025	0.000000
0.363636	-1.522105	-2.041363	-0.500000	0.866025	0.000000
1.227273	-1.023485	-2.041363	-0.500000	0.866025	0.000000
0.924242	-1.198439	-2.041363	-0.500000	0.866025	0.000000
0.257576	-1.583339	-2.041363	-0.500000	0.866025	0.000000
0.666667	-1.347151	-2.041363	-0.500000	0.866025	0.000000
1.287879	-0.988494	-2.041363	-0.500000	0.866025	0.000000
0.212121	-1.609583	-2.041363	-0.500000	0.866025	0.000000
0.712121	-1.320907	-2.041363	-0.500000	0.866025	0.000000
0.590909	-1.390889	-2.041363	-0.500000	0.866025	0.000000
0.181818	-1.627078	-2.041363	-0.500000	0.866025	0.000000
0.136364	-1.653321	-2.041363	-0.500000	0.866025	0.000000
0.772727	-1.285917	-2.041363	-0.500000	0.866025	0.000000
0.893939	-1.215935	-2.041363	-0.500000	0.866025	0.000000
1.166667	-1.058475	-2.041363	-0.500000	0.866025	0.000000
1.333333	-0.962250	-2.041363	-0.500000	0.866025	0.000000
0.818182	-1.259673	-2.041363	-0.500000	0.866025	0.000000
0.333333	-1.539601	-2.041363	-0.500000	0.866025	0.000000
1.181818	-1.049728	-2.041363	-0.500000	0.866025	0.000000
0.196970	-1.618330	-2.041363	-0.500000	0.866025	0.000000
1.030303	-1.137205	-2.041363	-0.500000	0.866025	0.000000
0.757576	-1.294664	-2.041363	-0.500000	0.866025	0.000000
1.000000	-1.154701	-2.041363	-0.500000	0.866025	0.000000
0.484848	-1.452123	-2.041363	-0.500000	0.866025	0.000000
-0.439394	1.478367	-2.041363	0.500000	-0.866025	0.000000
-0.424242	1.487114	-2.041363	0.500000	-0.866025	0.000000
-0.409091	1.495862	-2.041363	0.500000	-0.866025	0.000000
-0.348485	1.530853	-2.041363	0.500000	-0.866025	0.000000
-0.363636	1.522105	-2.041363	0.500000	-0.866025	0.000000
-0.378788	1.513358	-2.041363	0.500000	-0.866025	0.000000
-0.393939	1.504610	-2.041363	0.500000	-0.866025	0.000000
-1.060606	1.119710	-2.041363	0.500000	-0.866025	0.000000
-1.106061	1.093466	-2.041363	0.500000	-0.866025	0.000000
-1.121212	1.084719	-2.041363	0.500000	-0.866025	0.000000
-1.136364	1.075971	-2.041363	0.500000	-0.866025	0.000000
-0.954545	1.180944	-2.041363	0.500000	-0.866025	0.000000
-1.318182	0.970998	-2.041363	0.500000	-0.866025	0.000000
-1.303030	0.979746	-2.041363	0.500000	-0.866025	0.000000
-1.045455	1.128457	-2.041363	0.500000	-0.866025	0.000000
-1.151515	1.067223	-2.041363	0.500000	-0.866025	0.000000
-1.166667	1.058475	-2.041363	0.500000	-0.866025	0.000000
-1.030303	1.137205	-2.041363	0.500000	-0.866025	0.000000
-1.015152	1.145953	-2.041363	0.500000	-0.866025	0.000000
-1.181818	1.049728	-2.041363	0.500000	-0.866025	0.000000
-1.000000	1.154701	-2.041363	0.500000	-0.866025	0.000000
-0.984848	1.163448	-2.041363	0.500000	-0.866025	0.000000
-0.969697	1.172196	-2.041363	0.500000	-0.866025	0.000000
-0.939394	1.189691	-2.041363	0.500000	-0.866025	0.000000
-0.924242	1.198439	-2.041363	0.500000	-0.866025	0.000000
-0.909091	1.207187	-2.041363	0.500000	-0.866025	0.000000
-0.893939	1.215935	-2.041363	0.500000	-0.866025	0.000000
-0.878788	1.224682	-2.041363	0.500000	-0.866025	0.000000
-0.863636	1.233430	-2.041363	0.500000	-0.866025	0.000000
-0.848485	1.242178	-2.041363	0.500000	-0.866025	0.000000
-0.134042	1.654662	-2.041363	0.500000	-0.866025	0.000000
-1.196970	1.040980	-2.041363	0.500000	-0.866025	0.000000
-1.212121	1.032232	-2.041363	0.500000	-0.866025	0.000000
-1.075758	1.110962	-2.041363	0.500000	-0.866025	0.000000
-1.090909	1.102214	-2.041363	0.500000	-0.866025	0.000000
-1.227273	1.023485	-2.041363	0.500000	-0.866025	0.000000
-1.242424	1.014737	-2.041363	0.500000	-0.866025	0.000000
-1.257576	1.005989	-2.041363	0.500000	-0.866025	0.000000
-0.833333	1.250926	-2.041363	0.500000	-0.866025	0.000000
-1.333333	0.962250	-2.041363	0.500000	-0.866025	0.000000
-1.272727	0.997241	-2.041363	0.500000	-0.866025	0.000000
-0.712121	1.320907	-2.041363	0.500000	-0.866025	0.000000
-0.818182	1.259673	-2.041363	0.500000	-0.866025	0.000000
-1.287879	0.988494	-2.041363	0.500000	-0.866025	0.000000
-1.363636	0.944755	-2.041363	0.500000	-0.866025	0.000000
-0.803030	1.268421	-2.041363	0.500000	-0.866025	0.000000
-0.787879	1.277169	-2.041363	0.500000	-0.866025	0.000000
-0.772727	1.285917	-2.041363	0.500000	-0.866025	0.000000
-0.757576	1.294664	-2.041363	0.500000	-0.866025	0.000000
-0.742424	1.303412	-2.041363	0.500000	-0.866025	0.000000
-0.727273	1.312160	-2.041363	0.500000	-0.866025	0.000000
-0.136364	1.653321	-2.041363	0.500000	-0.866025	0.000000
-0.151515	1.644573	-2.041363	0.500000	-0.866025	0.000000
-0.166667	1.635826	-2.041363	0.500000	-0.866025	0.000000
-0.181818	1.627078	-2.041363	0.500000	-0.866025	0.000000
-0.196970	1.618330	-2.041363	0.500000	-0.866025	0.000000
-0.696970	1.329655	-2.041363	0.500000	-0.866025	0.000000
-1.348485	0.953503	-2.041363	0.500000	-0.866025	0.000000
-0.212121	1.609583	-2.041363	0.500000	-0.866025	0.000000
-0.227273	1.600835	-2.041363	0.500000	-0.866025	0.000000
-0.681818	1.338403	-2.041363	0.500000	-0.866025	0.000000
-0.242424	1.592087	-2.041363	0.500000	-0.866025	0.000000
-0.257576	1.583339	-2.041363	0.500000	-0.866025	0.000000
-0.666667	1.347151	-2.041363	0.500000	-0.866025	0.000000
-0.651515	1.355898	-2.041363	0.500000	-0.866025	0.000000
-0.636364	1.364646	-2.041363	0.500000	-0.866025	0.000000
-0.621212	1.373394	-2.041363	0.500000	-0.866025	0.000000
-0.606061	1.382142	-2.041363	0.500000	-0.866025	0.000000
-0.590909	1.390889	-2.041363	0.500000	-0.866025	0.000000
-0.575758	1.399637	-2.041363	0.500000	-0.866025	0.000000
-0.560606	1.408385	-2.041363	0.500000	-0.866025	0.000000
-1.365946	0.943422	-2.041363	0.500000	-0.866025	0.000000
-0.545455	1.417132	-2.041363	0.500000	-0.866025	0.000000
-0.530303	1.425880	-2.041363	0.500000	-0.866025	0.000000
-0.272727	1.574592	-2.041363	0.500000	-0.866025	0.000000
-0.515152	1.434628	-2.041363	0.500000	-0.866025	0.000000
-0.500000	1.443376	-2.041363	0.500000	-0.866025	0.000000
-0.287879	1.565844	-2.041363	0.500000	-0.866025	0.000000
-0.484848	1.452123	-2.041363	0.500000	-0.866025	0.000000
-0.469697	1.460871	-2.041363	0.500000	-0.866025	0.000000
-0.454545	1.469619	-2.041363	0.500000	-0.866025	0.000000
-0.303030	1.557096	-2.041363	0.500000	-0.866025	0.000000
-0.318182	1.548348	-2.041363	0.500000	-0.866025	0.000000
-0.333333	1.539601	-2.041363	0.500000	-0.866025	0.000000
1.365958	0.943414	-2.041363	-0.500000	-0.866025	0.000000
-1.365958	-0.943414	-2.041363	0.500000	0.866025	0.000000
0.818182	1.259673	-2.041363	-0.500000	-0.866025	0.000000
0.984848	1.163448	-2.041363	-0.500000	-0.866025	0.000000
0.257576	1.583339	-2.041363	-0.500000	-0.866025	0.000000
0.803030	1.268421	-2.041363	-0.500000	-0.866025	0.000000
0.636364	1.364646	-2.041363	-0.500000	-0.866025	0.000000
0.878788	1.224682	-2.041363	-0.500000	-0.866025	0.000000
0.681818	1.338403	-2.041363	-0.500000	-0.866025	0.000000
-0.348485	-1.530853	-2.041363	0.500000	0.866025	0.000000
0.772727	1.285917	-2.041363	-0.500000	-0.866025	0.000000
1.242424	1.014737	-2.041363	-0.500000	-0.866025	0.000000
1.166667	1.058475	-2.041363	-0.500000	-0.866025	0.000000
0.575758	1.399637	-2.041363	-0.500000	-0.866025	0.000000
0.909091	1.207187	-2.041363	-0.500000	-0.866025	0.000000
-0.333333	-1.539601	-2.041363	0.500000	0.866025	0.000000
1.303030	0.979746	-2.041363	-0.500000	-0.866025	0.000000
0.969697	1.172196	-2.041363	-0.500000	-0.866025	0.000000
1.075758	1.110962	-2.041363	-0.500000	-0.866025	0.000000
0.303030	1.557096	-2.041363	-0.500000	-0.866025	0.000000
1.106061	1.093466	-2.041363	-0.500000	-0.866025	0.000000
-0.318182	-1.548348	-2.041363	0.500000	0.866025	0.000000
-0.303030	-1.557096	-2.041363	0.500000	0.866025	0.000000
-0.287879	-1.565844	-2.041363	0.500000	0.866025	0.000000
1.151515	1.067223	-2.041363	-0.500000	-0.866025	0.000000
-0.272727	-1.574592	-2.041363	0.500000	0.866025	0.000000
0.136364	1.653321	-2.041363	-0.500000	-0.866025	0.000000
0.151515	1.644573	-2.041363	-0.500000	-0.866025	0.000000
-0.257576	-1.583339	-2.041363	0.500000	0.866025	0.000000
0.348485	1.530853	-2.041363	-0.500000	-0.866025	0.000000
0.333333	1.539601	-2.041363	-0.500000	-0.866025	0.000000
0.621212	1.373394	-2.041363	-0.500000	-0.866025	0.000000
1.060606	1.119710	-2.041363	-0.500000	-0.866025	0.000000
0.227273	1.600835	-2.041363	-0.500000	-0.866025	0.000000
1.333333	0.962250	-2.041363	-0.500000	-0.866025	0.000000
1.196970	1.040980	-2.041363	-0.500000	-0.866025	0.000000
0.863636	1.233430	-2.041363	-0.500000	-0.866025	0.000000
0.484848	1.452123	-2.041363	-0.500000	-0.866025	0.000000
0.318182	1.548348	-2.041363	-0.500000	-0.866025	0.000000
0.651515	1.355898	-2.041363	-0.500000	-0.866025	0.000000
-1.287879	-0.988494	-2.041363	0.500000	0.866025	0.000000
-0.242424	-1.592087	-2.041363	0.500000	0.866025	0.000000
0.500000	1.443376	-2.041363	-0.500000	-0.866025	0.000000
-1.272727	-0.997241	-2.041363	0.500000	0.866025	0.000000
-0.621212	-1.373394	-2.041363	0.500000	0.866025	0.000000
0.696970	1.329655	-2.041363	-0.500000	-0.866025	0.000000
0.787879	1.277169	-2.041363	-0.500000	-0.866025	0.000000
0.939394	1.189691	-2.041363	-0.500000	-0.866025	0.000000
0.924242	1.198439	-2.041363	-0.500000	-0.866025	0.000000
0.363636	1.522105	-2.041363	-0.500000	-0.866025	0.000000
1.287879	0.988494	-2.041363	-0.500000	-0.866025	0.000000
0.848485	1.242178	-2.041363	-0.500000	-0.866025	0.000000
0.272727	1.574592	-2.041363	-0.500000	-0.866025	0.000000
-1.257576	-1.005989	-2.041363	0.500000	0.866025	0.000000
1.030303	1.137205	-2.041363	-0.500000	-0.866025	0.000000
-1.303030	-0.979746	-2.041363	0.500000	0.866025	0.000000
-1.242424	-1.014737	-2.041363	0.500000	0.866025	0.000000
-0.606061	-1.382142	-2.041363	0.500000	0.866025	0.000000
-0.227273	-1.600835	-2.041363	0.500000	0.866025	0.000000
0.893939	1.215935	-2.041363	-0.500000	-0.866025	0.000000
0.712121	1.320907	-2.041363	-0.500000	-0.866025	0.000000
0.287879	1.565844	-2.041363	-0.500000	-0.866025	0.000000
0.666667	1.347151	-2.041363	-0.500000	-0.866025	0.000000
-1.227273	-1.023485	-2.041363	0.500000	0.866025	0.000000
-1.212121	-1.032232	-2.041363	0.500000	0.866025	0.000000
-1.196970	-1.040980	-2.041363	0.500000	0.866025	0.000000
-1.181818	-1.049728	-2.041363	0.500000	0.866025	0.000000
-1.166667	-1.058475	-2.041363	0.500000	0.866025	0.000000
0.424242	1.487114	-2.041363	-0.500000	-0.866025	0.000000
-1.151515	-1.067223	-2.041363	0.500000	0.866025	0.000000
-1.136364	-1.075971	-2.041363	0.500000	0.866025	0.000000
-1.121212	-1.084719	-2.041363	0.500000	0.866025	0.000000
-1.318182	-0.970998	-2.041363	0.500000	0.866025	0.000000
-1.106061	-1.093466	-2.041363	0.500000	0.866025	0.000000
-1.333333	-0.962250	-2.041363	0.500000	0.866025	0.000000
0.545455	1.417132	-2.041363	-0.500000	-0.866025	0.000000
0.393939	1.504610	-2.041363	-0.500000	-0.866025	0.000000
0.166667	1.635826	-2.041363	-0.500000	-0.866025	0.000000
-1.090909	-1.102214	-2.041363	0.500000	0.866025	0.000000
0.212121	1.609583	-2.041363	-0.500000	-0.866025	0.000000
0.727273	1.312160	-2.041363	-0.500000	-0.866025	0.000000
-1.348485	-0.953503	-2.041363	0.500000	0.866025	0.000000
1.045455	1.128457	-2.041363	-0.500000	-0.866025	0.000000
-1.075758	-1.110962	-2.041363	0.500000	0.866025	0.000000
-0.590909	-1.390889	-2.041363	0.500000	0.866025	0.000000
0.742424	1.303412	-2.041363	-0.500000	-0.866025	0.000000
-0.575758	-1.399637	-2.041363	0.500000	0.866025	0.000000
-1.363636	-0.944755	-2.041363	0.500000	0.866025	0.000000
-1.060606	-1.119710	-2.041363	0.500000	0.866025	0.000000
0.181818	1.627078	-2.041363	-0.500000	-0.866025	0.000000
0.530303	1.425880	-2.041363	-0.500000	-0.866025	0.000000
1.212121	1.032232	-2.041363	-0.500000	-0.866025	0.000000
1.121212	1.084719	-2.041363	-0.500000	-0.866025	0.000000
0.196970	1.618330	-2.041363	-0.500000	-0.866025	0.000000
0.560606	1.408385	-2.041363	-0.500000	-0.866025	0.000000
1.272727	0.997241	-2.041363	-0.500000	-0.866025	0.000000
-0.757576	-1.294664	-2.041363	0.500000	0.866025	0.000000
-0.500000	-1.443376	-2.041363	0.500000	0.866025	0.000000
0.590909	1.390889	-2.041363	-0.500000	-0.866025	0.000000
0.454545	1.469619	-2.041363	-0.500000	-0.866025	0.000000
-0.484848	-1.452123	-2.041363	0.500000	0.866025	0.000000
0.515152	1.434628	-2.041363	-0.500000	-0.866025	0.000000
1.090909	1.102214	-2.041363	-0.500000	-0.866025	0.000000
-0.469697	-1.460871	-2.041363	0.500000	0.866025	0.000000
1.000000	1.154701	-2.041363	-0.500000	-0.866025	0.000000
1.318182	0.970998	-2.041363	-0.500000	-0.866025	0.000000
0.378788	1.513358	-2.041363	-0.500000	-0.866025	0.000000
-0.454545	-1.469619	-2.041363	0.500000	0.866025	0.000000
-0.439394	-1.478367	-2.041363	0.500000	0.866025	0.000000
1.348485	0.953503	-2.041363	-0.500000	-0.866025	0.000000
0.409091	1.495862	-2.041363	-0.500000	-0.866025	0.000000
1.181818	1.049728	-2.041363	-0.500000	-0.866025	0.000000
-0.424242	-1.487114	-2.041363	0.500000	0.866025	0.000000
0.606061	1.382142	-2.041363	-0.500000	-0.866025	0.000000
0.439394	1.478367	-2.041363	-0.500000	-0.866025	0.000000
1.136364	1.075971	-2.041363	-0.500000	-0.866025	0.000000
-0.409091	-1.495862	-2.041363	0.500000	0.866025	0.000000
0.469697	1.460871	-2.041363	-0.500000	-0.866025	0.000000
-0.636364	-1.364646	-2.041363	0.500000	0.866025	0.000000
-0.651515	-1.355898	-2.041363	0.500000	0.866025	0.000000
-0.666667	-1.347151	-2.041363	0.500000	0.866025	0.000000
-0.681818	-1.338403	-2.041363	0.500000	0.866025	0.000000
-0.696970	-1.329655	-2.041363	0.500000	0.866025	0.000000
-0.712121	-1.320907	-2.041363	0.500000	0.866025	0.000000
-0.727273	-1.312160	-2.041363	0.500000	0.866025	0.000000
-0.742424	-1.303412	-2.041363	0.500000	0.866025	0.000000
-1.030303	-1.137205	-2.041363	0.500000	0.866025	0.000000
-0.772727	-1.285917	-2.041363	0.500000	0.866025	0.000000
-0.787879	-1.277169	-2.041363	0.500000	0.866025	0.000000
-0.803030	-1.268421	-2.041363	0.500000	0.866025	0.000000
-0.818182	-1.259673	-2.041363	0.500000	0.866025	0.000000
-0.833333	-1.250926	-2.041363	0.500000	0.866025	0.000000
-0.848485	-1.242178	-2.041363	0.500000	0.866025	0.000000
-0.863636	-1.233430	-2.041363	0.500000	0.866025	0.000000
-0.878788	-1.224682	-2.041363	0.500000	0.866025	0.000000
-0.393939	-1.504610	-2.041363	0.500000	0.866025	0.000000
-0.134054	-1.654654	-2.041363	0.500000	0.866025	0.000000
1.227273	1.023485	-2.041363	-0.500000	-0.866025	0.000000
-0.560606	-1.408385	-2.041363	0.500000	0.866025	0.000000
1.257576	1.005989	-2.041363	-0.500000	-0.866025	0.000000
0.242424	1.592087	-2.041363	-0.500000	-0.866025	0.000000
-0.893939	-1.215935	-2.041363	0.500000	0.866025	0.000000
-0.909091	-1.207187	-2.041363	0.500000	0.866025	0.000000
-0.924242	-1.198439	-2.041363	0.500000	0.866025	0.000000
-0.939394	-1.189691	-2.041363	0.500000	0.866025	0.000000
-0.378788	-1.513358	-2.041363	0.500000	0.866025	0.000000
-0.954545	-1.180944	-2.041363	0.500000	0.866025	0.000000
-0.969697	-1.172196	-2.041363	0.500000	0.866025	0.000000
-0.984848	-1.163448	-2.041363	0.500000	0.866025	0.000000
-0.212121	-1.609583	-2.041363	0.500000	0.866025	0.000000
-1.000000	-1.154701	-2.041363	0.500000	0.866025	0.000000
-0.196970	-1.618330	-2.041363	0.500000	0.866025	0.000000
-1.015152	-1.145953	-2.041363	0.500000	0.866025	0.000000
-0.181818	-1.627078	-2.041363	0.500000	0.866025	0.000000
-0.166667	-1.635826	-2.041363	0.500000	0.866025	0.000000
-1.045455	-1.128457	-2.041363	0.500000	0.866025	0.000000
-0.151515	-1.644573	-2.041363	0.500000	0.866025	0.000000
0.757576	1.294664	-2.041363	-0.500000	-0.866025	0.000000
-0.136364	-1.653321	-2.041363	0.500000	0.866025	0.000000
-0.545455	-1.417132	-2.041363	0.500000	0.866025	0.000000
1.363636	0.944755	-2.041363	-0.500000	-0.866025	0.000000
1.015152	1.145953	-2.041363	-0.500000	-0.866025	0.000000
-0.363636	-1.522105	-2.041363	0.500000	0.866025	0.000000
-0.530303	-1.425880	-2.041363	0.500000	0.866025	0.000000
-0.515152	-1.434628	-2.041363	0.500000	0.866025	0.000000
0.954545	1.180944	-2.041363	-0.500000	-0.866025	0.000000
0.134054	1.654654	-2.041363	-0.500000	-0.866025	0.000000
0.833333	1.250926	-2.041363	-0.500000	-0.866025	0.000000
1.500000	0.586098	-2.041262	-1.000000	0.000000	0.000000
1.500000	0.568603	-2.041262	-1.000000	0.000000	0.000000
1.500000	0.551107	-2.041262	-1.000000	0.000000	0.000000
1.500000	-0.708566	-2.041262	-1.000000	0.000000	0.000000
1.500000	0.498621	-2.041262	-1.000000	0.000000	0.000000
1.500000	0.481125	-2.041262	-1.000000	0.000000	0.000000
1.500000	0.446134	-2.041262	-1.000000	0.000000	0.000000
1.500000	0.428639	-2.041262	-1.000000	0.000000	0.000000
1.500000	0.411143	-2.041262	-1.000000	0.000000	0.000000
1.500000	0.393648	-2.041262	-1.000000	0.000000	0.000000
1.500000	0.376152	-2.041262	-1.000000	0.000000	0.000000
1.500000	0.358657	-2.041262	-1.000000	0.000000	0.000000
1.500000	0.341162	-2.041262	-1.000000	0.000000	0.000000
1.500000	0.323666	-2.041262	-1.000000	0.000000	0.000000
1.500000	0.463630	-2.041262	-1.000000	0.000000	0.000000
1.500000	0.306171	-2.041262	-1.000000	0.000000	0.000000
1.500000	0.113721	-2.041262	-1.000000	0.000000	0.000000
1.500000	0.288675	-2.041262	-1.000000	0.000000	0.000000
1.500000	0.533612	-2.041262	-1.000000	0.000000	0.000000
1.500000	0.253684	-2.041262	-1.000000	0.000000	0.000000
1.500000	0.236189	-2.041262	-1.000000	0.000000	0.000000
1.500000	0.271180	-2.041262	-1.000000	0.000000	0.000000
1.500000	-0.711661	-2.041262	-1.000000	0.000000	0.000000
1.500000	0.218693	-2.041262	-1.000000	0.000000	0.000000
1.500000	-0.551107	-2.041262	-1.000000	0.000000	0.000000
1.500000	-0.533612	-2.041262	-1.000000	0.000000	0.000000
1.500000	-0.516116	-2.041262	-1.000000	0.000000	0.000000
1.500000	-0.498621	-2.041262	-1.000000	0.000000	0.000000
1.500000	0.096225	-2.041262	-1.000000	0.000000	0.000000
1.500000	-0.481125	-2.041262	-1.000000	0.000000	0.000000
1.500000	-0.463630	-2.041262	-1.000000	0.000000	0.000000
1.500000	-0.446134	-2.041262	-1.000000	0.000000	0.000000
1.500000	-0.428639	-2.041262	-1.000000	0.000000	0.000000
1.500000	0.131216	-2.041262	-1.000000	0.000000	0.000000
1.500000	-0.411143	-2.041262	-1.000000	0.000000	0.000000
