-1.551326	17.111111	-9.102078	-0.053131	-0.948683	-0.311733
1.551326	17.111111	-9.102078	0.053131	-0.948683	-0.311733
-1.091949	17.088888	-9.101397	-0.037670	-0.948683	-0.313976
1.091949	17.088888	-9.101397	0.037670	-0.948683	-0.313976
0.037468	17.066668	-9.099923	0.001302	-0.948683	-0.316225
-0.037468	17.066668	-9.099923	-0.001302	-0.948683	-0.316225
-0.112403	17.066668	-9.099306	-0.003906	-0.948683	-0.316204
0.112403	17.066668	-9.099306	0.003906	-0.948683	-0.316204
-0.187329	17.066668	-9.098072	-0.006510	-0.948683	-0.316161
0.187329	17.066668	-9.098072	0.006510	-0.948683	-0.316161
-2.494634	17.177778	-9.097504	-0.083626	-0.948683	-0.304970
2.494634	17.177778	-9.097504	0.083626	-0.948683	-0.304970
-2.737813	17.200001	-9.096944	-0.091134	-0.948683	-0.302811
2.737813	17.200001	-9.096944	0.091134	-0.948683	-0.302811
-0.262243	17.066668	-9.096221	-0.009113	-0.948683	-0.316096
0.262243	17.066668	-9.096221	0.009113	-0.948683	-0.316096
-1.938572	17.133333	-9.095710	-0.065917	-0.948683	-0.309281
1.938572	17.133333	-9.095710	0.065917	-0.948683	-0.309281
-0.337140	17.066668	-9.093753	-0.011716	-0.948683	-0.316011
0.337140	17.066668	-9.093753	0.011716	-0.948683	-0.316011
-1.166860	17.088888	-9.092096	-0.040254	-0.948683	-0.313655
1.166860	17.088888	-9.092096	0.040254	-0.948683	-0.313655
-2.253110	17.155556	-9.091641	-0.076067	-0.948683	-0.306943
2.253110	17.155556	-9.091641	0.076067	-0.948683	-0.306943
-0.412013	17.066668	-9.090668	-0.014318	-0.948683	-0.315903
0.412013	17.066668	-9.090668	0.014318	-0.948683	-0.315903
-1.626226	17.111111	-9.088995	-0.055696	-0.948683	-0.311284
1.626226	17.111111	-9.088995	0.055696	-0.948683	-0.311284
-0.486858	17.066668	-9.086967	-0.016918	-0.948683	-0.315775
0.486858	17.066668	-9.086967	0.016918	-0.948683	-0.315775
-0.561671	17.066668	-9.082650	-0.019518	-0.948683	-0.315625
0.561671	17.066668	-9.082650	0.019518	-0.948683	-0.315625
-1.241691	17.088888	-9.082179	-0.042835	-0.948683	-0.313313
1.241691	17.088888	-9.082179	0.042835	-0.948683	-0.313313
-2.013408	17.133333	-9.079438	-0.068462	-0.948683	-0.308728
2.013408	17.133333	-9.079438	0.068462	-0.948683	-0.308728
-0.636445	17.066668	-9.077717	-0.022117	-0.948683	-0.315453
0.636445	17.066668	-9.077717	0.022117	-0.948683	-0.315453
-2.569465	17.177778	-9.076653	-0.086135	-0.948683	-0.304271
2.569465	17.177778	-9.076653	0.086135	-0.948683	-0.304271
-1.701017	17.111111	-9.075295	-0.058257	-0.948683	-0.310815
1.701017	17.111111	-9.075295	0.058257	-0.948683	-0.310815
-2.812631	17.200001	-9.074090	-0.093624	-0.948683	-0.302050
2.812631	17.200001	-9.074090	0.093624	-0.948683	-0.302050
-2.327901	17.155556	-9.072779	-0.078592	-0.948683	-0.306306
2.327901	17.155556	-9.072779	0.078592	-0.948683	-0.306306
-0.711176	17.066668	-9.072167	-0.024714	-0.948683	-0.315261
0.711176	17.066668	-9.072167	0.024714	-0.948683	-0.315261
-1.316438	17.088888	-9.071647	-0.045414	-0.948683	-0.312950
1.316438	17.088888	-9.071647	0.045414	-0.948683	-0.312950
-0.785859	17.066668	-9.066004	-0.027309	-0.948683	-0.315046
0.785859	17.066668	-9.066004	0.027309	-0.948683	-0.315046
-2.088106	17.133333	-9.062550	-0.071002	-0.948683	-0.308154
2.088106	17.133333	-9.062550	0.071002	-0.948683	-0.308154
-1.775692	17.111111	-9.060980	-0.060815	-0.948683	-0.310325
1.775692	17.111111	-9.060980	0.060815	-0.948683	-0.310325
-1.391097	17.088888	-9.060498	-0.047989	-0.948683	-0.312565
1.391097	17.088888	-9.060498	0.047989	-0.948683	-0.312565
-0.860489	17.066668	-9.059225	-0.029902	-0.948683	-0.314811
0.860489	17.066668	-9.059225	0.029902	-0.948683	-0.314811
-2.644122	17.177778	-9.055186	-0.088637	-0.948683	-0.303551
2.644122	17.177778	-9.055186	0.088637	-0.948683	-0.303551
-2.402534	17.155556	-9.053302	-0.081112	-0.948683	-0.305648
2.402534	17.155556	-9.053302	0.081112	-0.948683	-0.305648
-0.935060	17.066668	-9.051832	-0.032494	-0.948683	-0.314554
0.935060	17.066668	-9.051832	0.032494	-0.948683	-0.314554
-2.887258	17.200001	-9.050621	-0.096109	-0.948683	-0.301269
2.887258	17.200001	-9.050621	0.096109	-0.948683	-0.301269
-1.465660	17.088888	-9.048736	-0.050562	-0.948683	-0.312159
1.465660	17.088888	-9.048736	0.050562	-0.948683	-0.312159
-1.850247	17.111111	-9.046051	-0.063368	-0.948683	-0.309814
1.850247	17.111111	-9.046051	0.063368	-0.948683	-0.309814
-2.162663	17.133333	-9.045048	-0.073537	-0.948683	-0.307559
2.162663	17.133333	-9.045048	0.073537	-0.948683	-0.307559
-1.009568	17.066668	-9.043825	-0.035083	-0.948683	-0.314276
1.009568	17.066668	-9.043825	0.035083	-0.948683	-0.314276
-1.540125	17.088888	-9.036360	-0.053131	-0.948683	-0.311733
1.540125	17.088888	-9.036360	0.053131	-0.948683	-0.311733
-1.084007	17.066668	-9.035205	-0.037670	-0.948683	-0.313976
1.084007	17.066668	-9.035205	0.037670	-0.948683	-0.313976
0.037194	17.044445	-9.033257	0.001302	-0.948683	-0.316225
-0.037194	17.044445	-9.033257	-0.001302	-0.948683	-0.316225
-2.477004	17.155556	-9.033211	-0.083626	-0.948683	-0.304970
2.477004	17.155556	-9.033211	0.083626	-0.948683	-0.304970
-2.718600	17.177778	-9.033106	-0.091134	-0.948683	-0.302811
2.718600	17.177778	-9.033106	0.091134	-0.948683	-0.302811
0.111579	17.044445	-9.032644	0.003906	-0.948683	-0.316204
-0.111579	17.044445	-9.032644	-0.003906	-0.948683	-0.316204
-0.185957	17.044445	-9.031419	-0.006510	-0.948683	-0.316161
0.185957	17.044445	-9.031419	0.006510	-0.948683	-0.316161
-1.924676	17.111111	-9.030508	-0.065917	-0.948683	-0.309281
1.924676	17.111111	-9.030508	0.065917	-0.948683	-0.309281
-0.260322	17.044445	-9.029582	-0.009113	-0.948683	-0.316096
0.260322	17.044445	-9.029582	0.009113	-0.948683	-0.316096
-0.334670	17.044445	-9.027132	-0.011716	-0.948683	-0.316011
0.334670	17.044445	-9.027132	0.011716	-0.948683	-0.316011
-2.237074	17.133333	-9.026932	-0.076067	-0.948683	-0.306943
2.237074	17.133333	-9.026932	0.076067	-0.948683	-0.306943
-2.961690	17.200001	-9.026538	-0.098586	-0.948683	-0.300468
2.961690	17.200001	-9.026538	0.098586	-0.948683	-0.300468
-1.158373	17.066668	-9.025972	-0.040254	-0.948683	-0.313655
1.158373	17.066668	-9.025972	0.040254	-0.948683	-0.313655
-0.408995	17.044445	-9.024070	-0.014318	-0.948683	-0.315903
0.408995	17.044445	-9.024070	0.014318	-0.948683	-0.315903
-1.614485	17.088888	-9.023371	-0.055696	-0.948683	-0.311284
1.614485	17.088888	-9.023371	0.055696	-0.948683	-0.311284
-0.483292	17.044445	-9.020396	-0.016918	-0.948683	-0.315775
0.483292	17.044445	-9.020396	0.016918	-0.948683	-0.315775
-1.232661	17.066668	-9.016127	-0.042835	-0.948683	-0.313313
1.232661	17.066668	-9.016127	0.042835	-0.948683	-0.313313
-0.557556	17.044445	-9.016110	-0.019518	-0.948683	-0.315625
0.557556	17.044445	-9.016110	0.019518	-0.948683	-0.315625
-1.998975	17.111111	-9.014352	-0.068462	-0.948683	-0.308728
1.998975	17.111111	-9.014352	0.068462	-0.948683	-0.308728
-2.551307	17.155556	-9.012506	-0.086135	-0.948683	-0.304271
2.551307	17.155556	-9.012506	0.086135	-0.948683	-0.304271
-0.631783	17.044445	-9.011213	-0.022117	-0.948683	-0.315453
0.631783	17.044445	-9.011213	0.022117	-0.948683	-0.315453
-2.792893	17.177778	-9.010412	-0.093624	-0.948683	-0.302050
2.792893	17.177778	-9.010412	0.093624	-0.948683	-0.302050
-1.688735	17.088888	-9.009769	-0.058257	-0.948683	-0.310815
1.688735	17.088888	-9.009769	0.058257	-0.948683	-0.310815
-2.311332	17.133333	-9.008204	-0.078592	-0.948683	-0.306306
2.311332	17.133333	-9.008204	0.078592	-0.948683	-0.306306
-0.705966	17.044445	-9.005705	-0.024714	-0.948683	-0.315261
0.705966	17.044445	-9.005705	0.024714	-0.948683	-0.315261
-1.306864	17.066668	-9.005671	-0.045414	-0.948683	-0.312950
1.306864	17.066668	-9.005671	0.045414	-0.948683	-0.312950
-3.035921	17.200001	-9.001843	-0.101057	-0.948683	-0.299646
3.035921	17.200001	-9.001843	0.101057	-0.948683	-0.299646
-0.780102	17.044445	-8.999586	-0.027309	-0.948683	-0.315046
0.780102	17.044445	-8.999586	0.027309	-0.948683	-0.315046
-2.073138	17.111111	-8.997585	-0.071002	-0.948683	-0.308154
2.073138	17.111111	-8.997585	0.071002	-0.948683	-0.308154
-1.762871	17.088888	-8.995558	-0.060815	-0.948683	-0.310325
1.762871	17.088888	-8.995558	0.060815	-0.948683	-0.310325
-1.380980	17.066668	-8.994604	-0.047989	-0.948683	-0.312565
1.380980	17.066668	-8.994604	0.047989	-0.948683	-0.312565
-0.854185	17.044445	-8.992857	-0.029902	-0.948683	-0.314811
0.854185	17.044445	-8.992857	0.029902	-0.948683	-0.314811
-2.625436	17.155556	-8.991192	-0.088637	-0.948683	-0.303551
2.625436	17.155556	-8.991192	0.088637	-0.948683	-0.303551
-2.385434	17.133333	-8.988866	-0.081112	-0.948683	-0.305648
2.385434	17.133333	-8.988866	0.081112	-0.948683	-0.305648
-2.866997	17.177778	-8.987108	-0.096109	-0.948683	-0.301269
2.866997	17.177778	-8.987108	0.096109	-0.948683	-0.301269
-0.928210	17.044445	-8.985518	-0.032494	-0.948683	-0.314554
0.928210	17.044445	-8.985518	0.032494	-0.948683	-0.314554
-1.455001	17.066668	-8.982926	-0.050562	-0.948683	-0.312159
1.455001	17.066668	-8.982926	0.050562	-0.948683	-0.312159
-1.836887	17.088888	-8.980736	-0.063368	-0.948683	-0.309814
1.836887	17.088888	-8.980736	0.063368	-0.948683	-0.309814
-2.147160	17.111111	-8.980208	-0.073537	-0.948683	-0.307559
2.147160	17.111111	-8.980208	0.073537	-0.948683	-0.307559
-1.002172	17.044445	-8.977570	-0.035083	-0.948683	-0.314276
1.002172	17.044445	-8.977570	0.035083	-0.948683	-0.314276
-3.109946	17.200001	-8.976538	-0.103521	-0.948683	-0.298803
3.109946	17.200001	-8.976538	0.103521	-0.948683	-0.298803
-1.528924	17.066668	-8.970640	-0.053131	-0.948683	-0.311733
1.528924	17.066668	-8.970640	0.053131	-0.948683	-0.311733
-2.699387	17.155556	-8.969267	-0.091134	-0.948683	-0.302811
2.699387	17.155556	-8.969267	0.091134	-0.948683	-0.302811
-1.076066	17.044445	-8.969013	-0.037670	-0.948683	-0.313976
1.076066	17.044445	-8.969013	0.037670	-0.948683	-0.313976
-2.459374	17.133333	-8.968917	-0.083626	-0.948683	-0.304970
2.459374	17.133333	-8.968917	0.083626	-0.948683	-0.304970
0.036919	17.022223	-8.966591	0.001302	-0.948683	-0.316225
-0.036919	17.022223	-8.966591	-0.001302	-0.948683	-0.316225
-0.110756	17.022223	-8.965982	-0.003906	-0.948683	-0.316204
0.110756	17.022223	-8.965982	0.003906	-0.948683	-0.316204
-1.910779	17.088888	-8.965305	-0.065917	-0.948683	-0.309281
1.910779	17.088888	-8.965305	0.065917	-0.948683	-0.309281
-0.184585	17.022223	-8.964767	-0.006510	-0.948683	-0.316161
0.184585	17.022223	-8.964767	0.006510	-0.948683	-0.316161
-2.940906	17.177778	-8.963194	-0.098586	-0.948683	-0.300468
2.940906	17.177778	-8.963194	0.098586	-0.948683	-0.300468
-0.258401	17.022223	-8.962942	-0.009113	-0.948683	-0.316096
0.258401	17.022223	-8.962942	0.009113	-0.948683	-0.316096
-2.221037	17.111111	-8.962223	-0.076067	-0.948683	-0.306943
2.221037	17.111111	-8.962223	0.076067	-0.948683	-0.306943
0.332200	17.022223	-8.960511	0.011716	-0.948683	-0.316011
-0.332200	17.022223	-8.960511	-0.011716	-0.948683	-0.316011
-1.149887	17.044445	-8.959847	-0.040254	-0.948683	-0.313655
1.149887	17.044445	-8.959847	0.040254	-0.948683	-0.313655
-1.602743	17.066668	-8.957747	-0.055696	-0.948683	-0.311284
1.602743	17.066668	-8.957747	0.055696	-0.948683	-0.311284
-0.405976	17.022223	-8.957472	-0.014318	-0.948683	-0.315903
0.405976	17.022223	-8.957472	0.014318	-0.948683	-0.315903
-0.479725	17.022223	-8.953825	-0.016918	-0.948683	-0.315775
0.479725	17.022223	-8.953825	0.016918	-0.948683	-0.315775
-3.183760	17.200001	-8.950624	-0.105978	-0.948683	-0.297941
3.183760	17.200001	-8.950624	0.105978	-0.948683	-0.297941
-1.223630	17.044445	-8.950075	-0.042835	-0.948683	-0.313313
1.223630	17.044445	-8.950075	0.042835	-0.948683	-0.313313
-0.553441	17.022223	-8.949571	-0.019518	-0.948683	-0.315625
0.553441	17.022223	-8.949571	0.019518	-0.948683	-0.315625
-1.984542	17.088888	-8.949266	-0.068462	-0.948683	-0.308728
1.984542	17.088888	-8.949266	0.068462	-0.948683	-0.308728
-2.533148	17.133333	-8.948360	-0.086135	-0.948683	-0.304271
2.533148	17.133333	-8.948360	0.086135	-0.948683	-0.304271
-2.773155	17.155556	-8.946734	-0.093624	-0.948683	-0.302050
2.773155	17.155556	-8.946734	0.093624	-0.948683	-0.302050
-0.627120	17.022223	-8.944710	-0.022117	-0.948683	-0.315453
0.627120	17.022223	-8.944710	0.022117	-0.948683	-0.315453
-1.676453	17.066668	-8.944244	-0.058257	-0.948683	-0.310815
1.676453	17.066668	-8.944244	0.058257	-0.948683	-0.310815
-2.294764	17.111111	-8.943629	-0.078592	-0.948683	-0.306306
2.294764	17.111111	-8.943629	0.078592	-0.948683	-0.306306
-1.297290	17.044445	-8.939695	-0.045414	-0.948683	-0.312950
1.297290	17.044445	-8.939695	0.045414	-0.948683	-0.312950
-0.700756	17.022223	-8.939242	-0.024714	-0.948683	-0.315261
0.700756	17.022223	-8.939242	0.024714	-0.948683	-0.315261
-3.014616	17.177778	-8.938673	-0.101057	-0.948683	-0.299646
3.014616	17.177778	-8.938673	0.101057	-0.948683	-0.299646
-0.774345	17.022223	-8.933168	-0.027309	-0.948683	-0.315046
0.774345	17.022223	-8.933168	0.027309	-0.948683	-0.315046
-2.058169	17.088888	-8.932621	-0.071002	-0.948683	-0.308154
2.058169	17.088888	-8.932621	0.071002	-0.948683	-0.308154
-1.750050	17.066668	-8.930136	-0.060815	-0.948683	-0.310325
1.750050	17.066668	-8.930136	0.060815	-0.948683	-0.310325
-1.370862	17.044445	-8.928709	-0.047989	-0.948683	-0.312565
1.370862	17.044445	-8.928709	0.047989	-0.948683	-0.312565
-2.606750	17.133333	-8.927197	-0.088637	-0.948683	-0.303551
2.606750	17.133333	-8.927197	0.088637	-0.948683	-0.303551
-0.847881	17.022223	-8.926489	-0.029902	-0.948683	-0.314811
0.847881	17.022223	-8.926489	0.029902	-0.948683	-0.314811
-2.368335	17.111111	-8.924429	-0.081112	-0.948683	-0.305648
2.368335	17.111111	-8.924429	0.081112	-0.948683	-0.305648
-3.257358	17.200001	-8.924103	-0.108428	-0.948683	-0.297058
3.257358	17.200001	-8.924103	0.108428	-0.948683	-0.297058
-2.846735	17.155556	-8.923594	-0.096109	-0.948683	-0.301269
2.846735	17.155556	-8.923594	0.096109	-0.948683	-0.301269
-0.921360	17.022223	-8.919205	-0.032494	-0.948683	-0.314554
0.921360	17.022223	-8.919205	0.032494	-0.948683	-0.314554
-1.444342	17.044445	-8.917118	-0.050562	-0.948683	-0.312159
1.444342	17.044445	-8.917118	0.050562	-0.948683	-0.312159
-1.823528	17.066668	-8.915421	-0.063368	-0.948683	-0.309814
1.823528	17.066668	-8.915421	0.063368	-0.948683	-0.309814
-2.131657	17.088888	-8.915370	-0.073537	-0.948683	-0.307559
2.131657	17.088888	-8.915370	0.073537	-0.948683	-0.307559
-3.088122	17.177778	-8.913545	-0.103521	-0.948683	-0.298803
3.088122	17.177778	-8.913545	0.103521	-0.948683	-0.298803
-0.994776	17.022223	-8.911315	-0.035083	-0.948683	-0.314276
0.994776	17.022223	-8.911315	0.035083	-0.948683	-0.314276
-2.680174	17.133333	-8.905429	-0.091134	-0.948683	-0.302811
2.680174	17.133333	-8.905429	0.091134	-0.948683	-0.302811
-1.517723	17.044445	-8.904922	-0.053131	-0.948683	-0.311733
1.517723	17.044445	-8.904922	0.053131	-0.948683	-0.311733
-2.441745	17.111111	-8.904624	-0.083626	-0.948683	-0.304970
2.441745	17.111111	-8.904624	0.083626	-0.948683	-0.304970
-1.068125	17.022223	-8.902821	-0.037670	-0.948683	-0.313976
1.068125	17.022223	-8.902821	0.037670	-0.948683	-0.313976
-1.896883	17.066668	-8.900104	-0.065917	-0.948683	-0.309281
1.896883	17.066668	-8.900104	0.065917	-0.948683	-0.309281
-0.036645	17.000000	-8.899924	-0.001302	-0.948683	-0.316225
0.036645	17.000000	-8.899924	0.001302	-0.948683	-0.316225
-2.920122	17.155556	-8.899850	-0.098586	-0.948683	-0.300468
2.920122	17.155556	-8.899850	0.098586	-0.948683	-0.300468
0.109932	17.000000	-8.899321	0.003906	-0.948683	-0.316204
-0.109932	17.000000	-8.899321	-0.003906	-0.948683	-0.316204
-0.183212	17.000000	-8.898114	-0.006510	-0.948683	-0.316161
0.183212	17.000000	-8.898114	0.006510	-0.948683	-0.316161
-2.205001	17.088888	-8.897513	-0.076067	-0.948683	-0.306943
2.205001	17.088888	-8.897513	0.076067	-0.948683	-0.306943
-3.330735	17.200001	-8.896977	-0.110871	-0.948683	-0.296155
3.330735	17.200001	-8.896977	0.110871	-0.948683	-0.296155
0.256480	17.000000	-8.896303	0.009113	-0.948683	-0.316096
-0.256480	17.000000	-8.896303	-0.009113	-0.948683	-0.316096
-0.329730	17.000000	-8.893890	-0.011716	-0.948683	-0.316011
0.329730	17.000000	-8.893890	0.011716	-0.948683	-0.316011
-1.141401	17.022223	-8.893723	-0.040254	-0.948683	-0.313655
1.141401	17.022223	-8.893723	0.040254	-0.948683	-0.313655
-1.591001	17.044445	-8.892121	-0.055696	-0.948683	-0.311284
1.591001	17.044445	-8.892121	0.055696	-0.948683	-0.311284
-0.402958	17.000000	-8.890873	-0.014318	-0.948683	-0.315903
0.402958	17.000000	-8.890873	0.014318	-0.948683	-0.315903
-3.161418	17.177778	-8.887813	-0.105978	-0.948683	-0.297941
3.161418	17.177778	-8.887813	0.105978	-0.948683	-0.297941
-0.476158	17.000000	-8.887254	-0.016918	-0.948683	-0.315775
0.476158	17.000000	-8.887254	0.016918	-0.948683	-0.315775
-2.514989	17.111111	-8.884215	-0.086135	-0.948683	-0.304271
2.514989	17.111111	-8.884215	0.086135	-0.948683	-0.304271
-1.970109	17.066668	-8.884181	-0.068462	-0.948683	-0.308728
1.970109	17.066668	-8.884181	0.068462	-0.948683	-0.308728
-1.214600	17.022223	-8.884023	-0.042835	-0.948683	-0.313313
1.214600	17.022223	-8.884023	0.042835	-0.948683	-0.313313
-2.753417	17.133333	-8.883057	-0.093624	-0.948683	-0.302050
2.753417	17.133333	-8.883057	0.093624	-0.948683	-0.302050
-0.549326	17.000000	-8.883031	-0.019518	-0.948683	-0.315625
0.549326	17.000000	-8.883031	0.019518	-0.948683	-0.315625
-2.278195	17.088888	-8.879054	-0.078592	-0.948683	-0.306306
2.278195	17.088888	-8.879054	0.078592	-0.948683	-0.306306
-1.664172	17.044445	-8.878718	-0.058257	-0.948683	-0.310815
1.664172	17.044445	-8.878718	0.058257	-0.948683	-0.310815
-0.622457	17.000000	-8.878206	-0.022117	-0.948683	-0.315453
0.622457	17.000000	-8.878206	0.022117	-0.948683	-0.315453
-2.993311	17.155556	-8.875502	-0.101057	-0.948683	-0.299646
2.993311	17.155556	-8.875502	0.101057	-0.948683	-0.299646
-1.287716	17.022223	-8.873719	-0.045414	-0.948683	-0.312950
1.287716	17.022223	-8.873719	0.045414	-0.948683	-0.312950
-0.695546	17.000000	-8.872780	-0.024714	-0.948683	-0.315261
0.695546	17.000000	-8.872780	0.024714	-0.948683	-0.315261
-3.403887	17.200001	-8.869247	-0.113306	-0.948683	-0.295232
3.403887	17.200001	-8.869247	0.113306	-0.948683	-0.295232
-2.043201	17.066668	-8.867657	-0.071002	-0.948683	-0.308154
2.043201	17.066668	-8.867657	0.071002	-0.948683	-0.308154
-0.768588	17.000000	-8.866751	-0.027309	-0.948683	-0.315046
0.768588	17.000000	-8.866751	0.027309	-0.948683	-0.315046
-1.737229	17.044445	-8.864714	-0.060815	-0.948683	-0.310325
1.737229	17.044445	-8.864714	0.060815	-0.948683	-0.310325
-2.588063	17.111111	-8.863203	-0.088637	-0.948683	-0.303551
2.588063	17.111111	-8.863203	0.088637	-0.948683	-0.303551
-1.360745	17.022223	-8.862815	-0.047989	-0.948683	-0.312565
1.360745	17.022223	-8.862815	0.047989	-0.948683	-0.312565
-3.234499	17.177778	-8.861478	-0.108428	-0.948683	-0.297058
3.234499	17.177778	-8.861478	0.108428	-0.948683	-0.297058
-0.841577	17.000000	-8.860121	-0.029902	-0.948683	-0.314811
0.841577	17.000000	-8.860121	0.029902	-0.948683	-0.314811
-2.826474	17.133333	-8.860082	-0.096109	-0.948683	-0.301269
2.826474	17.133333	-8.860082	0.096109	-0.948683	-0.301269
-2.351234	17.088888	-8.859993	-0.081112	-0.948683	-0.305648
2.351234	17.088888	-8.859993	0.081112	-0.948683	-0.305648
-0.914509	17.000000	-8.852891	-0.032494	-0.948683	-0.314554
0.914509	17.000000	-8.852891	0.032494	-0.948683	-0.314554
-1.433682	17.022223	-8.851309	-0.050562	-0.948683	-0.312159
1.433682	17.022223	-8.851309	0.050562	-0.948683	-0.312159
-3.066298	17.155556	-8.850552	-0.103521	-0.948683	-0.298803
3.066298	17.155556	-8.850552	0.103521	-0.948683	-0.298803
-2.116154	17.066668	-8.850531	-0.073537	-0.948683	-0.307559
2.116154	17.066668	-8.850531	0.073537	-0.948683	-0.307559
-1.810169	17.044445	-8.850107	-0.063368	-0.948683	-0.309814
1.810169	17.044445	-8.850107	0.063368	-0.948683	-0.309814
-0.987380	17.000000	-8.845059	-0.035083	-0.948683	-0.314276
0.987380	17.000000	-8.845059	0.035083	-0.948683	-0.314276
-2.660962	17.111111	-8.841591	-0.091134	-0.948683	-0.302811
2.660962	17.111111	-8.841591	0.091134	-0.948683	-0.302811
-3.476808	17.200001	-8.840917	-0.115733	-0.948683	-0.294289
3.476808	17.200001	-8.840917	0.115733	-0.948683	-0.294289
-2.424115	17.088888	-8.840331	-0.083626	-0.948683	-0.304970
2.424115	17.088888	-8.840331	0.083626	-0.948683	-0.304970
-1.506522	17.022223	-8.839203	-0.053131	-0.948683	-0.311733
1.506522	17.022223	-8.839203	0.053131	-0.948683	-0.311733
-1.060183	17.000000	-8.836629	-0.037670	-0.948683	-0.313976
1.060183	17.000000	-8.836629	0.037670	-0.948683	-0.313976
-2.899338	17.133333	-8.836506	-0.098586	-0.948683	-0.300468
2.899338	17.133333	-8.836506	0.098586	-0.948683	-0.300468
-1.882986	17.044445	-8.834901	-0.065917	-0.948683	-0.309281
1.882986	17.044445	-8.834901	0.065917	-0.948683	-0.309281
-3.307362	17.177778	-8.834542	-0.110871	-0.948683	-0.296155
3.307362	17.177778	-8.834542	0.110871	-0.948683	-0.296155
-2.188965	17.066668	-8.832805	-0.076067	-0.948683	-0.306943
2.188965	17.066668	-8.832805	0.076067	-0.948683	-0.306943
-1.132915	17.000000	-8.827599	-0.040254	-0.948683	-0.313655
1.132915	17.000000	-8.827599	0.040254	-0.948683	-0.313655
-1.579260	17.022223	-8.826497	-0.055696	-0.948683	-0.311284
1.579260	17.022223	-8.826497	0.055696	-0.948683	-0.311284
-3.139076	17.155556	-8.825002	-0.105978	-0.948683	-0.297941
3.139076	17.155556	-8.825002	0.105978	-0.948683	-0.297941
-2.496830	17.088888	-8.820069	-0.086135	-0.948683	-0.304271
2.496830	17.088888	-8.820069	0.086135	-0.948683	-0.304271
-2.733680	17.111111	-8.819379	-0.093624	-0.948683	-0.302050
2.733680	17.111111	-8.819379	0.093624	-0.948683	-0.302050
-1.955675	17.044445	-8.819096	-0.068462	-0.948683	-0.308728
1.955675	17.044445	-8.819096	0.068462	-0.948683	-0.308728
-1.205569	17.000000	-8.817970	-0.042835	-0.948683	-0.313313
1.205569	17.000000	-8.817970	0.042835	-0.948683	-0.313313
-2.261626	17.066668	-8.814480	-0.078592	-0.948683	-0.306306
2.261626	17.066668	-8.814480	0.078592	-0.948683	-0.306306
-1.651890	17.022223	-8.813193	-0.058257	-0.948683	-0.310815
1.651890	17.022223	-8.813193	0.058257	-0.948683	-0.310815
-2.972007	17.133333	-8.812331	-0.101057	-0.948683	-0.299646
2.972007	17.133333	-8.812331	0.101057	-0.948683	-0.299646
-3.549492	17.200001	-8.811986	-0.118152	-0.948683	-0.293326
3.549492	17.200001	-8.811986	0.118152	-0.948683	-0.293326
-1.278142	17.000000	-8.807744	-0.045414	-0.948683	-0.312950
1.278142	17.000000	-8.807744	0.045414	-0.948683	-0.312950
-3.380000	17.177778	-8.807008	-0.113306	-0.948683	-0.295232
3.380000	17.177778	-8.807008	0.113306	-0.948683	-0.295232
-2.028232	17.044445	-8.802691	-0.071002	-0.948683	-0.308154
2.028232	17.044445	-8.802691	0.071002	-0.948683	-0.308154
-1.724408	17.022223	-8.799292	-0.060815	-0.948683	-0.310325
1.724408	17.022223	-8.799292	0.060815	-0.948683	-0.310325
-2.569377	17.088888	-8.799209	-0.088637	-0.948683	-0.303551
2.569377	17.088888	-8.799209	0.088637	-0.948683	-0.303551
-3.211641	17.155556	-8.798853	-0.108428	-0.948683	-0.297058
3.211641	17.155556	-8.798853	0.108428	-0.948683	-0.297058
-1.350628	17.000000	-8.796920	-0.047989	-0.948683	-0.312565
1.350628	17.000000	-8.796920	0.047989	-0.948683	-0.312565
-2.806212	17.111111	-8.796569	-0.096109	-0.948683	-0.301269
2.806212	17.111111	-8.796569	0.096109	-0.948683	-0.301269
-2.334135	17.066668	-8.795557	-0.081112	-0.948683	-0.305648
2.334135	17.066668	-8.795557	0.081112	-0.948683	-0.305648
-3.044473	17.133333	-8.787559	-0.103521	-0.948683	-0.298803
3.044473	17.133333	-8.787559	0.103521	-0.948683	-0.298803
-2.100652	17.044445	-8.785691	-0.073537	-0.948683	-0.307559
2.100652	17.044445	-8.785691	0.073537	-0.948683	-0.307559
-1.423023	17.000000	-8.785500	-0.050562	-0.948683	-0.312159
1.423023	17.000000	-8.785500	0.050562	-0.948683	-0.312159
-1.796810	17.022223	-8.784793	-0.063368	-0.948683	-0.309814
1.796810	17.022223	-8.784793	0.063368	-0.948683	-0.309814
-3.621937	17.200001	-8.782458	-0.120564	-0.948683	-0.292343
3.621937	17.200001	-8.782458	0.120564	-0.948683	-0.292343
-3.452409	17.177778	-8.778875	-0.115733	-0.948683	-0.294289
3.452409	17.177778	-8.778875	0.115733	-0.948683	-0.294289
-2.641749	17.088888	-8.777753	-0.091134	-0.948683	-0.302811
2.641749	17.088888	-8.777753	0.091134	-0.948683	-0.302811
-2.406485	17.066668	-8.776037	-0.083626	-0.948683	-0.304970
2.406485	17.066668	-8.776037	0.083626	-0.948683	-0.304970
-1.495321	17.000000	-8.773483	-0.053131	-0.948683	-0.311733
1.495321	17.000000	-8.773483	0.053131	-0.948683	-0.311733
-2.878555	17.111111	-8.773162	-0.098586	-0.948683	-0.300468
2.878555	17.111111	-8.773162	0.098586	-0.948683	-0.300468
-3.283988	17.155556	-8.772107	-0.110871	-0.948683	-0.296155
3.283988	17.155556	-8.772107	0.110871	-0.948683	-0.296155
-1.869090	17.022223	-8.769699	-0.065917	-0.948683	-0.309281
1.869090	17.022223	-8.769699	0.065917	-0.948683	-0.309281
-2.172928	17.044445	-8.768095	-0.076067	-0.948683	-0.306943
2.172928	17.044445	-8.768095	0.076067	-0.948683	-0.306943
-3.116733	17.133333	-8.762190	-0.105978	-0.948683	-0.297941
3.116733	17.133333	-8.762190	0.105978	-0.948683	-0.297941
-1.567518	17.000000	-8.760873	-0.055696	-0.948683	-0.311284
1.567518	17.000000	-8.760873	0.055696	-0.948683	-0.311284
-2.478672	17.066668	-8.755923	-0.086135	-0.948683	-0.304271
2.478672	17.066668	-8.755923	0.086135	-0.948683	-0.304271
-2.713942	17.088888	-8.755701	-0.093624	-0.948683	-0.302050
2.713942	17.088888	-8.755701	0.093624	-0.948683	-0.302050
-1.941242	17.022223	-8.754010	-0.068462	-0.948683	-0.308728
1.941242	17.022223	-8.754010	0.068462	-0.948683	-0.308728
-3.694135	17.200001	-8.752335	-0.122967	-0.948683	-0.291340
3.694135	17.200001	-8.752335	0.122967	-0.948683	-0.291340
-3.524584	17.177778	-8.750148	-0.118152	-0.948683	-0.293326
3.524584	17.177778	-8.750148	0.118152	-0.948683	-0.293326
-2.245058	17.044445	-8.749905	-0.078592	-0.948683	-0.306306
2.245058	17.044445	-8.749905	0.078592	-0.948683	-0.306306
-2.950702	17.111111	-8.749160	-0.101057	-0.948683	-0.299646
2.950702	17.111111	-8.749160	0.101057	-0.948683	-0.299646
-1.639608	17.000000	-8.747667	-0.058257	-0.948683	-0.310815
1.639608	17.000000	-8.747667	0.058257	-0.948683	-0.310815
-3.356113	17.155556	-8.744767	-0.113306	-0.948683	-0.295232
3.356113	17.155556	-8.744767	0.113306	-0.948683	-0.295232
-2.013264	17.022223	-8.737727	-0.071002	-0.948683	-0.308154
2.013264	17.022223	-8.737727	0.071002	-0.948683	-0.308154
-3.188782	17.133333	-8.736227	-0.108428	-0.948683	-0.297058
3.188782	17.133333	-8.736227	0.108428	-0.948683	-0.297058
-2.550690	17.066668	-8.735215	-0.088637	-0.948683	-0.303551
2.550690	17.066668	-8.735215	0.088637	-0.948683	-0.303551
-1.711588	17.000000	-8.733869	-0.060815	-0.948683	-0.310325
1.711588	17.000000	-8.733869	0.060815	-0.948683	-0.310325
-2.785951	17.088888	-8.733055	-0.096109	-0.948683	-0.301269
2.785951	17.088888	-8.733055	0.096109	-0.948683	-0.301269
-2.317035	17.044445	-8.731120	-0.081112	-0.948683	-0.305648
2.317035	17.044445	-8.731120	0.081112	-0.948683	-0.305648
-3.022649	17.111111	-8.724566	-0.103521	-0.948683	-0.298803
3.022649	17.111111	-8.724566	0.103521	-0.948683	-0.298803
-3.766083	17.200001	-8.721618	-0.125362	-0.948683	-0.290318
3.766083	17.200001	-8.721618	0.125362	-0.948683	-0.290318
-2.085149	17.022223	-8.720853	-0.073537	-0.948683	-0.307559
2.085149	17.022223	-8.720853	0.073537	-0.948683	-0.307559
-3.596519	17.177778	-8.720827	-0.120564	-0.948683	-0.292343
3.596519	17.177778	-8.720827	0.120564	-0.948683	-0.292343
-1.783451	17.000000	-8.719479	-0.063368	-0.948683	-0.309814
1.783451	17.000000	-8.719479	0.063368	-0.948683	-0.309814
-3.428010	17.155556	-8.716834	-0.115733	-0.948683	-0.294289
3.428010	17.155556	-8.716834	0.115733	-0.948683	-0.294289
-2.622536	17.066668	-8.713914	-0.091134	-0.948683	-0.302811
2.622536	17.066668	-8.713914	0.091134	-0.948683	-0.302811
-2.388855	17.044445	-8.711744	-0.083626	-0.948683	-0.304970
2.388855	17.044445	-8.711744	0.083626	-0.948683	-0.304970
-2.857771	17.088888	-8.709818	-0.098586	-0.948683	-0.300468
2.857771	17.088888	-8.709818	0.098586	-0.948683	-0.300468
-3.260615	17.133333	-8.709672	-0.110871	-0.948683	-0.296155
3.260615	17.133333	-8.709672	0.110871	-0.948683	-0.296155
-1.855193	17.000000	-8.704496	-0.065917	-0.948683	-0.309281
1.855193	17.000000	-8.704496	0.065917	-0.948683	-0.309281
-2.156892	17.022223	-8.703386	-0.076067	-0.948683	-0.306943
2.156892	17.022223	-8.703386	0.076067	-0.948683	-0.306943
-3.094391	17.111111	-8.699379	-0.105978	-0.948683	-0.297941
3.094391	17.111111	-8.699379	0.105978	-0.948683	-0.297941
-2.694204	17.066668	-8.692023	-0.093624	-0.948683	-0.302050
2.694204	17.066668	-8.692023	0.093624	-0.948683	-0.302050
-2.460513	17.044445	-8.691777	-0.086135	-0.948683	-0.304271
2.460513	17.044445	-8.691777	0.086135	-0.948683	-0.304271
-3.668211	17.177778	-8.690915	-0.122967	-0.948683	-0.291340
3.668211	17.177778	-8.690915	0.122967	-0.948683	-0.291340
-3.837776	17.200001	-8.690310	-0.127749	-0.948683	-0.289275
3.837776	17.200001	-8.690310	0.127749	-0.948683	-0.289275
-1.926809	17.000000	-8.688924	-0.068462	-0.948683	-0.308728
1.926809	17.000000	-8.688924	0.068462	-0.948683	-0.308728
-3.499675	17.155556	-8.688310	-0.118152	-0.948683	-0.293326
3.499675	17.155556	-8.688310	0.118152	-0.948683	-0.293326
-2.929397	17.088888	-8.685989	-0.101057	-0.948683	-0.299646
2.929397	17.088888	-8.685989	0.101057	-0.948683	-0.299646
-2.228489	17.022223	-8.685329	-0.078592	-0.948683	-0.306306
2.228489	17.022223	-8.685329	0.078592	-0.948683	-0.306306
-3.332226	17.133333	-8.682527	-0.113306	-0.948683	-0.295232
3.332226	17.133333	-8.682527	0.113306	-0.948683	-0.295232
-3.165924	17.111111	-8.673602	-0.108428	-0.948683	-0.297058
3.165924	17.111111	-8.673602	0.108428	-0.948683	-0.297058
-1.998295	17.000000	-8.672763	-0.071002	-0.948683	-0.308154
1.998295	17.000000	-8.672763	0.071002	-0.948683	-0.308154
-2.532004	17.044445	-8.671221	-0.088637	-0.948683	-0.303551
2.532004	17.044445	-8.671221	0.088637	-0.948683	-0.303551
-2.765689	17.066668	-8.669542	-0.096109	-0.948683	-0.301269
2.765689	17.066668	-8.669542	0.096109	-0.948683	-0.301269
-2.299935	17.022223	-8.666684	-0.081112	-0.948683	-0.305648
2.299935	17.022223	-8.666684	0.081112	-0.948683	-0.305648
-3.000825	17.088888	-8.661572	-0.103521	-0.948683	-0.298803
3.000825	17.088888	-8.661572	0.103521	-0.948683	-0.298803
-3.739655	17.177778	-8.660414	-0.125362	-0.948683	-0.290318
3.739655	17.177778	-8.660414	0.125362	-0.948683	-0.290318
-3.571102	17.155556	-8.659196	-0.120564	-0.948683	-0.292343
3.571102	17.155556	-8.659196	0.120564	-0.948683	-0.292343
-3.909208	17.200001	-8.658412	-0.130126	-0.948683	-0.288214
3.909208	17.200001	-8.658412	0.130126	-0.948683	-0.288214
-2.069646	17.000000	-8.656013	-0.073537	-0.948683	-0.307559
2.069646	17.000000	-8.656013	0.073537	-0.948683	-0.307559
-3.403612	17.133333	-8.654792	-0.115733	-0.948683	-0.294289
3.403612	17.133333	-8.654792	0.115733	-0.948683	-0.294289
-2.603323	17.044445	-8.650076	-0.091134	-0.948683	-0.302811
2.603323	17.044445	-8.650076	0.091134	-0.948683	-0.302811
-2.371225	17.022223	-8.647450	-0.083626	-0.948683	-0.304970
2.371225	17.022223	-8.647450	0.083626	-0.948683	-0.304970
-3.237241	17.111111	-8.647238	-0.110871	-0.948683	-0.296155
3.237241	17.111111	-8.647238	0.110871	-0.948683	-0.296155
-2.836987	17.066668	-8.646474	-0.098586	-0.948683	-0.300468
2.836987	17.066668	-8.646474	0.098586	-0.948683	-0.300468
-2.140856	17.000000	-8.638677	-0.076067	-0.948683	-0.306943
2.140856	17.000000	-8.638677	0.076067	-0.948683	-0.306943
-3.072049	17.088888	-8.636567	-0.105978	-0.948683	-0.297941
3.072049	17.088888	-8.636567	0.105978	-0.948683	-0.297941
-3.642287	17.155556	-8.629495	-0.122967	-0.948683	-0.291340
3.642287	17.155556	-8.629495	0.122967	-0.948683	-0.291340
-3.810844	17.177778	-8.629325	-0.127749	-0.948683	-0.289275
3.810844	17.177778	-8.629325	0.127749	-0.948683	-0.289275
-2.674466	17.044445	-8.628345	-0.093624	-0.948683	-0.302050
2.674466	17.044445	-8.628345	0.093624	-0.948683	-0.302050
-2.442354	17.022223	-8.627631	-0.086135	-0.948683	-0.304271
2.442354	17.022223	-8.627631	0.086135	-0.948683	-0.304271
-3.474766	17.133333	-8.626471	-0.118152	-0.948683	-0.293326
3.474766	17.133333	-8.626471	0.118152	-0.948683	-0.293326
-3.980376	17.200001	-8.625927	-0.132495	-0.948683	-0.287132
3.980376	17.200001	-8.625927	0.132495	-0.948683	-0.287132
-2.908092	17.066668	-8.622818	-0.101057	-0.948683	-0.299646
2.908092	17.066668	-8.622818	0.101057	-0.948683	-0.299646
-2.211920	17.000000	-8.620754	-0.078592	-0.948683	-0.306306
2.211920	17.000000	-8.620754	0.078592	-0.948683	-0.306306
-3.308339	17.111111	-8.620286	-0.113306	-0.948683	-0.295232
3.308339	17.111111	-8.620286	0.113306	-0.948683	-0.295232
-3.143065	17.088888	-8.610977	-0.108428	-0.948683	-0.297058
3.143065	17.088888	-8.610977	0.108428	-0.948683	-0.297058
-2.513318	17.022223	-8.607226	-0.088637	-0.948683	-0.303551
2.513318	17.022223	-8.607226	0.088637	-0.948683	-0.303551
-2.745428	17.044445	-8.606030	-0.096109	-0.948683	-0.301269
2.745428	17.044445	-8.606030	0.096109	-0.948683	-0.301269
-2.282835	17.000000	-8.602247	-0.081112	-0.948683	-0.305648
2.282835	17.000000	-8.602247	0.081112	-0.948683	-0.305648
-3.713226	17.155556	-8.599209	-0.125362	-0.948683	-0.290318
3.713226	17.155556	-8.599209	0.125362	-0.948683	-0.290318
-2.979001	17.066668	-8.598578	-0.103521	-0.948683	-0.298803
2.979001	17.066668	-8.598578	0.103521	-0.948683	-0.298803
-3.881775	17.177778	-8.597651	-0.130126	-0.948683	-0.288214
3.881775	17.177778	-8.597651	0.130126	-0.948683	-0.288214
-3.545685	17.133333	-8.597565	-0.120564	-0.948683	-0.292343
3.545685	17.133333	-8.597565	0.120564	-0.948683	-0.292343
-4.051273	17.200001	-8.592856	-0.134855	-0.948683	-0.286032
4.051273	17.200001	-8.592856	0.134855	-0.948683	-0.286032
-3.379213	17.111111	-8.592751	-0.115733	-0.948683	-0.294289
3.379213	17.111111	-8.592751	0.115733	-0.948683	-0.294289
-2.584111	17.022223	-8.586238	-0.091134	-0.948683	-0.302811
2.584111	17.022223	-8.586238	0.091134	-0.948683	-0.302811
-3.213867	17.088888	-8.584803	-0.110871	-0.948683	-0.296155
3.213867	17.088888	-8.584803	0.110871	-0.948683	-0.296155
-2.353595	17.000000	-8.583158	-0.083626	-0.948683	-0.304970
2.353595	17.000000	-8.583158	0.083626	-0.948683	-0.304970
-2.816203	17.044445	-8.583129	-0.098586	-0.948683	-0.300468
2.816203	17.044445	-8.583129	0.098586	-0.948683	-0.300468
-3.049707	17.066668	-8.573756	-0.105978	-0.948683	-0.297941
3.049707	17.066668	-8.573756	0.105978	-0.948683	-0.297941
-3.783912	17.155556	-8.568340	-0.127749	-0.948683	-0.289275
3.783912	17.155556	-8.568340	0.127749	-0.948683	-0.289275
-3.616364	17.133333	-8.568075	-0.122967	-0.948683	-0.291340
3.616364	17.133333	-8.568075	0.122967	-0.948683	-0.291340
-3.952443	17.177778	-8.565393	-0.132495	-0.948683	-0.287132
3.952443	17.177778	-8.565393	0.132495	-0.948683	-0.287132
-2.654729	17.022223	-8.564668	-0.093624	-0.948683	-0.302050
2.654729	17.022223	-8.564668	0.093624	-0.948683	-0.302050
-3.449857	17.111111	-8.564632	-0.118152	-0.948683	-0.293326
3.449857	17.111111	-8.564632	0.118152	-0.948683	-0.293326
-2.424195	17.000000	-8.563485	-0.086135	-0.948683	-0.304271
2.424195	17.000000	-8.563485	0.086135	-0.948683	-0.304271
-2.886788	17.044445	-8.559648	-0.101057	-0.948683	-0.299646
2.886788	17.044445	-8.559648	0.101057	-0.948683	-0.299646
-4.121895	17.200001	-8.559204	-0.137206	-0.948683	-0.284911
4.121895	17.200001	-8.559204	0.137206	-0.948683	-0.284911
-3.284452	17.088888	-8.558046	-0.113306	-0.948683	-0.295232
3.284452	17.088888	-8.558046	0.113306	-0.948683	-0.295232
-3.120206	17.066668	-8.548351	-0.108428	-0.948683	-0.297058
3.120206	17.066668	-8.548351	0.108428	-0.948683	-0.297058
-2.494631	17.000000	-8.543232	-0.088637	-0.948683	-0.303551
2.494631	17.000000	-8.543232	0.088637	-0.948683	-0.303551
-2.725167	17.022223	-8.542516	-0.096109	-0.948683	-0.301269
2.725167	17.022223	-8.542516	0.096109	-0.948683	-0.301269
-3.686797	17.133333	-8.538005	-0.125362	-0.948683	-0.290318
3.686797	17.133333	-8.538005	0.125362	-0.948683	-0.290318
-3.854342	17.155556	-8.536890	-0.130126	-0.948683	-0.288214
3.854342	17.155556	-8.536890	0.130126	-0.948683	-0.288214
-3.520268	17.111111	-8.535933	-0.120564	-0.948683	-0.292343
3.520268	17.111111	-8.535933	0.120564	-0.948683	-0.292343
-2.957176	17.044445	-8.535585	-0.103521	-0.948683	-0.298803
2.957176	17.044445	-8.535585	0.103521	-0.948683	-0.298803
-4.022843	17.177778	-8.532557	-0.134855	-0.948683	-0.286032
4.022843	17.177778	-8.532557	0.134855	-0.948683	-0.286032
-3.354814	17.088888	-8.530709	-0.115733	-0.948683	-0.294289
3.354814	17.088888	-8.530709	0.115733	-0.948683	-0.294289
-4.192239	17.200001	-8.524971	-0.139548	-0.948683	-0.283772
4.192239	17.200001	-8.524971	0.139548	-0.948683	-0.283772
-2.564898	17.000000	-8.522400	-0.091134	-0.948683	-0.302811
2.564898	17.000000	-8.522400	0.091134	-0.948683	-0.302811
-3.190494	17.066668	-8.522367	-0.110871	-0.948683	-0.296155
3.190494	17.066668	-8.522367	0.110871	-0.948683	-0.296155
-2.795420	17.022223	-8.519785	-0.098586	-0.948683	-0.300468
2.795420	17.022223	-8.519785	0.098586	-0.948683	-0.300468
-3.027365	17.044445	-8.510944	-0.105978	-0.948683	-0.297941
3.027365	17.044445	-8.510944	0.105978	-0.948683	-0.297941
-3.756980	17.133333	-8.507356	-0.127749	-0.948683	-0.289275
3.756980	17.133333	-8.507356	0.127749	-0.948683	-0.289275
-3.590440	17.111111	-8.506656	-0.122967	-0.948683	-0.291340
3.590440	17.111111	-8.506656	0.122967	-0.948683	-0.291340
-3.924510	17.155556	-8.504861	-0.132495	-0.948683	-0.287132
3.924510	17.155556	-8.504861	0.132495	-0.948683	-0.287132
-3.424949	17.088888	-8.502794	-0.118152	-0.948683	-0.293326
3.424949	17.088888	-8.502794	0.118152	-0.948683	-0.293326
-2.634991	17.000000	-8.500990	-0.093624	-0.948683	-0.302050
2.634991	17.000000	-8.500990	0.093624	-0.948683	-0.302050
-4.092970	17.177778	-8.499140	-0.137206	-0.948683	-0.284911
4.092970	17.177778	-8.499140	0.137206	-0.948683	-0.284911
-2.865483	17.022223	-8.496477	-0.101057	-0.948683	-0.299646
2.865483	17.022223	-8.496477	0.101057	-0.948683	-0.299646
-3.260565	17.066668	-8.495806	-0.113306	-0.948683	-0.295232
3.260565	17.066668	-8.495806	0.113306	-0.948683	-0.295232
-4.262298	17.200001	-8.490160	-0.141880	-0.948683	-0.282613
4.262298	17.200001	-8.490160	0.141880	-0.948683	-0.282613
-3.097347	17.044445	-8.485726	-0.108428	-0.948683	-0.297058
3.097347	17.044445	-8.485726	0.108428	-0.948683	-0.297058
-2.704905	17.000000	-8.479003	-0.096109	-0.948683	-0.301269
2.704905	17.000000	-8.479003	0.096109	-0.948683	-0.301269
-3.660368	17.111111	-8.476801	-0.125362	-0.948683	-0.290318
3.660368	17.111111	-8.476801	0.125362	-0.948683	-0.290318
-3.826909	17.133333	-8.476130	-0.130126	-0.948683	-0.288214
3.826909	17.133333	-8.476130	0.130126	-0.948683	-0.288214
-3.494851	17.088888	-8.474302	-0.120564	-0.948683	-0.292343
3.494851	17.088888	-8.474302	0.120564	-0.948683	-0.292343
-2.935352	17.022223	-8.472592	-0.103521	-0.948683	-0.298803
2.935352	17.022223	-8.472592	0.103521	-0.948683	-0.298803
-3.994413	17.155556	-8.472256	-0.134855	-0.948683	-0.286032
3.994413	17.155556	-8.472256	0.134855	-0.948683	-0.286032
-3.330416	17.066668	-8.468668	-0.115733	-0.948683	-0.294289
3.330416	17.066668	-8.468668	0.115733	-0.948683	-0.294289
-4.162819	17.177778	-8.465147	-0.139548	-0.948683	-0.283772
4.162819	17.177778	-8.465147	0.139548	-0.948683	-0.283772
-3.167120	17.044445	-8.459932	-0.110871	-0.948683	-0.296155
3.167120	17.044445	-8.459932	0.110871	-0.948683	-0.296155
-2.774636	17.000000	-8.456441	-0.098586	-0.948683	-0.300468
2.774636	17.000000	-8.456441	0.098586	-0.948683	-0.300468
-4.332067	17.200001	-8.454773	-0.144202	-0.948683	-0.281435
4.332067	17.200001	-8.454773	0.144202	-0.948683	-0.281435
-3.005023	17.022223	-8.448133	-0.105978	-0.948683	-0.297941
3.005023	17.022223	-8.448133	0.105978	-0.948683	-0.297941
-3.730049	17.111111	-8.446371	-0.127749	-0.948683	-0.289275
3.730049	17.111111	-8.446371	0.127749	-0.948683	-0.289275
-3.564516	17.088888	-8.445235	-0.122967	-0.948683	-0.291340
3.564516	17.088888	-8.445235	0.122967	-0.948683	-0.291340
-3.896578	17.133333	-8.444328	-0.132495	-0.948683	-0.287132
3.896578	17.133333	-8.444328	0.132495	-0.948683	-0.287132
-3.400040	17.066668	-8.440955	-0.118152	-0.948683	-0.293326
3.400040	17.066668	-8.440955	0.118152	-0.948683	-0.293326
-4.064044	17.155556	-8.439075	-0.137206	-0.948683	-0.284911
4.064044	17.155556	-8.439075	0.137206	-0.948683	-0.284911
-3.236678	17.044445	-8.433565	-0.113306	-0.948683	-0.295232
3.236678	17.044445	-8.433565	0.113306	-0.948683	-0.295232
-2.844178	17.000000	-8.433306	-0.101057	-0.948683	-0.299646
2.844178	17.000000	-8.433306	0.101057	-0.948683	-0.299646
-4.232387	17.177778	-8.430580	-0.141880	-0.948683	-0.282613
4.232387	17.177778	-8.430580	0.141880	-0.948683	-0.282613
-3.074489	17.022223	-8.423100	-0.108428	-0.948683	-0.297058
3.074489	17.022223	-8.423100	0.108428	-0.948683	-0.297058
-4.401544	17.200001	-8.418813	-0.146515	-0.948683	-0.280238
4.401544	17.200001	-8.418813	0.146515	-0.948683	-0.280238
-3.633940	17.088888	-8.415596	-0.125362	-0.948683	-0.290318
3.633940	17.088888	-8.415596	0.125362	-0.948683	-0.290318
-3.799476	17.111111	-8.415368	-0.130126	-0.948683	-0.288214
3.799476	17.111111	-8.415368	0.130126	-0.948683	-0.288214
-3.469434	17.066668	-8.412671	-0.120564	-0.948683	-0.292343
3.469434	17.066668	-8.412671	0.120564	-0.948683	-0.292343
-3.965983	17.133333	-8.411955	-0.134855	-0.948683	-0.286032
3.965983	17.133333	-8.411955	0.134855	-0.948683	-0.286032
-2.913528	17.000000	-8.409599	-0.103521	-0.948683	-0.298803
2.913528	17.000000	-8.409599	0.103521	-0.948683	-0.298803
-3.306017	17.044445	-8.406626	-0.115733	-0.948683	-0.294289
3.306017	17.044445	-8.406626	0.115733	-0.948683	-0.294289
-4.133400	17.155556	-8.405322	-0.139548	-0.948683	-0.283772
4.133400	17.155556	-8.405322	0.139548	-0.948683	-0.283772
-3.143747	17.022223	-8.397498	-0.110871	-0.948683	-0.296155
3.143747	17.022223	-8.397498	0.110871	-0.948683	-0.296155
-4.301667	17.177778	-8.395442	-0.144202	-0.948683	-0.281435
4.301667	17.177778	-8.395442	0.144202	-0.948683	-0.281435
-3.703117	17.088888	-8.385386	-0.127749	-0.948683	-0.289275
3.703117	17.088888	-8.385386	0.127749	-0.948683	-0.289275
-2.982680	17.000000	-8.385322	-0.105978	-0.948683	-0.297941
2.982680	17.000000	-8.385322	0.105978	-0.948683	-0.297941
-3.538593	17.066668	-8.383816	-0.122967	-0.948683	-0.291340
3.538593	17.066668	-8.383816	0.122967	-0.948683	-0.291340
-3.868646	17.111111	-8.383796	-0.132495	-0.948683	-0.287132
3.868646	17.111111	-8.383796	0.132495	-0.948683	-0.287132
-4.470721	17.200001	-8.382282	-0.148817	-0.948683	-0.279022
4.470721	17.200001	-8.382282	0.148817	-0.948683	-0.279022
-3.375131	17.044445	-8.379117	-0.118152	-0.948683	-0.293326
3.375131	17.044445	-8.379117	0.118152	-0.948683	-0.293326
-4.035119	17.133333	-8.379010	-0.137206	-0.948683	-0.284911
4.035119	17.133333	-8.379010	0.137206	-0.948683	-0.284911
-3.212791	17.022223	-8.371325	-0.113306	-0.948683	-0.295232
3.212791	17.022223	-8.371325	0.113306	-0.948683	-0.295232
-4.202476	17.155556	-8.371000	-0.141880	-0.948683	-0.282613
4.202476	17.155556	-8.371000	0.141880	-0.948683	-0.282613
-3.051630	17.000000	-8.360476	-0.108428	-0.948683	-0.297058
3.051630	17.000000	-8.360476	0.108428	-0.948683	-0.297058
-4.370656	17.177778	-8.359734	-0.146515	-0.948683	-0.280238
4.370656	17.177778	-8.359734	0.146515	-0.948683	-0.280238
-3.772043	17.088888	-8.354608	-0.130126	-0.948683	-0.288214
3.772043	17.088888	-8.354608	0.130126	-0.948683	-0.288214
-3.607511	17.066668	-8.354392	-0.125362	-0.948683	-0.290318
3.607511	17.066668	-8.354392	0.125362	-0.948683	-0.290318
-3.937553	17.111111	-8.351654	-0.134855	-0.948683	-0.286032
3.937553	17.111111	-8.351654	0.134855	-0.948683	-0.286032
-3.444017	17.044445	-8.351039	-0.120564	-0.948683	-0.292343
3.444017	17.044445	-8.351039	0.120564	-0.948683	-0.292343
-4.103981	17.133333	-8.345498	-0.139548	-0.948683	-0.283772
4.103981	17.133333	-8.345498	0.139548	-0.948683	-0.283772
-4.539596	17.200001	-8.345182	-0.151110	-0.948683	-0.277787
4.539596	17.200001	-8.345182	0.151110	-0.948683	-0.277787
-3.281618	17.022223	-8.344584	-0.115733	-0.948683	-0.294289
3.281618	17.022223	-8.344584	0.115733	-0.948683	-0.294289
-4.271266	17.155556	-8.336110	-0.144202	-0.948683	-0.281435
4.271266	17.155556	-8.336110	0.144202	-0.948683	-0.281435
-3.120373	17.000000	-8.335063	-0.110871	-0.948683	-0.296155
3.120373	17.000000	-8.335063	0.110871	-0.948683	-0.296155
-3.676185	17.066668	-8.324402	-0.127749	-0.948683	-0.289275
3.676185	17.066668	-8.324402	0.127749	-0.948683	-0.289275
-4.439348	17.177778	-8.323459	-0.148817	-0.948683	-0.279022
4.439348	17.177778	-8.323459	0.148817	-0.948683	-0.279022
-3.840713	17.088888	-8.323262	-0.132495	-0.948683	-0.287132
3.840713	17.088888	-8.323262	0.132495	-0.948683	-0.287132
-3.512669	17.044445	-8.322395	-0.122967	-0.948683	-0.291340
3.512669	17.044445	-8.322395	0.122967	-0.948683	-0.291340
-4.006193	17.111111	-8.318946	-0.137206	-0.948683	-0.284911
4.006193	17.111111	-8.318946	0.137206	-0.948683	-0.284911
-3.350223	17.022223	-8.317278	-0.118152	-0.948683	-0.293326
3.350223	17.022223	-8.317278	0.118152	-0.948683	-0.293326
-4.172565	17.133333	-8.311419	-0.141880	-0.948683	-0.282613
4.172565	17.133333	-8.311419	0.141880	-0.948683	-0.282613
-3.188905	17.000000	-8.309085	-0.113306	-0.948683	-0.295232
3.188905	17.000000	-8.309085	0.113306	-0.948683	-0.295232
-4.608162	17.200001	-8.307517	-0.153393	-0.948683	-0.276533
4.608162	17.200001	-8.307517	0.153393	-0.948683	-0.276533
-4.339767	17.155556	-8.300654	-0.146515	-0.948683	-0.280238
4.339767	17.155556	-8.300654	0.146515	-0.948683	-0.280238
-3.744610	17.066668	-8.293847	-0.130126	-0.948683	-0.288214
3.744610	17.066668	-8.293847	0.130126	-0.948683	-0.288214
-3.581083	17.044445	-8.293187	-0.125362	-0.948683	-0.290318
3.581083	17.044445	-8.293187	0.125362	-0.948683	-0.290318
-3.909123	17.088888	-8.291353	-0.134855	-0.948683	-0.286032
3.909123	17.088888	-8.291353	0.134855	-0.948683	-0.286032
-3.418600	17.022223	-8.289408	-0.120564	-0.948683	-0.292343
3.418600	17.022223	-8.289408	0.120564	-0.948683	-0.292343
-4.507739	17.177778	-8.286620	-0.151110	-0.948683	-0.277787
4.507739	17.177778	-8.286620	0.151110	-0.948683	-0.277787
-4.074562	17.111111	-8.285674	-0.139548	-0.948683	-0.283772
4.074562	17.111111	-8.285674	0.139548	-0.948683	-0.283772
-3.257220	17.000000	-8.282543	-0.115733	-0.948683	-0.294289
3.257220	17.000000	-8.282543	0.115733	-0.948683	-0.294289
-4.240866	17.133333	-8.276778	-0.144202	-0.948683	-0.281435
4.240866	17.133333	-8.276778	0.144202	-0.948683	-0.281435
-4.676416	17.200001	-8.269288	-0.155664	-0.948683	-0.275261
4.676416	17.200001	-8.269288	0.155664	-0.948683	-0.275261
-4.407974	17.155556	-8.264636	-0.148817	-0.948683	-0.279022
4.407974	17.155556	-8.264636	0.148817	-0.948683	-0.279022
-3.649253	17.044445	-8.263417	-0.127749	-0.948683	-0.289275
3.649253	17.044445	-8.263417	0.127749	-0.948683	-0.289275
-3.812781	17.066668	-8.262730	-0.132495	-0.948683	-0.287132
3.812781	17.066668	-8.262730	0.132495	-0.948683	-0.287132
-3.486745	17.022223	-8.260976	-0.122967	-0.948683	-0.291340
3.486745	17.022223	-8.260976	0.122967	-0.948683	-0.291340
-3.977268	17.088888	-8.258882	-0.137206	-0.948683	-0.284911
3.977268	17.088888	-8.258882	0.137206	-0.948683	-0.284911
-3.325314	17.000000	-8.255440	-0.118152	-0.948683	-0.293326
3.325314	17.000000	-8.255440	0.118152	-0.948683	-0.293326
-4.142654	17.111111	-8.251840	-0.141880	-0.948683	-0.282613
4.142654	17.111111	-8.251840	0.141880	-0.948683	-0.282613
-4.575824	17.177778	-8.249219	-0.153393	-0.948683	-0.276533
4.575824	17.177778	-8.249219	0.153393	-0.948683	-0.276533
-4.308879	17.133333	-8.241575	-0.146515	-0.948683	-0.280238
4.308879	17.133333	-8.241575	0.146515	-0.948683	-0.280238
-3.717177	17.044445	-8.233087	-0.130126	-0.948683	-0.288214
3.717177	17.044445	-8.233087	0.130126	-0.948683	-0.288214
-3.554654	17.022223	-8.231983	-0.125362	-0.948683	-0.290318
3.554654	17.022223	-8.231983	0.125362	-0.948683	-0.290318
-3.880693	17.066668	-8.231052	-0.134855	-0.948683	-0.286032
3.880693	17.066668	-8.231052	0.134855	-0.948683	-0.286032
-4.744353	17.200001	-8.230499	-0.157926	-0.948683	-0.273970
4.744353	17.200001	-8.230499	0.157926	-0.948683	-0.273970
-4.475882	17.155556	-8.228057	-0.151110	-0.948683	-0.277787
4.475882	17.155556	-8.228057	0.151110	-0.948683	-0.277787
-3.393183	17.000000	-8.227777	-0.120564	-0.948683	-0.292343
