5.058500	11.590909	7.498788	0.109674	0.980581	0.162583
-5.058500	11.590909	7.498788	-0.109674	0.980581	0.162583
3.342246	11.757576	7.501222	0.079817	0.980581	0.179139
-3.342246	11.757576	7.501222	-0.079817	0.980581	0.179139
0.655444	11.893939	7.501724	0.017070	0.980581	0.195372
-0.655444	11.893939	7.501724	-0.017070	0.980581	0.195372
5.823552	11.500000	7.505748	0.120220	0.980581	0.154947
-5.823552	11.500000	7.505748	-0.120220	0.980581	0.154947
1.225690	11.878788	7.506653	0.031603	0.980581	0.193553
-1.225690	11.878788	7.506653	-0.031603	0.980581	0.193553
-0.593157	11.893939	7.506906	-0.015448	0.980581	0.195507
0.593157	11.893939	7.506906	0.015448	0.980581	0.195507
4.623858	11.636364	7.508679	0.102834	0.980581	0.166993
-4.623858	11.636364	7.508679	-0.102834	0.980581	0.166993
2.484589	11.818182	7.508697	0.061609	0.980581	0.186188
-2.484589	11.818182	7.508697	-0.061609	0.980581	0.186188
1.942948	11.848485	7.510322	0.049119	0.980581	0.189865
-1.942948	11.848485	7.510322	-0.049119	0.980581	0.189865
1.613767	11.863636	7.510398	0.041199	0.980581	0.191740
-1.613767	11.863636	7.510398	-0.041199	0.980581	0.191740
5.437912	11.545455	7.510831	0.115011	0.980581	0.158852
-5.437912	11.545455	7.510831	-0.115011	0.980581	0.158852
-0.530829	11.893939	7.511570	-0.013825	0.980581	0.195628
0.530829	11.893939	7.511570	0.013825	0.980581	0.195628
3.125346	11.772727	7.512165	0.075332	0.980581	0.181071
-3.125346	11.772727	7.512165	-0.075332	0.980581	0.181071
3.498279	11.742424	7.513387	0.082780	0.980581	0.177789
-3.498279	11.742424	7.513387	-0.082780	0.980581	0.177789
2.212576	11.833333	7.514361	0.055394	0.980581	0.188130
-2.212576	11.833333	7.514361	-0.055394	0.980581	0.188130
-0.468465	11.893939	7.515717	-0.012201	0.980581	0.195736
0.468465	11.893939	7.515717	0.012201	0.980581	0.195736
2.696351	11.803030	7.515816	0.066225	0.980581	0.184596
-2.696351	11.803030	7.515816	-0.066225	0.980581	0.184596
1.163342	11.878788	7.516568	0.029996	0.980581	0.193809
-1.163342	11.878788	7.516568	-0.029996	0.980581	0.193809
2.909992	11.787879	7.517002	0.070801	0.980581	0.182890
-2.909992	11.787879	7.517002	-0.070801	0.980581	0.182890
4.892009	11.606061	7.518225	0.106960	0.980581	0.164381
-4.892009	11.606061	7.518225	-0.106960	0.980581	0.164381
5.163451	11.575758	7.518995	0.111020	0.980581	0.161667
-5.163451	11.575758	7.518995	-0.111020	0.980581	0.161667
4.459933	11.651515	7.519240	0.100048	0.980581	0.168677
-4.459933	11.651515	7.519240	-0.100048	0.980581	0.168677
-0.406068	11.893939	7.519347	-0.010575	0.980581	0.195831
0.406068	11.893939	7.519347	0.010575	0.980581	0.195831
3.655627	11.727273	7.522420	0.085720	0.980581	0.176391
-3.655627	11.727273	7.522420	-0.085720	0.980581	0.176391
-0.343644	11.893939	7.522458	-0.008950	0.980581	0.195912
0.343644	11.893939	7.522458	0.008950	0.980581	0.195912
1.551375	11.863636	7.523534	0.039606	0.980581	0.192075
-1.551375	11.863636	7.523534	-0.039606	0.980581	0.192075
-0.281195	11.893939	7.525051	-0.007323	0.980581	0.195979
0.281195	11.893939	7.525051	0.007323	0.980581	0.195979
1.100915	11.878788	7.525965	0.028386	0.980581	0.194051
-1.100915	11.878788	7.525965	-0.028386	0.980581	0.194051
1.880545	11.848485	7.526190	0.047541	0.980581	0.190267
-1.880545	11.848485	7.526190	-0.047541	0.980581	0.190267
5.545000	11.530303	7.526430	0.116325	0.980581	0.157892
-5.545000	11.530303	7.526430	-0.116325	0.980581	0.157892
4.296943	11.666667	7.526446	0.097235	0.980581	0.170314
-4.296943	11.666667	7.526446	-0.097235	0.980581	0.170314
-0.218727	11.893939	7.527126	-0.005696	0.980581	0.196033
0.218727	11.893939	7.527126	0.005696	0.980581	0.196033
3.814231	11.712121	7.528281	0.088636	0.980581	0.174944
-3.814231	11.712121	7.528281	-0.088636	0.980581	0.174944
-0.156245	11.893939	7.528682	-0.004069	0.980581	0.196074
0.156245	11.893939	7.528682	0.004069	0.980581	0.196074
3.279871	11.757576	7.528704	0.078328	0.980581	0.179795
-3.279871	11.757576	7.528704	-0.078328	0.980581	0.179795
2.422182	11.818182	7.529061	0.060061	0.980581	0.186693
-2.422182	11.818182	7.529061	-0.060061	0.980581	0.186693
-0.093751	11.893939	7.529719	-0.002442	0.980581	0.196101
0.093751	11.893939	7.529719	0.002442	0.980581	0.196101
0.031251	11.893939	7.530238	0.000814	0.980581	0.196114
-0.031251	11.893939	7.530238	-0.000814	0.980581	0.196114
4.134953	11.681818	7.530331	0.094394	0.980581	0.171905
-4.134953	11.681818	7.530331	-0.094394	0.980581	0.171905
3.974027	11.696970	7.530931	0.091528	0.980581	0.173448
-3.974027	11.696970	7.530931	-0.091528	0.980581	0.173448
2.150130	11.833333	7.532466	0.053831	0.980581	0.188584
-2.150130	11.833333	7.532466	-0.053831	0.980581	0.188584
4.726279	11.621212	7.534218	0.104217	0.980581	0.166134
-4.726279	11.621212	7.534218	-0.104217	0.980581	0.166134
1.038411	11.878788	7.534843	0.026775	0.980581	0.194280
-1.038411	11.878788	7.534843	-0.026775	0.980581	0.194280
1.488876	11.863636	7.536151	0.038011	0.980581	0.192397
-1.488876	11.863636	7.536151	-0.038011	0.980581	0.192397
3.062888	11.772727	7.537847	0.073827	0.980581	0.181690
-3.062888	11.772727	7.537847	-0.073827	0.980581	0.181690
2.633877	11.803030	7.537937	0.064691	0.980581	0.185140
-2.633877	11.803030	7.537937	-0.064691	0.980581	0.185140
5.269084	11.560606	7.537971	0.112358	0.980581	0.160740
-5.269084	11.560606	7.537971	-0.112358	0.980581	0.160740
4.996086	11.590909	7.540516	0.108321	0.980581	0.163487
-4.996086	11.590909	7.540516	-0.108321	0.980581	0.163487
5.652718	11.515152	7.540764	0.117632	0.980581	0.156921
-5.652718	11.515152	7.540764	-0.117632	0.980581	0.156921
2.847500	11.787879	7.540896	0.069280	0.980581	0.183471
-2.847500	11.787879	7.540896	-0.069280	0.980581	0.183471
1.818013	11.848485	7.541539	0.045960	0.980581	0.190655
-1.818013	11.848485	7.541539	-0.045960	0.980581	0.190655
3.435797	11.742424	7.542164	0.081301	0.980581	0.178470
-3.435797	11.742424	7.542164	-0.081301	0.980581	0.178470
0.975836	11.878788	7.543202	0.025161	0.980581	0.194495
-0.975836	11.878788	7.543202	-0.025161	0.980581	0.194495
4.561377	11.636364	7.546799	0.101445	0.980581	0.167841
-4.561377	11.636364	7.546799	-0.101445	0.980581	0.167841
1.426275	11.863636	7.548250	0.036413	0.980581	0.192706
-1.426275	11.863636	7.548250	-0.036413	0.980581	0.192706
2.359607	11.818182	7.548905	0.058509	0.980581	0.187185
-2.359607	11.818182	7.548905	-0.058509	0.980581	0.187185
2.087537	11.833333	7.550053	0.052264	0.980581	0.189024
-2.087537	11.833333	7.550053	-0.052264	0.980581	0.189024
0.913194	11.878788	7.551042	0.023546	0.980581	0.194698
-0.913194	11.878788	7.551042	-0.023546	0.980581	0.194698
3.593066	11.727273	7.552503	0.084253	0.980581	0.177096
-3.593066	11.727273	7.552503	-0.084253	0.980581	0.177096
5.761053	11.500000	7.553825	0.118930	0.980581	0.155940
-5.761053	11.500000	7.553825	-0.118930	0.980581	0.155940
3.217269	11.757576	7.555667	0.076833	0.980581	0.180439
-3.217269	11.757576	7.555667	-0.076833	0.980581	0.180439
5.375384	11.545455	7.555707	0.113688	0.980581	0.159802
-5.375384	11.545455	7.555707	-0.113688	0.980581	0.159802
4.397370	11.651515	7.555999	0.098645	0.980581	0.169501
-4.397370	11.651515	7.555999	-0.098645	0.980581	0.169501
1.755355	11.848485	7.556369	0.044376	0.980581	0.191030
-1.755355	11.848485	7.556369	-0.044376	0.980581	0.191030
0.850488	11.878788	7.558362	0.021929	0.980581	0.194886
-0.850488	11.878788	7.558362	-0.021929	0.980581	0.194886
4.829439	11.606061	7.558570	0.105592	0.980581	0.165263
-4.829439	11.606061	7.558570	-0.105592	0.980581	0.165263
2.571221	11.803030	7.559539	0.063152	0.980581	0.185670
-2.571221	11.803030	7.559539	-0.063152	0.980581	0.185670
3.751615	11.712121	7.559680	0.087181	0.980581	0.175673
-3.751615	11.712121	7.559680	-0.087181	0.980581	0.175673
1.363575	11.863636	7.559828	0.034812	0.980581	0.193002
-1.363575	11.863636	7.559828	-0.034812	0.980581	0.193002
5.100866	11.575758	7.561593	0.109674	0.980581	0.162583
-5.100866	11.575758	7.561593	-0.109674	0.980581	0.162583
4.234325	11.666667	7.561852	0.095818	0.980581	0.171116
-4.234325	11.666667	7.561852	-0.095818	0.980581	0.171116
3.000218	11.772727	7.563009	0.072316	0.980581	0.182296
-3.000218	11.772727	7.563009	-0.072316	0.980581	0.182296
3.911383	11.696970	7.563655	0.090085	0.980581	0.174202
-3.911383	11.696970	7.563655	-0.090085	0.980581	0.174202
2.784813	11.787879	7.564270	0.067755	0.980581	0.184040
-2.784813	11.787879	7.564270	-0.067755	0.980581	0.184040
4.072308	11.681818	7.564392	0.092964	0.980581	0.172682
-4.072308	11.681818	7.564392	-0.092964	0.980581	0.172682
0.787724	11.878788	7.565160	0.020311	0.980581	0.195062
-0.787724	11.878788	7.565160	-0.020311	0.980581	0.195062
2.024799	11.833333	7.567120	0.050693	0.980581	0.189451
-2.024799	11.833333	7.567120	-0.050693	0.980581	0.189451
2.296870	11.818182	7.568230	0.056954	0.980581	0.187664
-2.296870	11.818182	7.568230	-0.056954	0.980581	0.187664
3.373079	11.742424	7.570421	0.079817	0.980581	0.179139
-3.373079	11.742424	7.570421	-0.079817	0.980581	0.179139
1.692577	11.848485	7.570678	0.042789	0.980581	0.191391
-1.692577	11.848485	7.570678	-0.042789	0.980581	0.191391
1.300781	11.863636	7.570885	0.033209	0.980581	0.193284
-1.300781	11.863636	7.570885	-0.033209	0.980581	0.193284
-0.724906	11.878788	7.571438	-0.018691	0.980581	0.195223
0.724906	11.878788	7.571438	0.018691	0.980581	0.195223
5.482339	11.530303	7.572195	0.115011	0.980581	0.158852
-5.482339	11.530303	7.572195	-0.115011	0.980581	0.158852
4.663582	11.621212	7.573187	0.102834	0.980581	0.166993
-4.663582	11.621212	7.573187	-0.102834	0.980581	0.166993
-0.662038	11.878788	7.577194	-0.017070	0.980581	0.195372
0.662038	11.878788	7.577194	0.017070	0.980581	0.195372
2.508388	11.803030	7.580620	0.061609	0.980581	0.186188
-2.508388	11.803030	7.580620	-0.061609	0.980581	0.186188
1.237898	11.863636	7.581421	0.031603	0.980581	0.193553
-1.237898	11.863636	7.581421	-0.031603	0.980581	0.193553
5.206337	11.560606	7.581445	0.111020	0.980581	0.161667
-5.206337	11.560606	7.581445	-0.111020	0.980581	0.161667
4.933327	11.590909	7.581724	0.106960	0.980581	0.164381
-4.933327	11.590909	7.581724	-0.106960	0.980581	0.164381
3.530256	11.727273	7.582065	0.082780	0.980581	0.177789
-3.530256	11.727273	7.582065	-0.082780	0.980581	0.177789
3.154446	11.757576	7.582111	0.075332	0.980581	0.181071
-3.154446	11.757576	7.582111	-0.075332	0.980581	0.181071
0.599125	11.878788	7.582428	0.015448	0.980581	0.195507
-0.599125	11.878788	7.582428	-0.015448	0.980581	0.195507
1.961922	11.833333	7.583665	0.049119	0.980581	0.189865
-1.961922	11.833333	7.583665	-0.049119	0.980581	0.189865
4.498581	11.636364	7.584398	0.100048	0.980581	0.168677
-4.498581	11.636364	7.584398	-0.100048	0.980581	0.168677
1.629682	11.848485	7.584466	0.041199	0.980581	0.191740
-1.629682	11.848485	7.584466	-0.041199	0.980581	0.191740
2.233974	11.818182	7.587034	0.055394	0.980581	0.188130
-2.233974	11.818182	7.587034	-0.055394	0.980581	0.188130
2.721933	11.787879	7.587124	0.066225	0.980581	0.184596
-2.721933	11.787879	7.587124	-0.066225	0.980581	0.184596
0.536170	11.878788	7.587139	0.013825	0.980581	0.195628
-0.536170	11.878788	7.587139	-0.013825	0.980581	0.195628
5.589935	11.515152	7.587422	0.116325	0.980581	0.157892
-5.589935	11.515152	7.587422	-0.116325	0.980581	0.157892
2.937341	11.772727	7.587650	0.070801	0.980581	0.182890
-2.937341	11.772727	7.587650	-0.070801	0.980581	0.182890
3.688740	11.712121	7.590558	0.085720	0.980581	0.176391
-3.688740	11.712121	7.590558	-0.085720	0.980581	0.176391
0.473178	11.878788	7.591328	0.012201	0.980581	0.195736
-0.473178	11.878788	7.591328	-0.012201	0.980581	0.195736
1.174929	11.863636	7.591434	0.029996	0.980581	0.193809
-1.174929	11.863636	7.591434	-0.029996	0.980581	0.193809
4.334504	11.651515	7.592237	0.097235	0.980581	0.170314
-4.334504	11.651515	7.592237	-0.097235	0.980581	0.170314
0.410154	11.878788	7.594994	0.010575	0.980581	0.195831
-0.410154	11.878788	7.594994	-0.010575	0.980581	0.195831
3.848470	11.696970	7.595860	0.088636	0.980581	0.174944
-3.848470	11.696970	7.595860	-0.088636	0.980581	0.174944
4.171416	11.666667	7.596736	0.094394	0.980581	0.171905
-4.171416	11.666667	7.596736	-0.094394	0.980581	0.171905
1.566674	11.848485	7.597731	0.039606	0.980581	0.192075
-1.566674	11.848485	7.597731	-0.039606	0.980581	0.192075
4.009383	11.681818	7.597932	0.091528	0.980581	0.173448
-4.009383	11.681818	7.597932	-0.091528	0.980581	0.173448
-0.347101	11.878788	7.598136	-0.008950	0.980581	0.195912
0.347101	11.878788	7.598136	0.008950	0.980581	0.195912
3.310128	11.742424	7.598157	0.078328	0.980581	0.179795
-3.310128	11.742424	7.598157	-0.078328	0.980581	0.179795
4.766537	11.606061	7.598394	0.104217	0.980581	0.166134
-4.766537	11.606061	7.598394	-0.104217	0.980581	0.166134
1.898910	11.833333	7.599688	0.047541	0.980581	0.190267
-1.898910	11.833333	7.599688	-0.047541	0.980581	0.190267
5.312487	11.545455	7.600063	0.112358	0.980581	0.160740
-5.312487	11.545455	7.600063	-0.112358	0.980581	0.160740
-0.284024	11.878788	7.600756	-0.007323	0.980581	0.195979
0.284024	11.878788	7.600756	0.007323	0.980581	0.195979
1.111880	11.863636	7.600924	0.028386	0.980581	0.194051
-1.111880	11.863636	7.600924	-0.028386	0.980581	0.194051
2.445383	11.803030	7.601178	0.060061	0.980581	0.186693
-2.445383	11.803030	7.601178	-0.060061	0.980581	0.186693
5.698158	11.500000	7.601381	0.117632	0.980581	0.156921
-5.698158	11.500000	7.601381	-0.117632	0.980581	0.156921
-0.220928	11.878788	7.602851	-0.005696	0.980581	0.196033
0.220928	11.878788	7.602851	0.005696	0.980581	0.196033
5.037929	11.575758	7.603669	0.108321	0.980581	0.163487
-5.037929	11.575758	7.603669	-0.108321	0.980581	0.163487
-0.157817	11.878788	7.604423	-0.004069	0.980581	0.196074
0.157817	11.878788	7.604423	0.004069	0.980581	0.196074
2.170924	11.818182	7.605314	0.053831	0.980581	0.188584
-2.170924	11.818182	7.605314	-0.053831	0.980581	0.188584
-0.094694	11.878788	7.605471	-0.002442	0.980581	0.196101
0.094694	11.878788	7.605471	0.002442	0.980581	0.196101
-0.031565	11.878788	7.605995	-0.000814	0.980581	0.196114
0.031565	11.878788	7.605995	0.000814	0.980581	0.196114
3.091406	11.757576	7.608031	0.073827	0.980581	0.181690
-3.091406	11.757576	7.608031	-0.073827	0.980581	0.181690
2.658866	11.787879	7.609455	0.064691	0.980581	0.185140
-2.658866	11.787879	7.609455	-0.064691	0.980581	0.185140
1.048754	11.863636	7.609891	0.026775	0.980581	0.194280
-1.048754	11.863636	7.609891	-0.026775	0.980581	0.194280
1.503559	11.848485	7.610473	0.038011	0.980581	0.192397
-1.503559	11.848485	7.610473	-0.038011	0.980581	0.192397
3.467203	11.727273	7.611105	0.081301	0.980581	0.178470
-3.467203	11.727273	7.611105	-0.081301	0.980581	0.178470
4.600564	11.621212	7.611634	0.101445	0.980581	0.167841
-4.600564	11.621212	7.611634	-0.101445	0.980581	0.167841
2.874263	11.772727	7.611769	0.069280	0.980581	0.183471
-2.874263	11.772727	7.611769	-0.069280	0.980581	0.183471
1.835767	11.833333	7.615187	0.045960	0.980581	0.190655
-1.835767	11.833333	7.615187	-0.045960	0.980581	0.190655
5.419301	11.530303	7.617437	0.113688	0.980581	0.159802
-5.419301	11.530303	7.617437	-0.113688	0.980581	0.159802
0.985555	11.863636	7.618334	0.025161	0.980581	0.194495
-0.985555	11.863636	7.618334	-0.025161	0.980581	0.194495
3.625611	11.712121	7.620913	0.084253	0.980581	0.177096
-3.625611	11.712121	7.620913	-0.084253	0.980581	0.177096
2.382208	11.803030	7.621213	0.058509	0.980581	0.187185
-2.382208	11.803030	7.621213	-0.058509	0.980581	0.187185
4.435475	11.636364	7.621476	0.098645	0.980581	0.169501
-4.435475	11.636364	7.621476	-0.098645	0.980581	0.169501
4.870229	11.590909	7.622409	0.105592	0.980581	0.165263
-4.870229	11.590909	7.622409	-0.105592	0.980581	0.165263
1.440340	11.848485	7.622690	0.036413	0.980581	0.192706
-1.440340	11.848485	7.622690	-0.036413	0.980581	0.192706
2.107725	11.818182	7.623071	0.052264	0.980581	0.189024
-2.107725	11.818182	7.623071	-0.052264	0.980581	0.189024
5.143232	11.560606	7.624396	0.109674	0.980581	0.162583
-5.143232	11.560606	7.624396	-0.109674	0.980581	0.162583
3.246949	11.742424	7.625370	0.076833	0.980581	0.180439
-3.246949	11.742424	7.625370	-0.076833	0.980581	0.180439
0.922289	11.863636	7.626252	0.023546	0.980581	0.194698
-0.922289	11.863636	7.626252	-0.023546	0.980581	0.194698
3.785292	11.696970	7.627540	0.087181	0.980581	0.175673
-3.785292	11.696970	7.627540	-0.087181	0.980581	0.175673
4.271338	11.651515	7.627952	0.095818	0.980581	0.171116
-4.271338	11.651515	7.627952	-0.095818	0.980581	0.171116
1.772498	11.833333	7.630161	0.044376	0.980581	0.191030
-1.772498	11.833333	7.630161	-0.044376	0.980581	0.191030
3.946182	11.681818	7.630948	0.090085	0.980581	0.174202
-3.946182	11.681818	7.630948	-0.090085	0.980581	0.174202
4.108219	11.666667	7.631097	0.092964	0.980581	0.172682
-4.108219	11.666667	7.631097	-0.092964	0.980581	0.172682
2.595616	11.787879	7.631261	0.063152	0.980581	0.185670
-2.595616	11.787879	7.631261	-0.063152	0.980581	0.185670
3.028153	11.757576	7.633428	0.072316	0.980581	0.182296
-3.028153	11.757576	7.633428	-0.072316	0.980581	0.182296
5.526766	11.515152	7.633557	0.115011	0.980581	0.158852
-5.526766	11.515152	7.633557	-0.115011	0.980581	0.158852
0.858959	11.863636	7.633644	0.021929	0.980581	0.194886
-0.858959	11.863636	7.633644	-0.021929	0.980581	0.194886
1.377022	11.848485	7.634382	0.034812	0.980581	0.193002
-1.377022	11.848485	7.634382	-0.034812	0.980581	0.193002
2.810986	11.772727	7.635363	0.067755	0.980581	0.184040
-2.810986	11.772727	7.635363	-0.067755	0.980581	0.184040
4.703306	11.606061	7.637694	0.102834	0.980581	0.166993
-4.703306	11.606061	7.637694	-0.102834	0.980581	0.166993
3.403911	11.727273	7.639620	0.079817	0.980581	0.179139
-3.403911	11.727273	7.639620	-0.079817	0.980581	0.179139
2.044381	11.818182	7.640303	0.050693	0.980581	0.189451
-2.044381	11.818182	7.640303	-0.050693	0.980581	0.189451
0.795570	11.863636	7.640511	0.020311	0.980581	0.195062
-0.795570	11.863636	7.640511	-0.020311	0.980581	0.195062
2.318870	11.803030	7.640723	0.056954	0.980581	0.187664
-2.318870	11.803030	7.640723	-0.056954	0.980581	0.187664
5.249223	11.545455	7.643895	0.111020	0.980581	0.161667
-5.249223	11.545455	7.643895	-0.111020	0.980581	0.161667
1.709106	11.833333	7.644610	0.042789	0.980581	0.191391
-1.709106	11.833333	7.644610	-0.042789	0.980581	0.191391
4.974645	11.575758	7.645222	0.106960	0.980581	0.164381
-4.974645	11.575758	7.645222	-0.106960	0.980581	0.164381
1.313609	11.848485	7.645548	0.033209	0.980581	0.193284
-1.313609	11.848485	7.645548	-0.033209	0.980581	0.193284
0.732127	11.863636	7.646851	0.018691	0.980581	0.195223
-0.732127	11.863636	7.646851	-0.018691	0.980581	0.195223
5.634870	11.500000	7.648414	0.116325	0.980581	0.157892
-5.634870	11.500000	7.648414	-0.116325	0.980581	0.157892
4.537229	11.621212	7.649557	0.100048	0.980581	0.168677
-4.537229	11.621212	7.649557	-0.100048	0.980581	0.168677
3.562233	11.712121	7.650743	0.082780	0.980581	0.177789
-3.562233	11.712121	7.650743	-0.082780	0.980581	0.177789
3.183547	11.742424	7.652056	0.075332	0.980581	0.181071
-3.183547	11.742424	7.652056	-0.075332	0.980581	0.181071
2.532187	11.787879	7.652542	0.061609	0.980581	0.186188
-2.532187	11.787879	7.652542	-0.061609	0.980581	0.186188
0.668632	11.863636	7.652664	0.017070	0.980581	0.195372
-0.668632	11.863636	7.652664	-0.017070	0.980581	0.195372
1.250106	11.848485	7.656188	0.031603	0.980581	0.193553
-1.250106	11.848485	7.656188	-0.031603	0.980581	0.193553
1.980896	11.818182	7.657008	0.049119	0.980581	0.189865
-1.980896	11.818182	7.657008	-0.049119	0.980581	0.189865
-0.605092	11.863636	7.657950	-0.015448	0.980581	0.195507
0.605092	11.863636	7.657950	0.015448	0.980581	0.195507
4.372064	11.636364	7.658028	0.097235	0.980581	0.170314
-4.372064	11.636364	7.658028	-0.097235	0.980581	0.170314
2.964691	11.757576	7.658299	0.070801	0.980581	0.182890
-2.964691	11.757576	7.658299	-0.070801	0.980581	0.182890
2.747515	11.772727	7.658432	0.066225	0.980581	0.184596
-2.747515	11.772727	7.658432	-0.066225	0.980581	0.184596
1.645597	11.833333	7.658533	0.041199	0.980581	0.191740
-1.645597	11.833333	7.658533	-0.041199	0.980581	0.191740
3.721853	11.696970	7.658696	0.085720	0.980581	0.176391
-3.721853	11.696970	7.658696	-0.085720	0.980581	0.176391
2.255372	11.803030	7.659707	0.055394	0.980581	0.188130
-2.255372	11.803030	7.659707	-0.055394	0.980581	0.188130
5.355889	11.530303	7.662155	0.112358	0.980581	0.160740
-5.355889	11.530303	7.662155	-0.112358	0.980581	0.160740
4.806795	11.590909	7.662570	0.104217	0.980581	0.166134
-4.806795	11.590909	7.662570	-0.104217	0.980581	0.166134
-0.541510	11.863636	7.662708	-0.013825	0.980581	0.195628
0.541510	11.863636	7.662708	0.013825	0.980581	0.195628
4.207879	11.651515	7.663141	0.094394	0.980581	0.171905
-4.207879	11.651515	7.663141	-0.094394	0.980581	0.171905
3.882709	11.681818	7.663438	0.088636	0.980581	0.174944
-3.882709	11.681818	7.663438	-0.088636	0.980581	0.174944
4.044739	11.666667	7.664933	0.091528	0.980581	0.173448
-4.044739	11.666667	7.664933	-0.091528	0.980581	0.173448
1.186516	11.848485	7.666300	0.029996	0.980581	0.193809
-1.186516	11.848485	7.666300	-0.029996	0.980581	0.193809
5.079772	11.560606	7.666822	0.108321	0.980581	0.163487
-5.079772	11.560606	7.666822	-0.108321	0.980581	0.163487
-0.477891	11.863636	7.666939	-0.012201	0.980581	0.195736
0.477891	11.863636	7.666939	0.012201	0.980581	0.195736
3.340385	11.727273	7.667610	0.078328	0.980581	0.179795
-3.340385	11.727273	7.667610	-0.078328	0.980581	0.179795
-0.414239	11.863636	7.670641	-0.010575	0.980581	0.195831
0.414239	11.863636	7.670641	0.010575	0.980581	0.195831
1.581974	11.833333	7.671927	0.039606	0.980581	0.192075
-1.581974	11.833333	7.671927	-0.039606	0.980581	0.192075
1.917275	11.818182	7.673186	0.047541	0.980581	0.190267
-1.917275	11.818182	7.673186	-0.047541	0.980581	0.190267
2.468584	11.787879	7.673295	0.060061	0.980581	0.186693
-2.468584	11.787879	7.673295	-0.060061	0.980581	0.186693
-0.350558	11.863636	7.673815	-0.008950	0.980581	0.195912
0.350558	11.863636	7.673815	0.008950	0.980581	0.195912
1.122845	11.848485	7.675884	0.028386	0.980581	0.194051
-1.122845	11.848485	7.675884	-0.028386	0.980581	0.194051
-0.286853	11.863636	7.676461	-0.007323	0.980581	0.195979
0.286853	11.863636	7.676461	0.007323	0.980581	0.195979
4.639751	11.606061	7.676469	0.101445	0.980581	0.167841
-4.639751	11.606061	7.676469	-0.101445	0.980581	0.167841
2.191719	11.803030	7.678162	0.053831	0.980581	0.188584
-2.191719	11.803030	7.678162	-0.053831	0.980581	0.188584
3.119925	11.742424	7.678216	0.073827	0.980581	0.181690
-3.119925	11.742424	7.678216	-0.073827	0.980581	0.181690
0.223128	11.863636	7.678577	0.005696	0.980581	0.196033
-0.223128	11.863636	7.678577	-0.005696	0.980581	0.196033
5.463217	11.515152	7.679167	0.113688	0.980581	0.159802
-5.463217	11.515152	7.679167	-0.113688	0.980581	0.159802
3.498609	11.712121	7.680046	0.081301	0.980581	0.178470
-3.498609	11.712121	7.680046	-0.081301	0.980581	0.178470
-0.159388	11.863636	7.680164	-0.004069	0.980581	0.196074
0.159388	11.863636	7.680164	0.004069	0.980581	0.196074
2.683856	11.772727	7.680972	0.064691	0.980581	0.185140
-2.683856	11.772727	7.680972	-0.064691	0.980581	0.185140
-0.095637	11.863636	7.681223	-0.002442	0.980581	0.196101
0.095637	11.863636	7.681223	0.002442	0.980581	0.196101
-0.031880	11.863636	7.681752	-0.000814	0.980581	0.196114
0.031880	11.863636	7.681752	0.000814	0.980581	0.196114
2.901025	11.757576	7.682642	0.069280	0.980581	0.183471
-2.901025	11.757576	7.682642	-0.069280	0.980581	0.183471
1.518242	11.833333	7.684793	0.038011	0.980581	0.192397
-1.518242	11.833333	7.684793	-0.038011	0.980581	0.192397
1.059096	11.848485	7.684939	0.026775	0.980581	0.194280
-1.059096	11.848485	7.684939	-0.026775	0.980581	0.194280
4.911018	11.575758	7.686248	0.105592	0.980581	0.165263
-4.911018	11.575758	7.686248	-0.105592	0.980581	0.165263
4.473581	11.621212	7.686952	0.098645	0.980581	0.169501
-4.473581	11.621212	7.686952	-0.098645	0.980581	0.169501
5.185598	11.545455	7.687200	0.109674	0.980581	0.162583
-5.185598	11.545455	7.687200	-0.109674	0.980581	0.162583
1.853521	11.818182	7.688835	0.045960	0.980581	0.190655
-1.853521	11.818182	7.688835	-0.045960	0.980581	0.190655
3.658157	11.696970	7.689323	0.084253	0.980581	0.177096
-3.658157	11.696970	7.689323	-0.084253	0.980581	0.177096
0.995275	11.848485	7.693465	0.025161	0.980581	0.194495
-0.995275	11.848485	7.693465	-0.025161	0.980581	0.194495
2.404810	11.787879	7.693521	0.058509	0.980581	0.187185
-2.404810	11.787879	7.693521	-0.058509	0.980581	0.187185
4.308352	11.636364	7.694052	0.095818	0.980581	0.171116
-4.308352	11.636364	7.694052	-0.095818	0.980581	0.171116
5.571194	11.500000	7.694921	0.115011	0.980581	0.158852
-5.571194	11.500000	7.694921	-0.115011	0.980581	0.158852
3.276628	11.727273	7.695071	0.076833	0.980581	0.180439
-3.276628	11.727273	7.695071	-0.076833	0.980581	0.180439
3.818969	11.681818	7.695401	0.087181	0.980581	0.175673
-3.818969	11.681818	7.695401	-0.087181	0.980581	0.175673
2.127914	11.803030	7.696089	0.052264	0.980581	0.189024
-2.127914	11.803030	7.696089	-0.052264	0.980581	0.189024
1.454406	11.833333	7.697130	0.036413	0.980581	0.192706
-1.454406	11.833333	7.697130	-0.036413	0.980581	0.192706
4.144130	11.651515	7.697803	0.092964	0.980581	0.172682
-4.144130	11.651515	7.697803	-0.092964	0.980581	0.172682
3.980981	11.666667	7.698240	0.090085	0.980581	0.174202
-3.980981	11.666667	7.698240	-0.090085	0.980581	0.174202
0.931385	11.848485	7.701461	0.023546	0.980581	0.194698
-0.931385	11.848485	7.701461	-0.023546	0.980581	0.194698
4.743030	11.590909	7.702202	0.102834	0.980581	0.166993
-4.743030	11.590909	7.702202	-0.102834	0.980581	0.166993
2.620011	11.772727	7.702983	0.063152	0.980581	0.185670
-2.620011	11.772727	7.702983	-0.063152	0.980581	0.185670
3.056088	11.742424	7.703847	0.072316	0.980581	0.182296
-3.056088	11.742424	7.703847	-0.072316	0.980581	0.182296
1.789640	11.818182	7.703954	0.044376	0.980581	0.191030
-1.789640	11.818182	7.703954	-0.044376	0.980581	0.191030
5.292109	11.530303	7.706345	0.111020	0.980581	0.161667
-5.292109	11.530303	7.706345	-0.111020	0.980581	0.161667
2.837159	11.757576	7.706456	0.067755	0.980581	0.184040
-2.837159	11.757576	7.706456	-0.067755	0.980581	0.184040
5.015962	11.560606	7.708721	0.106960	0.980581	0.164381
-5.015962	11.560606	7.708721	-0.106960	0.980581	0.164381
3.434744	11.712121	7.708820	0.079817	0.980581	0.179139
-3.434744	11.712121	7.708820	-0.079817	0.980581	0.179139
0.867430	11.848485	7.708926	0.021929	0.980581	0.194886
-0.867430	11.848485	7.708926	-0.021929	0.980581	0.194886
1.390470	11.833333	7.708937	0.034812	0.980581	0.193002
-1.390470	11.833333	7.708937	-0.034812	0.980581	0.193002
-2.340871	11.787879	7.713215	-0.056954	0.980581	0.187664
2.340871	11.787879	7.713215	0.056954	0.980581	0.187664
2.063963	11.803030	7.713486	0.050693	0.980581	0.189451
-2.063963	11.803030	7.713486	-0.050693	0.980581	0.189451
4.575876	11.606061	7.714715	0.100048	0.980581	0.168677
-4.575876	11.606061	7.714715	-0.100048	0.980581	0.168677
0.803416	11.848485	7.715860	0.020311	0.980581	0.195062
-0.803416	11.848485	7.715860	-0.020311	0.980581	0.195062
1.725635	11.818182	7.718543	0.042789	0.980581	0.191391
-1.725635	11.818182	7.718543	-0.042789	0.980581	0.191391
3.594210	11.696970	7.719421	0.082780	0.980581	0.177789
-3.594210	11.696970	7.719421	-0.082780	0.980581	0.177789
1.326438	11.833333	7.720212	0.033209	0.980581	0.193284
-1.326438	11.833333	7.720212	-0.033209	0.980581	0.193284
3.212646	11.727273	7.722002	0.075332	0.980581	0.181071
-3.212646	11.727273	7.722002	-0.075332	0.980581	0.181071
-0.739347	11.848485	7.722263	-0.018691	0.980581	0.195223
0.739347	11.848485	7.722263	0.018691	0.980581	0.195223
4.409625	11.621212	7.723818	0.097235	0.980581	0.170314
-4.409625	11.621212	7.723818	-0.097235	0.980581	0.170314
5.399292	11.515152	7.724247	0.112358	0.980581	0.160740
-5.399292	11.515152	7.724247	-0.112358	0.980581	0.160740
2.555986	11.772727	7.724464	0.061609	0.980581	0.186188
-2.555986	11.772727	7.724464	-0.061609	0.980581	0.186188
4.847053	11.575758	7.726745	0.104217	0.980581	0.166134
-4.847053	11.575758	7.726745	-0.104217	0.980581	0.166134
3.754965	11.681818	7.726833	0.085720	0.980581	0.176391
-3.754965	11.681818	7.726833	-0.085720	0.980581	0.176391
-0.675226	11.848485	7.728134	-0.017070	0.980581	0.195372
0.675226	11.848485	7.728134	0.017070	0.980581	0.195372
2.992040	11.742424	7.728948	0.070801	0.980581	0.182890
-2.992040	11.742424	7.728948	-0.070801	0.980581	0.182890
4.244343	11.636364	7.729546	0.094394	0.980581	0.171905
-4.244343	11.636364	7.729546	-0.094394	0.980581	0.171905
2.773097	11.757576	7.729739	0.066225	0.980581	0.184596
-2.773097	11.757576	7.729739	-0.066225	0.980581	0.184596
5.121615	11.545455	7.729976	0.108321	0.980581	0.163487
-5.121615	11.545455	7.729976	-0.108321	0.980581	0.163487
1.999870	11.803030	7.730351	0.049119	0.980581	0.189865
-1.999870	11.803030	7.730351	-0.049119	0.980581	0.189865
1.262314	11.833333	7.730956	0.031603	0.980581	0.193553
-1.262314	11.833333	7.730956	-0.031603	0.980581	0.193553
3.916948	11.666667	7.731017	0.088636	0.980581	0.174944
-3.916948	11.666667	7.731017	-0.088636	0.980581	0.174944
4.080095	11.651515	7.731934	0.091528	0.980581	0.173448
-4.080095	11.651515	7.731934	-0.091528	0.980581	0.173448
2.276770	11.787879	7.732379	0.055394	0.980581	0.188130
-2.276770	11.787879	7.732379	-0.055394	0.980581	0.188130
1.661512	11.818182	7.732600	0.041199	0.980581	0.191740
-1.661512	11.818182	7.732600	-0.041199	0.980581	0.191740
-0.611059	11.848485	7.733472	-0.015448	0.980581	0.195507
0.611059	11.848485	7.733472	0.015448	0.980581	0.195507
3.370642	11.712121	7.737063	0.078328	0.980581	0.179795
-3.370642	11.712121	7.737063	-0.078328	0.980581	0.179795
-0.546851	11.848485	7.738277	-0.013825	0.980581	0.195628
0.546851	11.848485	7.738277	0.013825	0.980581	0.195628
5.507134	11.500000	7.740896	0.113688	0.980581	0.159802
-5.507134	11.500000	7.740896	-0.113688	0.980581	0.159802
1.198103	11.833333	7.741167	0.029996	0.980581	0.193809
-1.198103	11.833333	7.741167	-0.029996	0.980581	0.193809
4.678938	11.590909	7.741304	0.101445	0.980581	0.167841
-4.678938	11.590909	7.741304	-0.101445	0.980581	0.167841
-0.482604	11.848485	7.742549	-0.012201	0.980581	0.195736
0.482604	11.848485	7.742549	0.012201	0.980581	0.195736
2.491784	11.772727	7.745413	0.060061	0.980581	0.186693
-2.491784	11.772727	7.745413	-0.060061	0.980581	0.186693
1.597274	11.818182	7.746124	0.039606	0.980581	0.192075
-1.597274	11.818182	7.746124	-0.039606	0.980581	0.192075
-0.418324	11.848485	7.746289	-0.010575	0.980581	0.195831
0.418324	11.848485	7.746289	0.010575	0.980581	0.195831
1.935639	11.803030	7.746684	0.047541	0.980581	0.190267
-1.935639	11.803030	7.746684	-0.047541	0.980581	0.190267
3.148443	11.727273	7.748401	0.073827	0.980581	0.181690
-3.148443	11.727273	7.748401	-0.073827	0.980581	0.181690
3.530015	11.696970	7.748987	0.081301	0.980581	0.178470
-3.530015	11.696970	7.748987	-0.081301	0.980581	0.178470
-0.354015	11.848485	7.749494	-0.008950	0.980581	0.195912
0.354015	11.848485	7.749494	0.008950	0.980581	0.195912
5.227964	11.530303	7.750004	0.109674	0.980581	0.162583
-5.227964	11.530303	7.750004	-0.109674	0.980581	0.162583
4.951807	11.560606	7.750088	0.105592	0.980581	0.165263
-4.951807	11.560606	7.750088	-0.105592	0.980581	0.165263
1.133810	11.833333	7.750844	0.028386	0.980581	0.194051
-1.133810	11.833333	7.750844	-0.028386	0.980581	0.194051
2.212513	11.787879	7.751010	0.053831	0.980581	0.188584
-2.212513	11.787879	7.751010	-0.053831	0.980581	0.188584
-0.289682	11.848485	7.752165	-0.007323	0.980581	0.195979
0.289682	11.848485	7.752165	0.007323	0.980581	0.195979
4.511686	11.606061	7.752429	0.098645	0.980581	0.169501
-4.511686	11.606061	7.752429	-0.098645	0.980581	0.169501
2.708845	11.757576	7.752490	0.064691	0.980581	0.185140
-2.708845	11.757576	7.752490	-0.064691	0.980581	0.185140
2.927787	11.742424	7.753515	0.069280	0.980581	0.183471
-2.927787	11.742424	7.753515	-0.069280	0.980581	0.183471
-0.225329	11.848485	7.754303	-0.005696	0.980581	0.196033
0.225329	11.848485	7.754303	0.005696	0.980581	0.196033
-0.160960	11.848485	7.755906	-0.004069	0.980581	0.196074
0.160960	11.848485	7.755906	0.004069	0.980581	0.196074
0.096581	11.848485	7.756975	0.002442	0.980581	0.196101
-0.096581	11.848485	7.756975	-0.002442	0.980581	0.196101
0.032194	11.848485	7.757509	0.000814	0.980581	0.196114
-0.032194	11.848485	7.757509	-0.000814	0.980581	0.196114
3.690703	11.681818	7.757733	0.084253	0.980581	0.177096
-3.690703	11.681818	7.757733	-0.084253	0.980581	0.177096
1.532926	11.818182	7.759115	0.038011	0.980581	0.192397
-1.532926	11.818182	7.759115	-0.038011	0.980581	0.192397
1.069439	11.833333	7.759988	0.026775	0.980581	0.194280
-1.069439	11.833333	7.759988	-0.026775	0.980581	0.194280
4.345365	11.621212	7.760152	0.095818	0.980581	0.171116
-4.345365	11.621212	7.760152	-0.095818	0.980581	0.171116
1.871275	11.803030	7.762483	0.045960	0.980581	0.190655
-1.871275	11.803030	7.762483	-0.045960	0.980581	0.190655
3.852646	11.666667	7.763262	0.087181	0.980581	0.175673
-3.852646	11.666667	7.763262	-0.087181	0.980581	0.175673
4.180041	11.636364	7.764508	0.092964	0.980581	0.172682
-4.180041	11.636364	7.764508	-0.092964	0.980581	0.172682
3.306308	11.712121	7.764773	0.076833	0.980581	0.180439
-3.306308	11.712121	7.764773	-0.076833	0.980581	0.180439
4.015779	11.651515	7.765532	0.090085	0.980581	0.174202
-4.015779	11.651515	7.765532	-0.090085	0.980581	0.174202
2.427412	11.772727	7.765828	0.058509	0.980581	0.187185
-2.427412	11.772727	7.765828	-0.058509	0.980581	0.187185
4.782753	11.575758	7.766710	0.102834	0.980581	0.166993
-4.782753	11.575758	7.766710	-0.102834	0.980581	0.166993
1.004994	11.833333	7.768597	0.025161	0.980581	0.194495
-1.004994	11.833333	7.768597	-0.025161	0.980581	0.194495
5.334995	11.515152	7.768795	0.111020	0.980581	0.161667
-5.334995	11.515152	7.768795	-0.111020	0.980581	0.161667
2.148103	11.787879	7.769107	0.052264	0.980581	0.189024
-2.148103	11.787879	7.769107	-0.052264	0.980581	0.189024
1.468472	11.818182	7.771571	0.036413	0.980581	0.192706
-1.468472	11.818182	7.771571	-0.036413	0.980581	0.192706
5.057280	11.545455	7.772219	0.106960	0.980581	0.164381
-5.057280	11.545455	7.772219	-0.106960	0.980581	0.164381
3.084023	11.727273	7.774266	0.072316	0.980581	0.182296
-3.084023	11.727273	7.774266	-0.072316	0.980581	0.182296
2.644406	11.757576	7.774706	0.063152	0.980581	0.185670
-2.644406	11.757576	7.774706	-0.063152	0.980581	0.185670
-0.940480	11.833333	7.776671	-0.023546	0.980581	0.194698
0.940480	11.833333	7.776671	0.023546	0.980581	0.194698
2.863332	11.742424	7.777549	0.067755	0.980581	0.184040
-2.863332	11.742424	7.777549	-0.067755	0.980581	0.184040
1.806782	11.803030	7.777747	0.044376	0.980581	0.191030
-1.806782	11.803030	7.777747	-0.044376	0.980581	0.191030
3.465576	11.696970	7.778019	0.079817	0.980581	0.179139
-3.465576	11.696970	7.778019	-0.079817	0.980581	0.179139
4.614524	11.590909	7.779872	0.100048	0.980581	0.168677
-4.614524	11.590909	7.779872	-0.100048	0.980581	0.168677
1.403917	11.818182	7.783491	0.034812	0.980581	0.193002
-1.403917	11.818182	7.783491	-0.034812	0.980581	0.193002
0.875901	11.833333	7.784209	0.021929	0.980581	0.194886
-0.875901	11.833333	7.784209	-0.021929	0.980581	0.194886
2.362871	11.772727	7.785708	0.056954	0.980581	0.187664
-2.362871	11.772727	7.785708	-0.056954	0.980581	0.187664
5.442695	11.500000	7.786339	0.112358	0.980581	0.160740
-5.442695	11.500000	7.786339	-0.112358	0.980581	0.160740
2.083545	11.787879	7.786669	0.050693	0.980581	0.189451
-2.083545	11.787879	7.786669	-0.050693	0.980581	0.189451
3.626187	11.681818	7.788099	0.082780	0.980581	0.177789
-3.626187	11.681818	7.788099	-0.082780	0.980581	0.177789
4.447186	11.606061	7.789609	0.097235	0.980581	0.170314
-4.447186	11.606061	7.789609	-0.097235	0.980581	0.170314
4.887311	11.560606	7.790921	0.104217	0.980581	0.166134
-4.887311	11.560606	7.790921	-0.104217	0.980581	0.166134
0.811262	11.833333	7.791211	0.020311	0.980581	0.195062
-0.811262	11.833333	7.791211	-0.020311	0.980581	0.195062
3.241746	11.712121	7.791948	0.075332	0.980581	0.181071
-3.241746	11.712121	7.791948	-0.075332	0.980581	0.181071
1.742164	11.803030	7.792475	0.042789	0.980581	0.191391
-1.742164	11.803030	7.792475	-0.042789	0.980581	0.191391
5.163458	11.530303	7.793129	0.108321	0.980581	0.163487
-5.163458	11.530303	7.793129	-0.108321	0.980581	0.163487
1.339266	11.818182	7.794876	0.033209	0.980581	0.193284
-1.339266	11.818182	7.794876	-0.033209	0.980581	0.193284
3.788078	11.666667	7.794971	0.085720	0.980581	0.176391
-3.788078	11.666667	7.794971	-0.085720	0.980581	0.176391
4.280806	11.621212	7.795951	0.094394	0.980581	0.171905
-4.280806	11.621212	7.795951	-0.094394	0.980581	0.171905
2.579784	11.757576	7.796387	0.061609	0.980581	0.186188
-2.579784	11.757576	7.796387	-0.061609	0.980581	0.186188
0.746567	11.833333	7.797676	0.018691	0.980581	0.195223
-0.746567	11.833333	7.797676	-0.018691	0.980581	0.195223
3.951187	11.651515	7.798596	0.088636	0.980581	0.174944
-3.951187	11.651515	7.798596	-0.088636	0.980581	0.174944
4.115451	11.636364	7.798935	0.091528	0.980581	0.173448
-4.115451	11.636364	7.798935	-0.091528	0.980581	0.173448
3.019390	11.727273	7.799596	0.070801	0.980581	0.182890
-3.019390	11.727273	7.799596	-0.070801	0.980581	0.182890
2.798679	11.742424	7.801047	0.066225	0.980581	0.184596
-2.798679	11.742424	7.801047	-0.066225	0.980581	0.184596
-0.681820	11.833333	7.803604	-0.017070	0.980581	0.195372
0.681820	11.833333	7.803604	0.017070	0.980581	0.195372
2.018844	11.787879	7.803694	0.049119	0.980581	0.189865
-2.018844	11.787879	7.803694	-0.049119	0.980581	0.189865
2.298168	11.772727	7.805052	0.055394	0.980581	0.188130
-2.298168	11.772727	7.805052	-0.055394	0.980581	0.188130
1.274522	11.818182	7.805723	0.031603	0.980581	0.193553
-1.274522	11.818182	7.805723	-0.031603	0.980581	0.193553
4.718125	11.575758	7.806139	0.101445	0.980581	0.167841
-4.718125	11.575758	7.806139	-0.101445	0.980581	0.167841
3.400899	11.696970	7.806516	0.078328	0.980581	0.179795
-3.400899	11.696970	7.806516	-0.078328	0.980581	0.179795
1.677426	11.803030	7.806667	0.041199	0.980581	0.191740
-1.677426	11.803030	7.806667	-0.041199	0.980581	0.191740
-0.617027	11.833333	7.808994	-0.015448	0.980581	0.195507
0.617027	11.833333	7.808994	0.015448	0.980581	0.195507
5.270330	11.515152	7.812808	0.109674	0.980581	0.162583
-5.270330	11.515152	7.812808	-0.109674	0.980581	0.162583
0.552191	11.833333	7.813847	0.013825	0.980581	0.195628
-0.552191	11.833333	7.813847	-0.013825	0.980581	0.195628
4.992596	11.545455	7.813927	0.105592	0.980581	0.165263
-4.992596	11.545455	7.813927	-0.105592	0.980581	0.165263
-1.209691	11.818182	7.816033	-0.029996	0.980581	0.193809
1.209691	11.818182	7.816033	0.029996	0.980581	0.193809
2.514985	11.757576	7.817531	0.060061	0.980581	0.186693
-2.514985	11.757576	7.817531	-0.060061	0.980581	0.186693
4.549792	11.590909	7.817905	0.098645	0.980581	0.169501
-4.549792	11.590909	7.817905	-0.098645	0.980581	0.169501
3.561420	11.681818	7.817928	0.081301	0.980581	0.178470
-3.561420	11.681818	7.817928	-0.081301	0.980581	0.178470
0.487317	11.833333	7.818161	0.012201	0.980581	0.195736
-0.487317	11.833333	7.818161	-0.012201	0.980581	0.195736
3.176962	11.712121	7.818586	0.073827	0.980581	0.181690
-3.176962	11.712121	7.818586	-0.073827	0.980581	0.181690
1.954004	11.787879	7.820181	0.047541	0.980581	0.190267
-1.954004	11.787879	7.820181	-0.047541	0.980581	0.190267
1.612573	11.803030	7.820321	0.039606	0.980581	0.192075
-1.612573	11.803030	7.820321	-0.039606	0.980581	0.192075
0.422409	11.833333	7.821936	0.010575	0.980581	0.195831
-0.422409	11.833333	7.821936	-0.010575	0.980581	0.195831
2.233307	11.772727	7.823858	0.053831	0.980581	0.188584
-2.233307	11.772727	7.823858	-0.053831	0.980581	0.188584
2.733834	11.742424	7.824007	0.064691	0.980581	0.185140
-2.733834	11.742424	7.824007	-0.064691	0.980581	0.185140
2.954549	11.727273	7.824389	0.069280	0.980581	0.183471
-2.954549	11.727273	7.824389	-0.069280	0.980581	0.183471
-0.357472	11.833333	7.825172	-0.008950	0.980581	0.195912
0.357472	11.833333	7.825172	0.008950	0.980581	0.195912
1.144776	11.818182	7.825804	0.028386	0.980581	0.194051
-1.144776	11.818182	7.825804	-0.028386	0.980581	0.194051
3.723249	11.666667	7.826144	0.084253	0.980581	0.177096
-3.723249	11.666667	7.826144	-0.084253	0.980581	0.177096
4.382379	11.606061	7.826252	0.095818	0.980581	0.171116
-4.382379	11.606061	7.826252	-0.095818	0.980581	0.171116
-0.292511	11.833333	7.827870	-0.007323	0.980581	0.195979
0.292511	11.833333	7.827870	0.007323	0.980581	0.195979
-0.227529	11.833333	7.830028	-0.005696	0.980581	0.196033
0.227529	11.833333	7.830028	0.005696	0.980581	0.196033
3.886323	11.651515	7.831122	0.087181	0.980581	0.175673
-3.886323	11.651515	7.831122	-0.087181	0.980581	0.175673
4.215952	11.621212	7.831213	0.092964	0.980581	0.172682
-4.215952	11.621212	7.831213	-0.092964	0.980581	0.172682
4.822477	11.560606	7.831217	0.102834	0.980581	0.166993
-4.822477	11.560606	7.831217	-0.102834	0.980581	0.166993
5.377881	11.500000	7.831245	0.111020	0.980581	0.161667
-5.377881	11.500000	7.831245	-0.111020	0.980581	0.161667
-0.162532	11.833333	7.831647	-0.004069	0.980581	0.196074
0.162532	11.833333	7.831647	0.004069	0.980581	0.196074
-0.097524	11.833333	7.832726	-0.002442	0.980581	0.196101
0.097524	11.833333	7.832726	0.002442	0.980581	0.196101
4.050579	11.636364	7.832825	0.090085	0.980581	0.174202
-4.050579	11.636364	7.832825	-0.090085	0.980581	0.174202
-0.032509	11.833333	7.833266	-0.000814	0.980581	0.196114
0.032509	11.833333	7.833266	0.000814	0.980581	0.196114
1.547609	11.803030	7.833436	0.038011	0.980581	0.192397
-1.547609	11.803030	7.833436	-0.038011	0.980581	0.192397
3.335988	11.696970	7.834475	0.076833	0.980581	0.180439
-3.335988	11.696970	7.834475	-0.076833	0.980581	0.180439
1.079782	11.818182	7.835036	0.026775	0.980581	0.194280
-1.079782	11.818182	7.835036	-0.026775	0.980581	0.194280
5.098598	11.530303	7.835718	0.106960	0.980581	0.164381
-5.098598	11.530303	7.835718	-0.106960	0.980581	0.164381
1.889029	11.787879	7.836131	0.045960	0.980581	0.190655
-1.889029	11.787879	7.836131	-0.045960	0.980581	0.190655
-2.450013	11.757576	7.838136	-0.058509	0.980581	0.187185
2.450013	11.757576	7.838136	0.058509	0.980581	0.187185
2.168292	11.772727	7.842125	0.052264	0.980581	0.189024
-2.168292	11.772727	7.842125	-0.052264	0.980581	0.189024
1.014714	11.818182	7.843729	0.025161	0.980581	0.194495
-1.014714	11.818182	7.843729	-0.025161	0.980581	0.194495
3.111958	11.712121	7.844686	0.072316	0.980581	0.182296
-3.111958	11.712121	7.844686	-0.072316	0.980581	0.182296
4.653172	11.575758	7.845031	0.100048	0.980581	0.168677
-4.653172	11.575758	7.845031	-0.100048	0.980581	0.168677
1.482538	11.803030	7.846011	0.036413	0.980581	0.192706
-1.482538	11.803030	7.846011	-0.036413	0.980581	0.192706
2.668801	11.742424	7.846428	0.063152	0.980581	0.185670
-2.668801	11.742424	7.846428	-0.063152	0.980581	0.185670
3.496409	11.681818	7.847219	0.079817	0.980581	0.179139
-3.496409	11.681818	7.847219	-0.079817	0.980581	0.179139
2.889505	11.727273	7.848641	0.067755	0.980581	0.184040
-2.889505	11.727273	7.848641	-0.067755	0.980581	0.184040
1.823924	11.787879	7.851540	0.044376	0.980581	0.191030
-1.823924	11.787879	7.851540	-0.044376	0.980581	0.191030
0.949576	11.818182	7.851881	0.023546	0.980581	0.194698
-0.949576	11.818182	7.851881	-0.023546	0.980581	0.194698
4.927568	11.545455	7.855096	0.104217	0.980581	0.166134
-4.927568	11.545455	7.855096	-0.104217	0.980581	0.166134
4.484746	11.590909	7.855399	0.097235	0.980581	0.170314
-4.484746	11.590909	7.855399	-0.097235	0.980581	0.170314
5.205302	11.515152	7.856283	0.108321	0.980581	0.163487
-5.205302	11.515152	7.856283	-0.108321	0.980581	0.163487
3.658164	11.666667	7.856777	0.082780	0.980581	0.177789
-3.658164	11.666667	7.856777	-0.082780	0.980581	0.177789
1.417365	11.803030	7.858046	0.034812	0.980581	0.193002
-1.417365	11.803030	7.858046	-0.034812	0.980581	0.193002
2.384872	11.757576	7.858201	0.056954	0.980581	0.187664
-2.384872	11.757576	7.858201	-0.056954	0.980581	0.187664
0.884372	11.818182	7.859491	0.021929	0.980581	0.194886
-0.884372	11.818182	7.859491	-0.021929	0.980581	0.194886
2.103128	11.772727	7.859851	0.050693	0.980581	0.189451
-2.103128	11.772727	7.859851	-0.050693	0.980581	0.189451
3.270847	11.696970	7.861893	0.075332	0.980581	0.181071
-3.270847	11.696970	7.861893	-0.075332	0.980581	0.181071
4.317269	11.606061	7.862356	0.094394	0.980581	0.171905
-4.317269	11.606061	7.862356	-0.094394	0.980581	0.171905
3.821190	11.651515	7.863109	0.085720	0.980581	0.176391
-3.821190	11.651515	7.863109	-0.085720	0.980581	0.176391
4.150808	11.621212	7.865936	0.091528	0.980581	0.173448
-4.150808	11.621212	7.865936	-0.091528	0.980581	0.173448
3.985426	11.636364	7.866175	0.088636	0.980581	0.174944
-3.985426	11.636364	7.866175	-0.088636	0.980581	0.174944
1.758693	11.787879	7.866407	0.042789	0.980581	0.191391
-1.758693	11.787879	7.866407	-0.042789	0.980581	0.191391
0.819108	11.818182	7.866561	0.020311	0.980581	0.195062
-0.819108	11.818182	7.866561	-0.020311	0.980581	0.195062
2.603583	11.742424	7.868309	0.061609	0.980581	0.186188
-2.603583	11.742424	7.868309	-0.061609	0.980581	0.186188
1.352094	11.803030	7.869539	0.033209	0.980581	0.193284
-1.352094	11.803030	7.869539	-0.033209	0.980581	0.193284
3.046740	11.712121	7.870245	0.070801	0.980581	0.182890
-3.046740	11.712121	7.870245	-0.070801	0.980581	0.182890
4.757312	11.560606	7.870974	0.101445	0.980581	0.167841
-4.757312	11.560606	7.870974	-0.101445	0.980581	0.167841
2.824261	11.727273	7.872354	0.066225	0.980581	0.184596
-2.824261	11.727273	7.872354	-0.066225	0.980581	0.184596
0.753787	11.818182	7.873088	0.018691	0.980581	0.195223
-0.753787	11.818182	7.873088	-0.018691	0.980581	0.195223
5.312696	11.500000	7.875612	0.109674	0.980581	0.162583
-5.312696	11.500000	7.875612	-0.109674	0.980581	0.162583
3.431156	11.681818	7.875969	0.078328	0.980581	0.179795
-3.431156	11.681818	7.875969	-0.078328	0.980581	0.179795
2.037818	11.772727	7.877037	0.049119	0.980581	0.189865
-2.037818	11.772727	7.877037	-0.049119	0.980581	0.189865
2.319567	11.757576	7.877725	0.055394	0.980581	0.188130
-2.319567	11.757576	7.877725	-0.055394	0.980581	0.188130
5.033385	11.530303	7.877766	0.105592	0.980581	0.165263
-5.033385	11.530303	7.877766	-0.105592	0.980581	0.165263
0.688414	11.818182	7.879074	0.017070	0.980581	0.195372
-0.688414	11.818182	7.879074	-0.017070	0.980581	0.195372
1.286730	11.803030	7.880490	0.031603	0.980581	0.193553
-1.286730	11.803030	7.880490	-0.031603	0.980581	0.193553
1.693341	11.787879	7.880734	0.041199	0.980581	0.191740
-1.693341	11.787879	7.880734	-0.041199	0.980581	0.191740
4.587897	11.575758	7.883382	0.098645	0.980581	0.169501
-4.587897	11.575758	7.883382	-0.098645	0.980581	0.169501
-0.622994	11.818182	7.884516	-0.015448	0.980581	0.195507
0.622994	11.818182	7.884516	0.015448	0.980581	0.195507
3.592826	11.666667	7.886869	0.081301	0.980581	0.178470
-3.592826	11.666667	7.886869	-0.081301	0.980581	0.178470
3.205480	11.696970	7.888771	0.073827	0.980581	0.181690
-3.205480	11.696970	7.888771	-0.073827	0.980581	0.181690
-0.557531	11.818182	7.889416	-0.013825	0.980581	0.195628
0.557531	11.818182	7.889416	0.013825	0.980581	0.195628
2.538186	11.742424	7.889648	0.060061	0.980581	0.186693
-2.538186	11.742424	7.889648	-0.060061	0.980581	0.186693
-1.221278	11.803030	7.890899	-0.029996	0.980581	0.193809
1.221278	11.803030	7.890899	0.029996	0.980581	0.193809
4.419392	11.590909	7.892352	0.095818	0.980581	0.171116
-4.419392	11.590909	7.892352	-0.095818	0.980581	0.171116
1.972369	11.772727	7.893680	0.047541	0.980581	0.190267
-1.972369	11.772727	7.893680	-0.047541	0.980581	0.190267
-0.492030	11.818182	7.893771	-0.012201	0.980581	0.195736
0.492030	11.818182	7.893771	0.012201	0.980581	0.195736
1.627873	11.787879	7.894517	0.039606	0.980581	0.192075
-1.627873	11.787879	7.894517	-0.039606	0.980581	0.192075
3.755795	11.651515	7.894554	0.084253	0.980581	0.177096
-3.755795	11.651515	7.894554	-0.084253	0.980581	0.177096
2.981311	11.712121	7.895261	0.069280	0.980581	0.183471
-2.981311	11.712121	7.895261	-0.069280	0.980581	0.183471
2.758823	11.727273	7.895525	0.064691	0.980581	0.185140
-2.758823	11.727273	7.895525	-0.064691	0.980581	0.185140
4.862201	11.545455	7.895725	0.102834	0.980581	0.166993
-4.862201	11.545455	7.895725	-0.102834	0.980581	0.166993
2.254102	11.757576	7.896706	0.053831	0.980581	0.188584
-2.254102	11.757576	7.896706	-0.053831	0.980581	0.188584
-0.426494	11.818182	7.897583	-0.010575	0.980581	0.195831
