6.800926	19.933332	6.046272	0.236334	0.948683	0.210110
-6.800926	19.933332	6.046272	-0.236334	0.948683	0.210110
-7.151816	19.844444	6.048634	-0.241452	0.948683	0.204208
7.151816	19.844444	6.048634	0.241452	0.948683	0.204208
6.701448	19.955555	6.057368	0.234596	0.948683	0.212049
-6.701448	19.955555	6.057368	-0.234596	0.948683	0.212049
7.051218	19.866667	6.063854	0.239762	0.948683	0.206189
-7.051218	19.866667	6.063854	-0.239762	0.948683	0.206189
6.602253	19.977777	6.067237	0.232842	0.948683	0.213973
-6.602253	19.977777	6.067237	-0.232842	0.948683	0.213973
7.303893	19.799999	6.074796	0.243126	0.948683	0.202213
-7.303893	19.799999	6.074796	-0.243126	0.948683	0.202213
-6.503353	20.000000	6.075887	-0.231072	0.948683	0.215884
6.503353	20.000000	6.075887	0.231072	0.948683	0.215884
6.950858	19.888889	6.077830	0.238056	0.948683	0.208157
-6.950858	19.888889	6.077830	-0.238056	0.948683	0.208157
6.850749	19.911112	6.090568	0.236334	0.948683	0.210110
-6.850749	19.911112	6.090568	-0.236334	0.948683	0.210110
-7.202719	19.822222	6.091685	-0.241452	0.948683	0.204208
7.202719	19.822222	6.091685	0.241452	0.948683	0.204208
6.750906	19.933332	6.102071	0.234596	0.948683	0.212049
-6.750906	19.933332	6.102071	-0.234596	0.948683	0.212049
-7.101764	19.844444	6.107322	-0.239762	0.948683	0.206189
7.101764	19.844444	6.107322	0.239762	0.948683	0.206189
6.651340	19.955555	6.112347	0.232842	0.948683	0.213973
-6.651340	19.955555	6.112347	-0.232842	0.948683	0.213973
-6.552067	19.977777	6.121399	-0.231072	0.948683	0.215884
6.552067	19.977777	6.121399	0.231072	0.948683	0.215884
7.001045	19.866667	6.121713	0.238056	0.948683	0.208157
-7.001045	19.866667	6.121713	-0.238056	0.948683	0.208157
-6.453099	20.000000	6.129235	-0.229286	0.948683	0.217779
6.453099	20.000000	6.129235	0.229286	0.948683	0.217779
7.253621	19.799999	6.134736	0.241452	0.948683	0.204208
-7.253621	19.799999	6.134736	-0.241452	0.948683	0.204208
6.900573	19.888889	6.134862	0.236334	0.948683	0.210110
-6.900573	19.888889	6.134862	-0.236334	0.948683	0.210110
6.800363	19.911112	6.146775	0.234596	0.948683	0.212049
-6.800363	19.911112	6.146775	-0.234596	0.948683	0.212049
-7.152311	19.822222	6.150791	-0.239762	0.948683	0.206189
7.152311	19.822222	6.150791	0.239762	0.948683	0.206189
6.700428	19.933332	6.157456	0.232842	0.948683	0.213973
-6.700428	19.933332	6.157456	-0.232842	0.948683	0.213973
7.051231	19.844444	6.165596	0.238056	0.948683	0.208157
-7.051231	19.844444	6.165596	-0.238056	0.948683	0.208157
-6.600781	19.955555	6.166912	-0.231072	0.948683	0.215884
6.600781	19.955555	6.166912	0.231072	0.948683	0.215884
-6.501436	19.977777	6.175147	-0.229286	0.948683	0.217779
6.501436	19.977777	6.175147	0.229286	0.948683	0.217779
6.950397	19.866667	6.179158	0.236334	0.948683	0.210110
-6.950397	19.866667	6.179158	-0.236334	0.948683	0.210110
-6.402407	20.000000	6.182167	-0.227485	0.948683	0.219660
6.402407	20.000000	6.182167	0.227485	0.948683	0.219660
6.849820	19.888889	6.191479	0.234596	0.948683	0.212049
-6.849820	19.888889	6.191479	-0.234596	0.948683	0.212049
-7.202857	19.799999	6.194259	-0.239762	0.948683	0.206189
7.202857	19.799999	6.194259	0.239762	0.948683	0.206189
-6.749515	19.911112	6.202566	-0.232842	0.948683	0.213973
6.749515	19.911112	6.202566	0.232842	0.948683	0.213973
7.101418	19.822222	6.209480	0.238056	0.948683	0.208157
-7.101418	19.822222	6.209480	-0.238056	0.948683	0.208157
-6.649495	19.933332	6.212424	-0.231072	0.948683	0.215884
6.649495	19.933332	6.212424	0.231072	0.948683	0.215884
-6.549774	19.955555	6.221058	-0.229286	0.948683	0.217779
6.549774	19.955555	6.221058	0.229286	0.948683	0.217779
7.000220	19.844444	6.223453	0.236334	0.948683	0.210110
-7.000220	19.844444	6.223453	-0.236334	0.948683	0.210110
-6.450365	19.977777	6.228475	-0.227485	0.948683	0.219660
6.450365	19.977777	6.228475	0.227485	0.948683	0.219660
-6.351281	20.000000	6.234679	-0.225669	0.948683	0.221526
6.351281	20.000000	6.234679	0.225669	0.948683	0.221526
6.899277	19.866667	6.236183	0.234596	0.948683	0.212049
-6.899277	19.866667	6.236183	-0.234596	0.948683	0.212049
-6.798602	19.888889	6.247675	-0.232842	0.948683	0.213973
6.798602	19.888889	6.247675	0.232842	0.948683	0.213973
7.151605	19.799999	6.253363	0.238056	0.948683	0.208157
-7.151605	19.799999	6.253363	-0.238056	0.948683	0.208157
-6.698209	19.911112	6.257936	-0.231072	0.948683	0.215884
6.698209	19.911112	6.257936	0.231072	0.948683	0.215884
-6.598112	19.933332	6.266970	-0.229286	0.948683	0.217779
6.598112	19.933332	6.266970	0.229286	0.948683	0.217779
7.050044	19.822222	6.267748	0.236334	0.948683	0.210110
-7.050044	19.822222	6.267748	-0.236334	0.948683	0.210110
-6.498323	19.955555	6.274783	-0.227485	0.948683	0.219660
6.498323	19.955555	6.274783	0.227485	0.948683	0.219660
6.948734	19.844444	6.280887	0.234596	0.948683	0.212049
-6.948734	19.844444	6.280887	-0.234596	0.948683	0.212049
-6.398857	19.977777	6.281381	-0.225669	0.948683	0.221526
6.398857	19.977777	6.281381	0.225669	0.948683	0.221526
-6.299725	20.000000	6.286769	-0.223837	0.948683	0.223377
6.299725	20.000000	6.286769	0.223837	0.948683	0.223377
6.847690	19.866667	6.292785	0.232842	0.948683	0.213973
-6.847690	19.866667	6.292785	-0.232842	0.948683	0.213973
-6.746924	19.888889	6.303449	-0.231072	0.948683	0.215884
6.746924	19.888889	6.303449	0.231072	0.948683	0.215884
7.099867	19.799999	6.312043	0.236334	0.948683	0.210110
-7.099867	19.799999	6.312043	-0.236334	0.948683	0.210110
-6.646450	19.911112	6.312882	-0.229286	0.948683	0.217779
6.646450	19.911112	6.312882	0.229286	0.948683	0.217779
-6.546281	19.933332	6.321092	-0.227485	0.948683	0.219660
6.546281	19.933332	6.321092	0.227485	0.948683	0.219660
6.998191	19.822222	6.325591	0.234596	0.948683	0.212049
-6.998191	19.822222	6.325591	-0.234596	0.948683	0.212049
-6.446432	19.955555	6.328083	-0.225669	0.948683	0.221526
6.446432	19.955555	6.328083	0.225669	0.948683	0.221526
-6.346914	19.977777	6.333861	-0.223837	0.948683	0.223377
6.346914	19.977777	6.333861	0.223837	0.948683	0.223377
6.896777	19.844444	6.337895	0.232842	0.948683	0.213973
-6.896777	19.844444	6.337895	-0.232842	0.948683	0.213973
-6.247741	20.000000	6.338432	-0.221990	0.948683	0.225212
6.247741	20.000000	6.338432	0.221990	0.948683	0.225212
-6.795638	19.866667	6.348961	-0.231072	0.948683	0.215884
6.795638	19.866667	6.348961	0.231072	0.948683	0.215884
-6.694788	19.888889	6.358794	-0.229286	0.948683	0.217779
6.694788	19.888889	6.358794	0.229286	0.948683	0.217779
-6.594240	19.911112	6.367400	-0.227485	0.948683	0.219660
6.594240	19.911112	6.367400	0.227485	0.948683	0.219660
7.047648	19.799999	6.370294	0.234596	0.948683	0.212049
-7.047648	19.799999	6.370294	-0.234596	0.948683	0.212049
-6.494007	19.933332	6.374784	-0.225669	0.948683	0.221526
6.494007	19.933332	6.374784	0.225669	0.948683	0.221526
6.394103	19.955555	6.380953	0.223837	0.948683	0.223377
-6.394103	19.955555	6.380953	-0.223837	0.948683	0.223377
-6.945865	19.822222	6.383004	-0.232842	0.948683	0.213973
6.945865	19.822222	6.383004	0.232842	0.948683	0.213973
-6.294541	19.977777	6.385911	-0.221990	0.948683	0.225212
6.294541	19.977777	6.385911	0.221990	0.948683	0.225212
-6.195334	20.000000	6.389666	-0.220128	0.948683	0.227033
6.195334	20.000000	6.389666	0.220128	0.948683	0.227033
-6.844352	19.844444	6.394473	-0.231072	0.948683	0.215884
6.844352	19.844444	6.394473	0.231072	0.948683	0.215884
-6.743125	19.866667	6.404706	-0.229286	0.948683	0.217779
6.743125	19.866667	6.404706	0.229286	0.948683	0.217779
-6.642198	19.888889	6.413708	-0.227485	0.948683	0.219660
6.642198	19.888889	6.413708	0.227485	0.948683	0.219660
-6.541582	19.911112	6.421486	-0.225669	0.948683	0.221526
6.541582	19.911112	6.421486	0.225669	0.948683	0.221526
-6.441292	19.933332	6.428045	-0.223837	0.948683	0.223377
6.441292	19.933332	6.428045	0.223837	0.948683	0.223377
6.994952	19.799999	6.428114	0.232842	0.948683	0.213973
-6.994952	19.799999	6.428114	-0.232842	0.948683	0.213973
-6.341341	19.955555	6.433390	-0.221990	0.948683	0.225212
6.341341	19.955555	6.433390	0.221990	0.948683	0.225212
-6.241741	19.977777	6.437529	-0.220128	0.948683	0.227033
6.241741	19.977777	6.437529	0.220128	0.948683	0.227033
-6.893066	19.822222	6.439985	-0.231072	0.948683	0.215884
6.893066	19.822222	6.439985	0.231072	0.948683	0.215884
-6.142507	20.000000	6.440466	-0.218251	0.948683	0.228838
6.142507	20.000000	6.440466	0.218251	0.948683	0.228838
-6.791463	19.844444	6.450618	-0.229286	0.948683	0.217779
6.791463	19.844444	6.450618	0.229286	0.948683	0.217779
-6.690156	19.866667	6.460017	-0.227485	0.948683	0.219660
6.690156	19.866667	6.460017	0.227485	0.948683	0.219660
-6.589157	19.888889	6.468188	-0.225669	0.948683	0.221526
6.589157	19.888889	6.468188	0.225669	0.948683	0.221526
-6.488481	19.911112	6.475137	-0.223837	0.948683	0.223377
6.488481	19.911112	6.475137	0.223837	0.948683	0.223377
-6.388140	19.933332	6.480869	-0.221990	0.948683	0.225212
6.388140	19.933332	6.480869	0.221990	0.948683	0.225212
-6.288148	19.955555	6.485392	-0.220128	0.948683	0.227033
6.288148	19.955555	6.485392	0.220128	0.948683	0.227033
-6.941781	19.799999	6.485497	-0.231072	0.948683	0.215884
6.941781	19.799999	6.485497	0.231072	0.948683	0.215884
-6.188518	19.977777	6.488710	-0.218251	0.948683	0.228838
6.188518	19.977777	6.488710	0.218251	0.948683	0.228838
6.089263	20.000000	6.490830	0.216359	0.948683	0.230627
-6.089263	20.000000	6.490830	-0.216359	0.948683	0.230627
-6.839801	19.822222	6.496530	-0.229286	0.948683	0.217779
6.839801	19.822222	6.496530	0.229286	0.948683	0.217779
-6.738114	19.844444	6.506325	-0.227485	0.948683	0.219660
6.738114	19.844444	6.506325	0.227485	0.948683	0.219660
-6.636732	19.866667	6.514890	-0.225669	0.948683	0.221526
6.636732	19.866667	6.514890	0.225669	0.948683	0.221526
6.535670	19.888889	6.522229	0.223837	0.948683	0.223377
-6.535670	19.888889	6.522229	-0.223837	0.948683	0.223377
-6.434940	19.911112	6.528348	-0.221990	0.948683	0.225212
6.434940	19.911112	6.528348	0.221990	0.948683	0.225212
-6.334555	19.933332	6.533254	-0.220128	0.948683	0.227033
6.334555	19.933332	6.533254	0.220128	0.948683	0.227033
6.234529	19.955555	6.536953	0.218251	0.948683	0.228838
-6.234529	19.955555	6.536953	-0.218251	0.948683	0.228838
6.134875	19.977777	6.539451	0.216359	0.948683	0.230627
-6.134875	19.977777	6.539451	-0.216359	0.948683	0.230627
6.035606	20.000000	6.540754	0.214452	0.948683	0.232401
-6.035606	20.000000	6.540754	-0.214452	0.948683	0.232401
-6.888139	19.799999	6.542441	-0.229286	0.948683	0.217779
6.888139	19.799999	6.542441	0.229286	0.948683	0.217779
-6.786072	19.822222	6.552633	-0.227485	0.948683	0.219660
6.786072	19.822222	6.552633	0.227485	0.948683	0.219660
-6.684308	19.844444	6.561591	-0.225669	0.948683	0.221526
6.684308	19.844444	6.561591	0.225669	0.948683	0.221526
6.582859	19.866667	6.569321	0.223837	0.948683	0.223377
-6.582859	19.866667	6.569321	-0.223837	0.948683	0.223377
-6.481739	19.888889	6.575827	-0.221990	0.948683	0.225212
6.481739	19.888889	6.575827	0.221990	0.948683	0.225212
-6.380962	19.911112	6.581117	-0.220128	0.948683	0.227033
6.380962	19.911112	6.581117	0.220128	0.948683	0.227033
-6.280540	19.933332	6.585196	-0.218251	0.948683	0.228838
6.280540	19.933332	6.585196	0.218251	0.948683	0.228838
6.180488	19.955555	6.588071	0.216359	0.948683	0.230627
-6.180488	19.955555	6.588071	-0.216359	0.948683	0.230627
6.080817	19.977777	6.589748	0.214452	0.948683	0.232401
-6.080817	19.977777	6.589748	-0.214452	0.948683	0.232401
5.981540	20.000000	6.590234	0.212531	0.948683	0.234159
-5.981540	20.000000	6.590234	-0.212531	0.948683	0.234159
-6.834030	19.799999	6.598942	-0.227485	0.948683	0.219660
6.834030	19.799999	6.598942	0.227485	0.948683	0.219660
-6.731883	19.822222	6.608293	-0.225669	0.948683	0.221526
6.731883	19.822222	6.608293	0.225669	0.948683	0.221526
6.630048	19.844444	6.616412	0.223837	0.948683	0.223377
-6.630048	19.844444	6.616412	-0.223837	0.948683	0.223377
-6.528539	19.866667	6.623306	-0.221990	0.948683	0.225212
6.528539	19.866667	6.623306	0.221990	0.948683	0.225212
-6.427369	19.888889	6.628980	-0.220128	0.948683	0.227033
6.427369	19.888889	6.628980	0.220128	0.948683	0.227033
-6.326552	19.911112	6.633440	-0.218251	0.948683	0.228838
6.326552	19.911112	6.633440	0.218251	0.948683	0.228838
6.226100	19.933332	6.636692	0.216359	0.948683	0.230627
-6.226100	19.933332	6.636692	-0.216359	0.948683	0.230627
6.126027	19.955555	6.638742	0.214452	0.948683	0.232401
-6.126027	19.955555	6.638742	-0.214452	0.948683	0.232401
5.927068	20.000000	6.639266	0.210596	0.948683	0.235901
-5.927068	20.000000	6.639266	-0.210596	0.948683	0.235901
6.026346	19.977777	6.639599	0.212531	0.948683	0.234159
-6.026346	19.977777	6.639599	-0.212531	0.948683	0.234159
-6.779458	19.799999	6.654994	-0.225669	0.948683	0.221526
6.779458	19.799999	6.654994	0.225669	0.948683	0.221526
6.677237	19.822222	6.663504	0.223837	0.948683	0.223377
-6.677237	19.822222	6.663504	-0.223837	0.948683	0.223377
-6.575338	19.844444	6.670785	-0.221990	0.948683	0.225212
6.575338	19.844444	6.670785	0.221990	0.948683	0.225212
-6.473776	19.866667	6.676842	-0.220128	0.948683	0.227033
6.473776	19.866667	6.676842	0.220128	0.948683	0.227033
-6.372563	19.888889	6.681683	-0.218251	0.948683	0.228838
6.372563	19.888889	6.681683	0.218251	0.948683	0.228838
-6.271713	19.911112	6.685312	-0.216359	0.948683	0.230627
6.271713	19.911112	6.685312	0.216359	0.948683	0.230627
6.171237	19.933332	6.687737	0.214452	0.948683	0.232401
-6.171237	19.933332	6.687737	-0.214452	0.948683	0.232401
5.872195	20.000000	6.687850	0.208646	0.948683	0.237627
-5.872195	20.000000	6.687850	-0.208646	0.948683	0.237627
6.071151	19.955555	6.688964	0.212531	0.948683	0.234159
-6.071151	19.955555	6.688964	-0.212531	0.948683	0.234159
5.971466	19.977777	6.688999	0.210596	0.948683	0.235901
-5.971466	19.977777	6.688999	-0.210596	0.948683	0.235901
6.724426	19.799999	6.710596	0.223837	0.948683	0.223377
-6.724426	19.799999	6.710596	-0.223837	0.948683	0.223377
-6.622138	19.822222	6.718264	-0.221990	0.948683	0.225212
6.622138	19.822222	6.718264	0.221990	0.948683	0.225212
-6.520183	19.844444	6.724705	-0.220128	0.948683	0.227033
6.520183	19.844444	6.724705	0.220128	0.948683	0.227033
-6.418574	19.866667	6.729926	-0.218251	0.948683	0.228838
6.418574	19.866667	6.729926	0.218251	0.948683	0.228838
6.317325	19.888889	6.733932	0.216359	0.948683	0.230627
-6.317325	19.888889	6.733932	-0.216359	0.948683	0.230627
5.816923	20.000000	6.735979	0.206682	0.948683	0.239337
-5.816923	20.000000	6.735979	-0.206682	0.948683	0.239337
-6.216448	19.911112	6.736732	-0.214452	0.948683	0.232401
6.216448	19.911112	6.736732	0.214452	0.948683	0.232401
5.916181	19.977777	6.737946	0.208646	0.948683	0.237627
-5.916181	19.977777	6.737946	-0.208646	0.948683	0.237627
6.115957	19.933332	6.738329	0.212531	0.948683	0.234159
-6.115957	19.933332	6.738329	-0.212531	0.948683	0.234159
6.015863	19.955555	6.738731	0.210596	0.948683	0.235901
-6.015863	19.955555	6.738731	-0.210596	0.948683	0.235901
-6.668938	19.799999	6.765743	-0.221990	0.948683	0.225212
6.668938	19.799999	6.765743	0.221990	0.948683	0.225212
-6.566590	19.822222	6.772568	-0.220128	0.948683	0.227033
6.566590	19.822222	6.772568	0.220128	0.948683	0.227033
-6.464586	19.844444	6.778169	-0.218251	0.948683	0.228838
6.464586	19.844444	6.778169	0.218251	0.948683	0.228838
6.362937	19.866667	6.782553	0.216359	0.948683	0.230627
-6.362937	19.866667	6.782553	-0.216359	0.948683	0.230627
5.761256	20.000000	6.783651	0.204704	0.948683	0.241031
-5.761256	20.000000	6.783651	-0.204704	0.948683	0.241031
-6.261659	19.888889	6.785726	-0.214452	0.948683	0.232401
6.261659	19.888889	6.785726	0.214452	0.948683	0.232401
5.860495	19.977777	6.786436	0.206682	0.948683	0.239337
-5.860495	19.977777	6.786436	-0.206682	0.948683	0.239337
6.160762	19.911112	6.787694	0.212531	0.948683	0.234159
-6.160762	19.911112	6.787694	-0.212531	0.948683	0.234159
5.960167	19.955555	6.788042	0.208646	0.948683	0.237627
-5.960167	19.955555	6.788042	-0.208646	0.948683	0.237627
6.060261	19.933332	6.788464	0.210596	0.948683	0.235901
-6.060261	19.933332	6.788464	-0.210596	0.948683	0.235901
-6.612997	19.799999	6.820430	-0.220128	0.948683	0.227033
6.612997	19.799999	6.820430	0.220128	0.948683	0.227033
-6.510597	19.822222	6.826412	-0.218251	0.948683	0.228838
6.510597	19.822222	6.826412	0.218251	0.948683	0.228838
5.705199	20.000000	6.830864	0.202713	0.948683	0.242709
-5.705199	20.000000	6.830864	-0.202713	0.948683	0.242709
6.408550	19.844444	6.831173	0.216359	0.948683	0.230627
-6.408550	19.844444	6.831173	-0.216359	0.948683	0.230627
5.804412	19.977777	6.834465	0.204704	0.948683	0.241031
-5.804412	19.977777	6.834465	-0.204704	0.948683	0.241031
-6.306870	19.866667	6.834720	-0.214452	0.948683	0.232401
6.306870	19.866667	6.834720	0.214452	0.948683	0.232401
5.904068	19.955555	6.836892	0.206682	0.948683	0.239337
-5.904068	19.955555	6.836892	-0.206682	0.948683	0.239337
6.205568	19.888889	6.837059	0.212531	0.948683	0.234159
-6.205568	19.888889	6.837059	-0.212531	0.948683	0.234159
6.004154	19.933332	6.838138	0.208646	0.948683	0.237627
-6.004154	19.933332	6.838138	-0.208646	0.948683	0.237627
6.104658	19.911112	6.838196	0.210596	0.948683	0.235901
-6.104658	19.911112	6.838196	-0.210596	0.948683	0.235901
-6.556608	19.799999	6.874655	-0.218251	0.948683	0.228838
6.556608	19.799999	6.874655	0.218251	0.948683	0.228838
5.648756	20.000000	6.877613	0.200707	0.948683	0.244370
-5.648756	20.000000	6.877613	-0.200707	0.948683	0.244370
6.454163	19.822222	6.879794	0.216359	0.948683	0.230627
-6.454163	19.822222	6.879794	-0.216359	0.948683	0.230627
5.747935	19.977777	6.882031	0.202713	0.948683	0.242709
-5.747935	19.977777	6.882031	-0.202713	0.948683	0.242709
6.352080	19.844444	6.883715	0.214452	0.948683	0.232401
-6.352080	19.844444	6.883715	-0.214452	0.948683	0.232401
5.847568	19.955555	6.885279	0.204704	0.948683	0.241031
-5.847568	19.955555	6.885279	-0.204704	0.948683	0.241031
6.250373	19.866667	6.886424	0.212531	0.948683	0.234159
-6.250373	19.866667	6.886424	-0.212531	0.948683	0.234159
5.947640	19.933332	6.887349	0.206682	0.948683	0.239337
-5.947640	19.933332	6.887349	-0.206682	0.948683	0.239337
6.149056	19.888889	6.887928	0.210596	0.948683	0.235901
-6.149056	19.888889	6.887928	-0.210596	0.948683	0.235901
6.048141	19.911112	6.888235	0.208646	0.948683	0.237627
-6.048141	19.911112	6.888235	-0.208646	0.948683	0.237627
5.591928	20.000000	6.923896	0.198688	0.948683	0.246014
-5.591928	20.000000	6.923896	-0.198688	0.948683	0.246014
6.499775	19.799999	6.928414	0.216359	0.948683	0.230627
-6.499775	19.799999	6.928414	-0.216359	0.948683	0.230627
5.691068	19.977777	6.929131	0.200707	0.948683	0.244370
-5.691068	19.977777	6.929131	-0.200707	0.948683	0.244370
6.397290	19.822222	6.932709	0.214452	0.948683	0.232401
-6.397290	19.822222	6.932709	-0.214452	0.948683	0.232401
5.790670	19.955555	6.933199	0.202713	0.948683	0.242709
-5.790670	19.955555	6.933199	-0.202713	0.948683	0.242709
6.295179	19.844444	6.935789	0.212531	0.948683	0.234159
-6.295179	19.844444	6.935789	-0.212531	0.948683	0.234159
5.890723	19.933332	6.936093	0.204704	0.948683	0.241031
-5.890723	19.933332	6.936093	-0.204704	0.948683	0.241031
6.193453	19.866667	6.937661	0.210596	0.948683	0.235901
-6.193453	19.866667	6.937661	-0.210596	0.948683	0.235901
5.991212	19.911112	6.937806	0.206682	0.948683	0.239337
-5.991212	19.911112	6.937806	-0.206682	0.948683	0.239337
6.092127	19.888889	6.938331	0.208646	0.948683	0.237627
-6.092127	19.888889	6.938331	-0.208646	0.948683	0.237627
5.534722	20.000000	6.969709	0.196655	0.948683	0.247642
-5.534722	20.000000	6.969709	-0.196655	0.948683	0.247642
5.633816	19.977777	6.975760	0.198688	0.948683	0.246014
-5.633816	19.977777	6.975760	-0.198688	0.948683	0.246014
5.733381	19.955555	6.980649	0.200707	0.948683	0.244370
-5.733381	19.955555	6.980649	-0.200707	0.948683	0.244370
-6.442501	19.799999	6.981703	-0.214452	0.948683	0.232401
6.442501	19.799999	6.981703	0.214452	0.948683	0.232401
5.833406	19.933332	6.984366	0.202713	0.948683	0.242709
-5.833406	19.933332	6.984366	-0.202713	0.948683	0.242709
6.339984	19.822222	6.985154	0.212531	0.948683	0.234159
-6.339984	19.822222	6.985154	-0.212531	0.948683	0.234159
5.933878	19.911112	6.986907	0.204704	0.948683	0.241031
-5.933878	19.911112	6.986907	-0.204704	0.948683	0.241031
6.237851	19.844444	6.987393	0.210596	0.948683	0.235901
-6.237851	19.844444	6.987393	-0.210596	0.948683	0.235901
6.034785	19.888889	6.988263	0.206682	0.948683	0.239337
-6.034785	19.888889	6.988263	-0.206682	0.948683	0.239337
6.136114	19.866667	6.988427	0.208646	0.948683	0.237627
-6.136114	19.866667	6.988427	-0.208646	0.948683	0.237627
5.477141	20.000000	7.015050	0.194609	0.948683	0.249253
-5.477141	20.000000	7.015050	-0.194609	0.948683	0.249253
5.576181	19.977777	7.021917	0.196655	0.948683	0.247642
-5.576181	19.977777	7.021917	-0.196655	0.948683	0.247642
5.675703	19.955555	7.027625	0.198688	0.948683	0.246014
-5.675703	19.955555	7.027625	-0.198688	0.948683	0.246014
5.775694	19.933332	7.032166	0.200707	0.948683	0.244370
-5.775694	19.933332	7.032166	-0.200707	0.948683	0.244370
6.384790	19.799999	7.034519	0.212531	0.948683	0.234159
-6.384790	19.799999	7.034519	-0.212531	0.948683	0.234159
5.876142	19.911112	7.035534	0.202713	0.948683	0.242709
-5.876142	19.911112	7.035534	-0.202713	0.948683	0.242709
6.282248	19.822222	7.037126	0.210596	0.948683	0.235901
-6.282248	19.822222	7.037126	-0.210596	0.948683	0.235901
5.977034	19.888889	7.037721	0.204704	0.948683	0.241031
-5.977034	19.888889	7.037721	-0.204704	0.948683	0.241031
6.180100	19.844444	7.038523	0.208646	0.948683	0.237627
-6.180100	19.844444	7.038523	-0.208646	0.948683	0.237627
6.078357	19.866667	7.038719	0.206682	0.948683	0.239337
-6.078357	19.866667	7.038719	-0.206682	0.948683	0.239337
5.419188	20.000000	7.059915	0.192550	0.948683	0.250847
-5.419188	20.000000	7.059915	-0.192550	0.948683	0.250847
5.518168	19.977777	7.067597	0.194609	0.948683	0.249253
-5.518168	19.977777	7.067597	-0.194609	0.948683	0.249253
5.617640	19.955555	7.074124	0.196655	0.948683	0.247642
-5.617640	19.955555	7.074124	-0.196655	0.948683	0.247642
5.717590	19.933332	7.079489	0.198688	0.948683	0.246014
-5.717590	19.933332	7.079489	-0.198688	0.948683	0.246014
5.818007	19.911112	7.083684	0.200707	0.948683	0.244370
-5.818007	19.911112	7.083684	-0.200707	0.948683	0.244370
5.918877	19.888889	7.086701	0.202713	0.948683	0.242709
-5.918877	19.888889	7.086701	-0.202713	0.948683	0.242709
6.326646	19.799999	7.086858	0.210596	0.948683	0.235901
-6.326646	19.799999	7.086858	-0.210596	0.948683	0.235901
6.020189	19.866667	7.088534	0.204704	0.948683	0.241031
-6.020189	19.866667	7.088534	-0.204704	0.948683	0.241031
6.224086	19.822222	7.088620	0.208646	0.948683	0.237627
-6.224086	19.822222	7.088620	-0.208646	0.948683	0.237627
6.121930	19.844444	7.089176	0.206682	0.948683	0.239337
-6.121930	19.844444	7.089176	-0.206682	0.948683	0.239337
5.360868	20.000000	7.104301	0.190478	0.948683	0.252424
-5.360868	20.000000	7.104301	-0.190478	0.948683	0.252424
5.459781	19.977777	7.112798	0.192550	0.948683	0.250847
-5.459781	19.977777	7.112798	-0.192550	0.948683	0.250847
5.559196	19.955555	7.120144	0.194609	0.948683	0.249253
-5.559196	19.955555	7.120144	-0.194609	0.948683	0.249253
5.659098	19.933332	7.126332	0.196655	0.948683	0.247642
-5.659098	19.933332	7.126332	-0.196655	0.948683	0.247642
5.759477	19.911112	7.131353	0.198688	0.948683	0.246014
-5.759477	19.911112	7.131353	-0.198688	0.948683	0.246014
5.860319	19.888889	7.135201	0.200707	0.948683	0.244370
-5.860319	19.888889	7.135201	-0.200707	0.948683	0.244370
5.961613	19.866667	7.137869	0.202713	0.948683	0.242709
-5.961613	19.866667	7.137869	-0.202713	0.948683	0.242709
6.268073	19.799999	7.138716	0.208646	0.948683	0.237627
-6.268073	19.799999	7.138716	-0.208646	0.948683	0.237627
6.063345	19.844444	7.139349	0.204704	0.948683	0.241031
-6.063345	19.844444	7.139349	-0.204704	0.948683	0.241031
6.165503	19.822222	7.139633	0.206682	0.948683	0.239337
-6.165503	19.822222	7.139633	-0.206682	0.948683	0.239337
5.302184	20.000000	7.148206	0.188393	0.948683	0.253984
-5.302184	20.000000	7.148206	-0.188393	0.948683	0.253984
5.401024	19.977777	7.157517	0.190478	0.948683	0.252424
-5.401024	19.977777	7.157517	-0.190478	0.948683	0.252424
5.500374	19.955555	7.165682	0.192550	0.948683	0.250847
-5.500374	19.955555	7.165682	-0.192550	0.948683	0.250847
5.600223	19.933332	7.172692	0.194609	0.948683	0.249253
-5.600223	19.933332	7.172692	-0.194609	0.948683	0.249253
5.700557	19.911112	7.178540	0.196655	0.948683	0.247642
-5.700557	19.911112	7.178540	-0.196655	0.948683	0.247642
5.801364	19.888889	7.183218	0.198688	0.948683	0.246014
-5.801364	19.888889	7.183218	-0.198688	0.948683	0.246014
5.902632	19.866667	7.186719	0.200707	0.948683	0.244370
-5.902632	19.866667	7.186719	-0.200707	0.948683	0.244370
6.004348	19.844444	7.189036	0.202713	0.948683	0.242709
-6.004348	19.844444	7.189036	-0.202713	0.948683	0.242709
6.209075	19.799999	7.190090	0.206682	0.948683	0.239337
-6.209075	19.799999	7.190090	-0.206682	0.948683	0.239337
6.106500	19.822222	7.190162	0.204704	0.948683	0.241031
-6.106500	19.822222	7.190162	-0.204704	0.948683	0.241031
5.243140	20.000000	7.191626	0.186295	0.948683	0.255527
-5.243140	20.000000	7.191626	-0.186295	0.948683	0.255527
5.341900	19.977777	7.201751	0.188393	0.948683	0.253984
-5.341900	19.977777	7.201751	-0.188393	0.948683	0.253984
5.441180	19.955555	7.210733	0.190478	0.948683	0.252424
-5.441180	19.955555	7.210733	-0.190478	0.948683	0.252424
5.540967	19.933332	7.218565	0.192550	0.948683	0.250847
-5.540967	19.933332	7.218565	-0.192550	0.948683	0.250847
5.641250	19.911112	7.225239	0.194609	0.948683	0.249253
-5.641250	19.911112	7.225239	-0.194609	0.948683	0.249253
5.742015	19.888889	7.230747	0.196655	0.948683	0.247642
-5.742015	19.888889	7.230747	-0.196655	0.948683	0.247642
5.183741	20.000000	7.234558	0.184185	0.948683	0.257053
-5.183741	20.000000	7.234558	-0.184185	0.948683	0.257053
5.843251	19.866667	7.235082	0.198688	0.948683	0.246014
-5.843251	19.866667	7.235082	-0.198688	0.948683	0.246014
5.944945	19.844444	7.238237	0.200707	0.948683	0.244370
-5.944945	19.844444	7.238237	-0.200707	0.948683	0.244370
6.047084	19.822222	7.240204	0.202713	0.948683	0.242709
-6.047084	19.822222	7.240204	-0.202713	0.948683	0.242709
6.149656	19.799999	7.240976	0.204704	0.948683	0.241031
-6.149656	19.799999	7.240976	-0.204704	0.948683	0.241031
5.282415	19.977777	7.245496	0.186295	0.948683	0.255527
-5.282415	19.977777	7.245496	-0.186295	0.948683	0.255527
5.381617	19.955555	7.255295	0.188393	0.948683	0.253984
-5.381617	19.955555	7.255295	-0.188393	0.948683	0.253984
5.481337	19.933332	7.263948	0.190478	0.948683	0.252424
-5.481337	19.933332	7.263948	-0.190478	0.948683	0.252424
5.581561	19.911112	7.271448	0.192550	0.948683	0.250847
-5.581561	19.911112	7.271448	-0.192550	0.948683	0.250847
5.123991	20.000000	7.276999	0.182062	0.948683	0.258561
-5.123991	20.000000	7.276999	-0.182062	0.948683	0.258561
5.682277	19.888889	7.277786	0.194609	0.948683	0.249253
-5.682277	19.888889	7.277786	-0.194609	0.948683	0.249253
5.783474	19.866667	7.282955	0.196655	0.948683	0.247642
-5.783474	19.866667	7.282955	-0.196655	0.948683	0.247642
5.885138	19.844444	7.286947	0.198688	0.948683	0.246014
-5.885138	19.844444	7.286947	-0.198688	0.948683	0.246014
5.222571	19.977777	7.288749	0.184185	0.948683	0.257053
-5.222571	19.977777	7.288749	-0.184185	0.948683	0.257053
5.987257	19.822222	7.289755	0.200707	0.948683	0.244370
-5.987257	19.822222	7.289755	-0.200707	0.948683	0.244370
6.089819	19.799999	7.291371	0.202713	0.948683	0.242709
-6.089819	19.799999	7.291371	-0.202713	0.948683	0.242709
5.321689	19.955555	7.299366	0.186295	0.948683	0.255527
-5.321689	19.955555	7.299366	-0.186295	0.948683	0.255527
5.421334	19.933332	7.308840	0.188393	0.948683	0.253984
-5.421334	19.933332	7.308840	-0.188393	0.948683	0.253984
5.521493	19.911112	7.317164	0.190478	0.948683	0.252424
-5.521493	19.911112	7.317164	-0.190478	0.948683	0.252424
5.063893	20.000000	7.318947	0.179926	0.948683	0.260051
-5.063893	20.000000	7.318947	-0.179926	0.948683	0.260051
5.622154	19.888889	7.324331	0.192550	0.948683	0.250847
-5.622154	19.888889	7.324331	-0.192550	0.948683	0.250847
5.723305	19.866667	7.330333	0.194609	0.948683	0.249253
-5.723305	19.866667	7.330333	-0.194609	0.948683	0.249253
5.162373	19.977777	7.331509	0.182062	0.948683	0.258561
-5.162373	19.977777	7.331509	-0.182062	0.948683	0.258561
5.824933	19.844444	7.335162	0.196655	0.948683	0.247642
-5.824933	19.844444	7.335162	-0.196655	0.948683	0.247642
5.927025	19.822222	7.338811	0.198688	0.948683	0.246014
-5.927025	19.822222	7.338811	-0.198688	0.948683	0.246014
6.029571	19.799999	7.341272	0.200707	0.948683	0.244370
-6.029571	19.799999	7.341272	-0.200707	0.948683	0.244370
5.261400	19.955555	7.342941	0.184185	0.948683	0.257053
-5.261400	19.955555	7.342941	-0.184185	0.948683	0.257053
5.360964	19.933332	7.353235	0.186295	0.948683	0.255527
-5.360964	19.933332	7.353235	-0.186295	0.948683	0.255527
5.003451	20.000000	7.360399	0.177779	0.948683	0.261524
-5.003451	20.000000	7.360399	-0.177779	0.948683	0.261524
5.461051	19.911112	7.362384	0.188393	0.948683	0.253984
-5.461051	19.911112	7.362384	-0.188393	0.948683	0.253984
5.561649	19.888889	7.370380	0.190478	0.948683	0.252424
-5.561649	19.888889	7.370380	-0.190478	0.948683	0.252424
5.101824	19.977777	7.373771	0.179926	0.948683	0.260051
-5.101824	19.977777	7.373771	-0.179926	0.948683	0.260051
5.662747	19.866667	7.377215	0.192550	0.948683	0.250847
-5.662747	19.866667	7.377215	-0.192550	0.948683	0.250847
5.764332	19.844444	7.382880	0.194609	0.948683	0.249253
-5.764332	19.844444	7.382880	-0.194609	0.948683	0.249253
5.200755	19.955555	7.386018	0.182062	0.948683	0.258561
-5.200755	19.955555	7.386018	-0.182062	0.948683	0.258561
5.866391	19.822222	7.387370	0.196655	0.948683	0.247642
-5.866391	19.822222	7.387370	-0.196655	0.948683	0.247642
5.968913	19.799999	7.390676	0.198688	0.948683	0.246014
-5.968913	19.799999	7.390676	-0.198688	0.948683	0.246014
5.300230	19.933332	7.397132	0.184185	0.948683	0.257053
-5.300230	19.933332	7.397132	-0.184185	0.948683	0.257053
4.942670	20.000000	7.401352	0.175619	0.948683	0.262979
-4.942670	20.000000	7.401352	-0.175619	0.948683	0.262979
5.400238	19.911112	7.407105	0.186295	0.948683	0.255527
-5.400238	19.911112	7.407105	-0.186295	0.948683	0.255527
5.040930	19.977777	7.415533	0.177779	0.948683	0.261524
-5.040930	19.977777	7.415533	-0.177779	0.948683	0.261524
5.500767	19.888889	7.415929	0.188393	0.948683	0.253984
-5.500767	19.888889	7.415929	-0.188393	0.948683	0.253984
5.601806	19.866667	7.423596	0.190478	0.948683	0.252424
-5.601806	19.866667	7.423596	-0.190478	0.948683	0.252424
5.139756	19.955555	7.428595	0.179926	0.948683	0.260051
-5.139756	19.955555	7.428595	-0.179926	0.948683	0.260051
5.703340	19.844444	7.430098	0.192550	0.948683	0.250847
-5.703340	19.844444	7.430098	-0.192550	0.948683	0.250847
5.805359	19.822222	7.435428	0.194609	0.948683	0.249253
-5.805359	19.822222	7.435428	-0.194609	0.948683	0.249253
5.907850	19.799999	7.439578	0.196655	0.948683	0.247642
-5.907850	19.799999	7.439578	-0.196655	0.948683	0.247642
5.239137	19.933332	7.440527	0.182062	0.948683	0.258561
-5.239137	19.933332	7.440527	-0.182062	0.948683	0.258561
4.881555	20.000000	7.441803	0.173448	0.948683	0.264416
-4.881555	20.000000	7.441803	-0.173448	0.948683	0.264416
5.339059	19.911112	7.451324	0.184185	0.948683	0.257053
-5.339059	19.911112	7.451324	-0.184185	0.948683	0.257053
4.979694	19.977777	7.456792	0.175619	0.948683	0.262979
-4.979694	19.977777	7.456792	-0.175619	0.948683	0.262979
5.439513	19.888889	7.460975	0.186295	0.948683	0.255527
-5.439513	19.888889	7.460975	-0.186295	0.948683	0.255527
5.540484	19.866667	7.469474	0.188393	0.948683	0.253984
-5.540484	19.866667	7.469474	-0.188393	0.948683	0.253984
5.078409	19.955555	7.470667	0.177779	0.948683	0.261524
-5.078409	19.955555	7.470667	-0.177779	0.948683	0.261524
5.641962	19.844444	7.476811	0.190478	0.948683	0.252424
-5.641962	19.844444	7.476811	-0.190478	0.948683	0.252424
4.820108	20.000000	7.481749	0.171264	0.948683	0.265836
-4.820108	20.000000	7.481749	-0.171264	0.948683	0.265836
5.743933	19.822222	7.482981	0.192550	0.948683	0.250847
-5.743933	19.822222	7.482981	-0.192550	0.948683	0.250847
5.177688	19.933332	7.483418	0.179926	0.948683	0.260051
-5.177688	19.933332	7.483418	-0.179926	0.948683	0.260051
5.846386	19.799999	7.487975	0.194609	0.948683	0.249253
-5.846386	19.799999	7.487975	-0.194609	0.948683	0.249253
5.277518	19.911112	7.495037	0.182062	0.948683	0.258561
-5.277518	19.911112	7.495037	-0.182062	0.948683	0.258561
4.918121	19.977777	7.497546	0.173448	0.948683	0.264416
-4.918121	19.977777	7.497546	-0.173448	0.948683	0.264416
5.377889	19.888889	7.505515	0.184185	0.948683	0.257053
-5.377889	19.888889	7.505515	-0.184185	0.948683	0.257053
5.016718	19.955555	7.512233	0.175619	0.948683	0.262979
-5.016718	19.955555	7.512233	-0.175619	0.948683	0.262979
5.478787	19.866667	7.514845	0.186295	0.948683	0.255527
-5.478787	19.866667	7.514845	-0.186295	0.948683	0.255527
4.758334	20.000000	7.521187	0.169069	0.948683	0.267237
-4.758334	20.000000	7.521187	-0.169069	0.948683	0.267237
5.580201	19.844444	7.523018	0.188393	0.948683	0.253984
-5.580201	19.844444	7.523018	-0.188393	0.948683	0.253984
5.115889	19.933332	7.525801	0.177779	0.948683	0.261524
-5.115889	19.933332	7.525801	-0.177779	0.948683	0.261524
5.682118	19.822222	7.530027	0.190478	0.948683	0.252424
-5.682118	19.822222	7.530027	-0.190478	0.948683	0.252424
5.784526	19.799999	7.535864	0.192550	0.948683	0.250847
-5.784526	19.799999	7.535864	-0.192550	0.948683	0.250847
4.856214	19.977777	7.537792	0.171264	0.948683	0.265836
-4.856214	19.977777	7.537792	-0.171264	0.948683	0.265836
5.215620	19.911112	7.538242	0.179926	0.948683	0.260051
-5.215620	19.911112	7.538242	-0.179926	0.948683	0.260051
5.315900	19.888889	7.549546	0.182062	0.948683	0.258561
-5.315900	19.888889	7.549546	-0.182062	0.948683	0.258561
4.954687	19.955555	7.553290	0.173448	0.948683	0.264416
-4.954687	19.955555	7.553290	-0.173448	0.948683	0.264416
5.416718	19.866667	7.559707	0.184185	0.948683	0.257053
-5.416718	19.866667	7.559707	-0.184185	0.948683	0.257053
4.696238	20.000000	7.560116	0.166863	0.948683	0.268620
-4.696238	20.000000	7.560116	-0.166863	0.948683	0.268620
5.053742	19.933332	7.567674	0.175619	0.948683	0.262979
-5.053742	19.933332	7.567674	-0.175619	0.948683	0.262979
5.518062	19.844444	7.568715	0.186295	0.948683	0.255527
-5.518062	19.844444	7.568715	-0.186295	0.948683	0.255527
5.619917	19.822222	7.576563	0.188393	0.948683	0.253984
-5.619917	19.822222	7.576563	-0.188393	0.948683	0.253984
4.793977	19.977777	7.577526	0.169069	0.948683	0.267237
-4.793977	19.977777	7.577526	-0.169069	0.948683	0.267237
5.153368	19.911112	7.580935	0.177779	0.948683	0.261524
-5.153368	19.911112	7.580935	-0.177779	0.948683	0.261524
5.722274	19.799999	7.583243	0.190478	0.948683	0.252424
-5.722274	19.799999	7.583243	-0.190478	0.948683	0.252424
5.253551	19.888889	7.593065	0.179926	0.948683	0.260051
-5.253551	19.888889	7.593065	-0.179926	0.948683	0.260051
4.892319	19.955555	7.593834	0.171264	0.948683	0.265836
-4.892319	19.955555	7.593834	-0.171264	0.948683	0.265836
4.633823	20.000000	7.598532	0.164645	0.948683	0.269985
-4.633823	20.000000	7.598532	-0.164645	0.948683	0.269985
5.354282	19.866667	7.604055	0.182062	0.948683	0.258561
-5.354282	19.866667	7.604055	-0.182062	0.948683	0.258561
4.991252	19.933332	7.609034	0.173448	0.948683	0.264416
-4.991252	19.933332	7.609034	-0.173448	0.948683	0.264416
5.455548	19.844444	7.613898	0.184185	0.948683	0.257053
-5.455548	19.844444	7.613898	-0.184185	0.948683	0.257053
4.731415	19.977777	7.616746	0.166863	0.948683	0.268620
-4.731415	19.977777	7.616746	-0.166863	0.948683	0.268620
5.557336	19.822222	7.622584	0.186295	0.948683	0.255527
-5.557336	19.822222	7.622584	-0.186295	0.948683	0.255527
5.090765	19.911112	7.623115	0.175619	0.948683	0.262979
-5.090765	19.911112	7.623115	-0.175619	0.948683	0.262979
5.659634	19.799999	7.630107	0.188393	0.948683	0.253984
-5.659634	19.799999	7.630107	-0.188393	0.948683	0.253984
4.829620	19.955555	7.633864	0.169069	0.948683	0.267237
-4.829620	19.955555	7.633864	-0.169069	0.948683	0.267237
5.190846	19.888889	7.636069	0.177779	0.948683	0.261524
-5.190846	19.888889	7.636069	-0.177779	0.948683	0.261524
4.571094	20.000000	7.636433	0.162416	0.948683	0.271332
-4.571094	20.000000	7.636433	-0.162416	0.948683	0.271332
5.291483	19.866667	7.647889	0.179926	0.948683	0.260051
-5.291483	19.866667	7.647889	-0.179926	0.948683	0.260051
4.928425	19.933332	7.649878	0.171264	0.948683	0.265836
-4.928425	19.933332	7.649878	-0.171264	0.948683	0.265836
4.668533	19.977777	7.655450	0.164645	0.948683	0.269985
-4.668533	19.977777	7.655450	-0.164645	0.948683	0.269985
5.392664	19.844444	7.658565	0.182062	0.948683	0.258561
-5.392664	19.844444	7.658565	-0.182062	0.948683	0.258561
5.027819	19.911112	7.664778	0.173448	0.948683	0.264416
-5.027819	19.911112	7.664778	-0.173448	0.948683	0.264416
5.494378	19.822222	7.668089	0.184185	0.948683	0.257053
-5.494378	19.822222	7.668089	-0.184185	0.948683	0.257053
4.766593	19.955555	7.673376	0.166863	0.948683	0.268620
-4.766593	19.955555	7.673376	-0.166863	0.948683	0.268620
4.508055	20.000000	7.673816	0.160177	0.948683	0.272660
-4.508055	20.000000	7.673816	-0.160177	0.948683	0.272660
5.596611	19.799999	7.676455	0.186295	0.948683	0.255527
-5.596611	19.799999	7.676455	-0.186295	0.948683	0.255527
5.127789	19.888889	7.678556	0.175619	0.948683	0.262979
-5.127789	19.888889	7.678556	-0.175619	0.948683	0.262979
4.865263	19.933332	7.690203	0.169069	0.948683	0.267237
-4.865263	19.933332	7.690203	-0.169069	0.948683	0.267237
5.228325	19.866667	7.691204	0.177779	0.948683	0.261524
-5.228325	19.866667	7.691204	-0.177779	0.948683	0.261524
4.605334	19.977777	7.693635	0.162416	0.948683	0.271332
-4.605334	19.977777	7.693635	-0.162416	0.948683	0.271332
5.329415	19.844444	7.702713	0.179926	0.948683	0.260051
-5.329415	19.844444	7.702713	-0.179926	0.948683	0.260051
4.964530	19.911112	7.705921	0.171264	0.948683	0.265836
-4.964530	19.911112	7.705921	-0.171264	0.948683	0.265836
4.444710	20.000000	7.710678	0.157926	0.948683	0.273970
-4.444710	20.000000	7.710678	-0.157926	0.948683	0.273970
4.703243	19.955555	7.712368	0.164645	0.948683	0.269985
-4.703243	19.955555	7.712368	-0.164645	0.948683	0.269985
5.431046	19.822222	7.713074	0.182062	0.948683	0.258561
-5.431046	19.822222	7.713074	-0.182062	0.948683	0.258561
5.064384	19.888889	7.720521	0.173448	0.948683	0.264416
-5.064384	19.888889	7.720521	-0.173448	0.948683	0.264416
5.533207	19.799999	7.722281	0.184185	0.948683	0.257053
-5.533207	19.799999	7.722281	-0.184185	0.948683	0.257053
4.801771	19.933332	7.730006	0.166863	0.948683	0.268620
-4.801771	19.933332	7.730006	-0.166863	0.948683	0.268620
4.541823	19.977777	7.731297	0.160177	0.948683	0.272660
-4.541823	19.977777	7.731297	-0.160177	0.948683	0.272660
5.164813	19.866667	7.733997	0.175619	0.948683	0.262979
-5.164813	19.866667	7.733997	-0.175619	0.948683	0.262979
5.265804	19.844444	7.746338	0.177779	0.948683	0.261524
-5.265804	19.844444	7.746338	-0.177779	0.948683	0.261524
4.900906	19.911112	7.746541	0.169069	0.948683	0.267237
-4.900906	19.911112	7.746541	-0.169069	0.948683	0.267237
4.381063	20.000000	7.747018	0.155664	0.948683	0.275261
-4.381063	20.000000	7.747018	-0.155664	0.948683	0.275261
4.639575	19.955555	7.750836	0.162416	0.948683	0.271332
-4.639575	19.955555	7.750836	-0.162416	0.948683	0.271332
5.367347	19.822222	7.757536	0.179926	0.948683	0.260051
-5.367347	19.822222	7.757536	-0.179926	0.948683	0.260051
5.000636	19.888889	7.761964	0.171264	0.948683	0.265836
-5.000636	19.888889	7.761964	-0.171264	0.948683	0.265836
5.469428	19.799999	7.767583	0.182062	0.948683	0.258561
-5.469428	19.799999	7.767583	-0.182062	0.948683	0.258561
4.478004	19.977777	7.768436	0.157926	0.948683	0.273970
-4.478004	19.977777	7.768436	-0.157926	0.948683	0.273970
4.737954	19.933332	7.769285	0.164645	0.948683	0.269985
-4.737954	19.933332	7.769285	-0.164645	0.948683	0.269985
5.100950	19.866667	7.776266	0.173448	0.948683	0.264416
-5.100950	19.866667	7.776266	-0.173448	0.948683	0.264416
4.317120	20.000000	7.782832	0.153393	0.948683	0.276533
-4.317120	20.000000	7.782832	-0.153393	0.948683	0.276533
4.836949	19.911112	7.786636	0.166863	0.948683	0.268620
-4.836949	19.911112	7.786636	-0.166863	0.948683	0.268620
4.575591	19.955555	7.788779	0.160177	0.948683	0.272660
-4.575591	19.955555	7.788779	-0.160177	0.948683	0.272660
5.201837	19.844444	7.789438	0.175619	0.948683	0.262979
-5.201837	19.844444	7.789438	-0.175619	0.948683	0.262979
5.303284	19.822222	7.801472	0.177779	0.948683	0.261524
-5.303284	19.822222	7.801472	-0.177779	0.948683	0.261524
4.936549	19.888889	7.802880	0.169069	0.948683	0.267237
-4.936549	19.888889	7.802880	-0.169069	0.948683	0.267237
4.413880	19.977777	7.805048	0.155664	0.948683	0.275261
-4.413880	19.977777	7.805048	-0.155664	0.948683	0.275261
4.673815	19.933332	7.808038	0.162416	0.948683	0.271332
-4.673815	19.933332	7.808038	-0.162416	0.948683	0.271332
5.405279	19.799999	7.812360	0.179926	0.948683	0.260051
-5.405279	19.799999	7.812360	-0.179926	0.948683	0.260051
5.036742	19.866667	7.818007	0.171264	0.948683	0.265836
-5.036742	19.866667	7.818007	-0.171264	0.948683	0.265836
4.252884	20.000000	7.818119	0.151110	0.948683	0.277787
-4.252884	20.000000	7.818119	-0.151110	0.948683	0.277787
4.511297	19.955555	7.826194	0.157926	0.948683	0.273970
-4.511297	19.955555	7.826194	-0.157926	0.948683	0.273970
4.772664	19.911112	7.826203	0.164645	0.948683	0.269985
-4.772664	19.911112	7.826203	-0.164645	0.948683	0.269985
5.137516	19.844444	7.832009	0.173448	0.948683	0.264416
-5.137516	19.844444	7.832009	-0.173448	0.948683	0.264416
4.349458	19.977777	7.841130	0.153393	0.948683	0.276533
-4.349458	19.977777	7.841130	-0.153393	0.948683	0.276533
4.872127	19.888889	7.843266	0.166863	0.948683	0.268620
-4.872127	19.888889	7.843266	-0.166863	0.948683	0.268620
5.238861	19.822222	7.844878	0.175619	0.948683	0.262979
-5.238861	19.822222	7.844878	-0.175619	0.948683	0.262979
4.609359	19.933332	7.846261	0.160177	0.948683	0.272660
-4.609359	19.933332	7.846261	-0.160177	0.948683	0.272660
4.188360	20.000000	7.852875	0.148817	0.948683	0.279022
-4.188360	20.000000	7.852875	-0.148817	0.948683	0.279022
5.340763	19.799999	7.856606	0.177779	0.948683	0.261524
-5.340763	19.799999	7.856606	-0.177779	0.948683	0.261524
4.972192	19.866667	7.859218	0.169069	0.948683	0.267237
-4.972192	19.866667	7.859218	-0.169069	0.948683	0.267237
4.446697	19.955555	7.863078	0.155664	0.948683	0.275261
-4.446697	19.955555	7.863078	-0.155664	0.948683	0.275261
4.708055	19.911112	7.865240	0.162416	0.948683	0.271332
-4.708055	19.911112	7.865240	-0.162416	0.948683	0.271332
5.072847	19.844444	7.874050	0.171264	0.948683	0.265836
-5.072847	19.844444	7.874050	-0.171264	0.948683	0.265836
4.284741	19.977777	7.876681	0.151110	0.948683	0.277787
-4.284741	19.977777	7.876681	-0.151110	0.948683	0.277787
4.807374	19.888889	7.883121	0.164645	0.948683	0.269985
-4.807374	19.888889	7.883121	-0.164645	0.948683	0.269985
4.544591	19.933332	7.883952	0.157926	0.948683	0.273970
-4.544591	19.933332	7.883952	-0.157926	0.948683	0.273970
4.123551	20.000000	7.887099	0.146515	0.948683	0.280238
-4.123551	20.000000	7.887099	-0.146515	0.948683	0.280238
5.174082	19.822222	7.887753	0.173448	0.948683	0.264416
-5.174082	19.822222	7.887753	-0.173448	0.948683	0.264416
4.381796	19.955555	7.899429	0.153393	0.948683	0.276533
-4.381796	19.955555	7.899429	-0.153393	0.948683	0.276533
4.907304	19.866667	7.899896	0.166863	0.948683	0.268620
-4.907304	19.866667	7.899896	-0.166863	0.948683	0.268620
5.275884	19.799999	7.900319	0.175619	0.948683	0.262979
-5.275884	19.799999	7.900319	-0.175619	0.948683	0.262979
4.643127	19.911112	7.903743	0.160177	0.948683	0.272660
-4.643127	19.911112	7.903743	-0.160177	0.948683	0.272660
4.219733	19.977777	7.911698	0.148817	0.948683	0.279022
-4.219733	19.977777	7.911698	-0.148817	0.948683	0.279022
5.007835	19.844444	7.915556	0.169069	0.948683	0.267237
-5.007835	19.844444	7.915556	-0.169069	0.948683	0.267237
4.058463	20.000000	7.920788	0.144202	0.948683	0.281435
-4.058463	20.000000	7.920788	-0.144202	0.948683	0.281435
4.479514	19.933332	7.921108	0.155664	0.948683	0.275261
-4.479514	19.933332	7.921108	-0.155664	0.948683	0.275261
4.742296	19.888889	7.922441	0.162416	0.948683	0.271332
-4.742296	19.888889	7.922441	-0.162416	0.948683	0.271332
5.108953	19.822222	7.930093	0.171264	0.948683	0.265836
-5.108953	19.822222	7.930093	-0.171264	0.948683	0.265836
4.316598	19.955555	7.935244	0.151110	0.948683	0.277787
-4.316598	19.955555	7.935244	-0.151110	0.948683	0.277787
4.842084	19.866667	7.940039	0.164645	0.948683	0.269985
-4.842084	19.866667	7.940039	-0.164645	0.948683	0.269985
4.577885	19.911112	7.941710	0.157926	0.948683	0.273970
-4.577885	19.911112	7.941710	-0.157926	0.948683	0.273970
5.210648	19.799999	7.943497	0.173448	0.948683	0.264416
-5.210648	19.799999	7.943497	-0.173448	0.948683	0.264416
4.154439	19.977777	7.946178	0.146515	0.948683	0.280238
-4.154439	19.977777	7.946178	-0.146515	0.948683	0.280238
3.993100	20.000000	7.953939	0.141880	0.948683	0.282613
-3.993100	20.000000	7.953939	-0.141880	0.948683	0.282613
4.942482	19.844444	7.956526	0.166863	0.948683	0.268620
-4.942482	19.844444	7.956526	-0.166863	0.948683	0.268620
4.414134	19.933332	7.957727	0.153393	0.948683	0.276533
-4.414134	19.933332	7.957727	-0.153393	0.948683	0.276533
4.676896	19.888889	7.961225	0.160177	0.948683	0.272660
-4.676896	19.888889	7.961225	-0.160177	0.948683	0.272660
4.251107	19.955555	7.970521	0.148817	0.948683	0.279022
-4.251107	19.955555	7.970521	-0.148817	0.948683	0.279022
5.043478	19.822222	7.971895	0.169069	0.948683	0.267237
-5.043478	19.822222	7.971895	-0.169069	0.948683	0.267237
4.512331	19.911112	7.979138	0.155664	0.948683	0.275261
-4.512331	19.911112	7.979138	-0.155664	0.948683	0.275261
4.776536	19.866667	7.979643	0.162416	0.948683	0.271332
-4.776536	19.866667	7.979643	-0.162416	0.948683	0.271332
4.088863	19.977777	7.980119	0.144202	0.948683	0.281435
-4.088863	19.977777	7.980119	-0.144202	0.948683	0.281435
5.145059	19.799999	7.986136	0.171264	0.948683	0.265836
-5.145059	19.799999	7.986136	-0.171264	0.948683	0.265836
3.927466	20.000000	7.986552	0.139548	0.948683	0.283772
-3.927466	20.000000	7.986552	-0.139548	0.948683	0.283772
4.348454	19.933332	7.993806	0.151110	0.948683	0.277787
-4.348454	19.933332	7.993806	-0.151110	0.948683	0.277787
4.876795	19.844444	7.996957	0.164645	0.948683	0.269985
-4.876795	19.844444	7.996957	-0.164645	0.948683	0.269985
4.611178	19.888889	7.999467	0.157926	0.948683	0.273970
-4.611178	19.888889	7.999467	-0.157926	0.948683	0.273970
4.185327	19.955555	8.005258	0.146515	0.948683	0.280238
-4.185327	19.955555	8.005258	-0.146515	0.948683	0.280238
4.977660	19.822222	8.013157	0.166863	0.948683	0.268620
-4.977660	19.822222	8.013157	-0.166863	0.948683	0.268620
4.023011	19.977777	8.013519	0.141880	0.948683	0.282613
-4.023011	19.977777	8.013519	-0.141880	0.948683	0.282613
4.446472	19.911112	8.016026	0.153393	0.948683	0.276533
-4.446472	19.911112	8.016026	-0.153393	0.948683	0.276533
3.861565	20.000000	8.018623	0.137206	0.948683	0.284911
-3.861565	20.000000	8.018623	-0.137206	0.948683	0.284911
4.710664	19.866667	8.018706	0.160177	0.948683	0.272660
-4.710664	19.866667	8.018706	-0.160177	0.948683	0.272660
5.079121	19.799999	8.028234	0.169069	0.948683	0.267237
-5.079121	19.799999	8.028234	-0.169069	0.948683	0.267237
4.282480	19.933332	8.029344	0.148817	0.948683	0.279022
-4.282480	19.933332	8.029344	-0.148817	0.948683	0.279022
4.810776	19.844444	8.036845	0.162416	0.948683	0.271332
-4.810776	19.844444	8.036845	-0.162416	0.948683	0.271332
4.545148	19.888889	8.037169	0.155664	0.948683	0.275261
-4.545148	19.888889	8.037169	-0.155664	0.948683	0.275261
4.119264	19.955555	8.039452	0.144202	0.948683	0.281435
-4.119264	19.955555	8.039452	-0.144202	0.948683	0.281435
3.956885	19.977777	8.046376	0.139548	0.948683	0.283772
-3.956885	19.977777	8.046376	-0.139548	0.948683	0.283772
3.795403	20.000000	8.050150	0.134855	0.948683	0.286032
-3.795403	20.000000	8.050150	-0.134855	0.948683	0.286032
4.380311	19.911112	8.052369	0.151110	0.948683	0.277787
-4.380311	19.911112	8.052369	-0.151110	0.948683	0.277787
4.911505	19.822222	8.053875	0.164645	0.948683	0.269985
-4.911505	19.822222	8.053875	-0.164645	0.948683	0.269985
4.644472	19.866667	8.057225	0.157926	0.948683	0.273970
