-5.279005	1.553931	-12.327506	-0.391037	0.115106	-0.913149
-5.260487	1.615507	-12.327506	-0.389666	0.119667	-0.913149
-5.241252	1.676863	-12.327506	-0.388241	0.124212	-0.913149
-5.221301	1.737989	-12.327506	-0.386763	0.128740	-0.913149
-5.200637	1.798879	-12.327506	-0.385232	0.133250	-0.913149
-5.179263	1.859522	-12.327506	-0.383649	0.137742	-0.913149
-5.157182	1.919912	-12.327506	-0.382013	0.142216	-0.913149
-5.134397	1.980040	-12.327506	-0.380326	0.146670	-0.913149
5.296801	-1.492143	-12.327506	0.392356	-0.110529	-0.913149
5.110911	2.039897	-12.327506	0.378586	0.151103	-0.913149
5.134397	1.980040	-12.327506	0.380326	0.146670	-0.913149
5.157182	1.919912	-12.327506	0.382013	0.142216	-0.913149
5.179263	1.859522	-12.327506	0.383649	0.137742	-0.913149
5.200637	1.798879	-12.327506	0.385232	0.133250	-0.913149
5.221301	1.737989	-12.327506	0.386763	0.128740	-0.913149
5.241252	1.676863	-12.327506	0.388241	0.124212	-0.913149
5.260487	1.615507	-12.327506	0.389666	0.119667	-0.913149
5.279005	1.553931	-12.327506	0.391037	0.115106	-0.913149
5.296801	1.492143	-12.327506	0.392356	0.110529	-0.913149
5.313874	1.430151	-12.327506	0.393620	0.105937	-0.913149
5.330222	1.367964	-12.327506	0.394831	0.101331	-0.913149
5.345842	1.305590	-12.327506	0.395988	0.096710	-0.913149
5.360732	1.243037	-12.327506	0.397091	0.092077	-0.913149
5.374890	1.180315	-12.327506	0.398140	0.087431	-0.913149
5.388315	1.117432	-12.327506	0.399134	0.082773	-0.913149
5.401003	1.054397	-12.327506	0.400074	0.078103	-0.913149
5.412955	0.991217	-12.327506	0.400960	0.073423	-0.913149
5.424167	0.927902	-12.327506	0.401790	0.068733	-0.913149
5.434639	0.864461	-12.327506	0.402566	0.064034	-0.913149
5.444368	0.800901	-12.327506	0.403287	0.059326	-0.913149
5.453355	0.737232	-12.327506	0.403952	0.054610	-0.913149
5.461596	0.673462	-12.327506	0.404563	0.049886	-0.913149
5.469093	0.609600	-12.327506	0.405118	0.045156	-0.913149
5.475842	0.545656	-12.327506	0.405618	0.040419	-0.913149
5.481844	0.481636	-12.327506	0.406063	0.035677	-0.913149
5.487098	0.417551	-12.327506	0.406452	0.030930	-0.913149
5.491602	0.353409	-12.327506	0.406785	0.026178	-0.913149
5.495357	0.289219	-12.327506	0.407063	0.021424	-0.913149
5.498361	0.224989	-12.327506	0.407286	0.016666	-0.913149
5.500614	0.160728	-12.327506	0.407453	0.011906	-0.913149
5.502117	0.096446	-12.327506	0.407564	0.007144	-0.913149
5.502868	0.032150	-12.327506	0.407620	0.002381	-0.913149
5.502868	-0.032150	-12.327506	0.407620	-0.002381	-0.913149
5.502117	-0.096446	-12.327506	0.407564	-0.007144	-0.913149
5.500614	-0.160728	-12.327506	0.407453	-0.011906	-0.913149
5.498361	-0.224989	-12.327506	0.407286	-0.016666	-0.913149
5.495357	-0.289219	-12.327506	0.407063	-0.021424	-0.913149
5.491602	-0.353409	-12.327506	0.406785	-0.026178	-0.913149
-5.099020	-2.068473	-12.327502	-0.377709	-0.153222	-0.913159
-5.099020	2.068473	-12.327502	-0.377709	0.153222	-0.913159
5.099020	2.068473	-12.327502	0.377709	0.153222	-0.913159
5.099020	-2.068473	-12.327502	0.377709	-0.153222	-0.913159
-5.099020	2.104573	-12.321534	-0.377706	0.155895	-0.912708
5.099020	2.104573	-12.321534	0.377706	0.155895	-0.912708
5.099020	-2.104573	-12.321534	0.377706	-0.155895	-0.912708
-5.099020	-2.104573	-12.321534	-0.377706	-0.155895	-0.912708
-5.099020	2.108747	-12.320844	-0.377705	0.156204	-0.912655
5.099020	-2.108747	-12.320844	0.377705	-0.156204	-0.912655
-5.099020	-2.108747	-12.320844	-0.377705	-0.156204	-0.912655
5.099020	2.108747	-12.320844	0.377705	0.156204	-0.912655
-5.099020	2.174822	-12.309150	-0.377710	0.161100	-0.911801
5.099020	2.174822	-12.309150	0.377710	0.161100	-0.911801
5.099020	-2.174822	-12.309150	0.377710	-0.161100	-0.911801
-5.099020	-2.174822	-12.309150	-0.377710	-0.161100	-0.911801
-5.099020	2.245408	-12.296658	-0.377706	0.166327	-0.910864
5.099020	2.245408	-12.296658	0.377706	0.166327	-0.910864
5.099020	-2.245408	-12.296658	0.377706	-0.166327	-0.910864
-5.099020	-2.245408	-12.296658	-0.377706	-0.166327	-0.910864
-5.099020	2.247844	-12.296227	-0.377705	0.166507	-0.910832
5.099020	-2.247844	-12.296227	0.377705	-0.166507	-0.910832
-5.099020	-2.247844	-12.296227	-0.377705	-0.166507	-0.910832
5.099020	2.247844	-12.296227	0.377705	0.166507	-0.910832
-5.099020	2.317113	-12.283159	-0.377710	0.171640	-0.909876
5.099020	2.317113	-12.283159	0.377710	0.171640	-0.909876
5.099020	-2.317113	-12.283159	0.377710	-0.171640	-0.909876
-5.099020	-2.317113	-12.283159	-0.377710	-0.171640	-0.909876
-5.099020	2.386653	-12.270041	-0.377705	0.176789	-0.908892
5.099020	-2.386653	-12.270041	0.377705	-0.176789	-0.908892
-5.099020	-2.386653	-12.270041	-0.377705	-0.176789	-0.908892
5.099020	2.386653	-12.270041	0.377705	0.176789	-0.908892
-5.099020	2.389184	-12.269533	-0.377706	0.176977	-0.908855
5.099020	2.389184	-12.269533	0.377706	0.176977	-0.908855
5.099020	-2.389184	-12.269533	0.377706	-0.176977	-0.908855
-5.099020	-2.389184	-12.269533	-0.377706	-0.176977	-0.908855
5.397821	1.657683	-12.262365	0.399839	0.122791	-0.908323
5.378084	1.720640	-12.262365	0.398377	0.127455	-0.908323
-5.634970	0.362635	-12.262365	-0.417405	0.026862	-0.908323
-5.638822	0.296769	-12.262365	-0.417691	0.021983	-0.908323
-5.641905	0.230863	-12.262365	-0.417919	0.017101	-0.908323
-5.644217	0.164924	-12.262365	-0.418090	0.012217	-0.908323
-5.645759	0.098964	-12.262365	-0.418204	0.007331	-0.908323
-5.500683	-1.275489	-12.262365	-0.407458	-0.094481	-0.908323
-5.485404	-1.339674	-12.262365	-0.406326	-0.099235	-0.908323
-5.469377	-1.403677	-12.262365	-0.405139	-0.103976	-0.908323
-5.452602	-1.467487	-12.262365	-0.403896	-0.108703	-0.908323
-5.435083	-1.531098	-12.262365	-0.402599	-0.113415	-0.908323
-5.416822	-1.594499	-12.262365	-0.401246	-0.118111	-0.908323
-5.397821	-1.657683	-12.262365	-0.399839	-0.122791	-0.908323
-5.378084	-1.720640	-12.262365	-0.398377	-0.127455	-0.908323
-5.357612	-1.783363	-12.262365	-0.396860	-0.132101	-0.908323
-5.336409	-1.845841	-12.262365	-0.395290	-0.136729	-0.908323
-5.314476	-1.908068	-12.262365	-0.393665	-0.141338	-0.908323
-5.291819	-1.970035	-12.262365	-0.391987	-0.145929	-0.908323
-5.268439	-2.031732	-12.262365	-0.390255	-0.150499	-0.908323
-5.244340	-2.093152	-12.262365	-0.388470	-0.155048	-0.908323
-5.219524	-2.154286	-12.262365	-0.386631	-0.159577	-0.908323
-5.193996	-2.215127	-12.262365	-0.384741	-0.164083	-0.908323
-5.167759	-2.275664	-12.262365	-0.382797	-0.168568	-0.908323
-5.140817	-2.335891	-12.262365	-0.380801	-0.173029	-0.908323
-5.113173	-2.395799	-12.262365	-0.378754	-0.177467	-0.908323
-5.646530	0.032989	-12.262365	-0.418261	0.002444	-0.908323
-5.646530	-0.032989	-12.262365	-0.418261	-0.002444	-0.908323
-5.645759	-0.098964	-12.262365	-0.418204	-0.007331	-0.908323
-5.644217	-0.164924	-12.262365	-0.418090	-0.012217	-0.908323
-5.641905	-0.230863	-12.262365	-0.417919	-0.017101	-0.908323
-5.638822	-0.296769	-12.262365	-0.417691	-0.021983	-0.908323
-5.634970	-0.362635	-12.262365	-0.417405	-0.026862	-0.908323
-5.630348	-0.428452	-12.262365	-0.417063	-0.031737	-0.908323
-5.624957	-0.494210	-12.262365	-0.416663	-0.036608	-0.908323
-5.618799	-0.559901	-12.262365	-0.416207	-0.041474	-0.908323
-5.611873	-0.625515	-12.262365	-0.415694	-0.046334	-0.908323
-5.604181	-0.691044	-12.262365	-0.415125	-0.051188	-0.908323
5.113173	2.395799	-12.262365	0.378754	0.177467	-0.908323
5.140817	2.335891	-12.262365	0.380801	0.173029	-0.908323
5.167759	2.275664	-12.262365	0.382797	0.168568	-0.908323
5.193996	2.215127	-12.262365	0.384741	0.164083	-0.908323
5.219524	2.154286	-12.262365	0.386631	0.159577	-0.908323
5.244340	2.093152	-12.262365	0.388470	0.155048	-0.908323
5.268439	2.031732	-12.262365	0.390255	0.150499	-0.908323
5.291819	1.970035	-12.262365	0.391987	0.145929	-0.908323
5.314476	1.908068	-12.262365	0.393665	0.141338	-0.908323
5.336409	1.845841	-12.262365	0.395290	0.136729	-0.908323
5.357612	1.783363	-12.262365	0.396860	0.132101	-0.908323
-5.595724	-0.756478	-12.262365	-0.414498	-0.056035	-0.908323
-5.586503	-0.821810	-12.262365	-0.413815	-0.060875	-0.908323
5.113173	-2.395799	-12.262365	0.378754	-0.177467	-0.908323
-5.576519	-0.887029	-12.262365	-0.413076	-0.065706	-0.908323
-5.565774	-0.952127	-12.262365	-0.412280	-0.070528	-0.908323
-5.542006	1.081924	-12.262365	-0.410519	0.080142	-0.908323
-5.554269	-1.017094	-12.262365	-0.411427	-0.075340	-0.908323
-5.542006	-1.081924	-12.262365	-0.410519	-0.080142	-0.908323
-5.528986	-1.146605	-12.262365	-0.409555	-0.084934	-0.908323
-5.630348	0.428452	-12.262365	-0.417063	0.031737	-0.908323
-5.515211	-1.211130	-12.262365	-0.408534	-0.089713	-0.908323
5.416822	-1.594499	-12.262365	0.401246	-0.118111	-0.908323
-5.113173	2.395799	-12.262365	-0.378754	0.177467	-0.908323
5.416822	1.594499	-12.262365	0.401246	0.118111	-0.908323
5.435083	1.531098	-12.262365	0.402599	0.113415	-0.908323
5.452602	1.467487	-12.262365	0.403896	0.108703	-0.908323
5.469377	1.403677	-12.262365	0.405139	0.103976	-0.908323
5.485404	1.339674	-12.262365	0.406326	0.099235	-0.908323
5.500683	1.275489	-12.262365	0.407458	0.094481	-0.908323
5.515211	1.211130	-12.262365	0.408534	0.089713	-0.908323
5.528986	1.146605	-12.262365	0.409555	0.084934	-0.908323
5.542006	1.081924	-12.262365	0.410519	0.080142	-0.908323
5.554269	1.017094	-12.262365	0.411427	0.075340	-0.908323
5.565774	0.952127	-12.262365	0.412280	0.070528	-0.908323
5.576519	0.887029	-12.262365	0.413076	0.065706	-0.908323
5.586503	0.821810	-12.262365	0.413815	0.060875	-0.908323
5.595724	0.756478	-12.262365	0.414498	0.056035	-0.908323
5.604181	0.691044	-12.262365	0.415125	0.051188	-0.908323
5.611873	0.625515	-12.262365	0.415694	0.046334	-0.908323
5.618799	0.559901	-12.262365	0.416207	0.041474	-0.908323
5.624957	0.494210	-12.262365	0.416663	0.036608	-0.908323
5.630348	0.428452	-12.262365	0.417063	0.031737	-0.908323
5.634970	0.362635	-12.262365	0.417405	0.026862	-0.908323
5.638822	0.296769	-12.262365	0.417691	0.021983	-0.908323
5.641905	0.230863	-12.262365	0.417919	0.017101	-0.908323
5.644217	0.164924	-12.262365	0.418090	0.012217	-0.908323
5.645759	0.098964	-12.262365	0.418204	0.007331	-0.908323
5.646530	0.032989	-12.262365	0.418261	0.002444	-0.908323
5.646530	-0.032989	-12.262365	0.418261	-0.002444	-0.908323
5.645759	-0.098964	-12.262365	0.418204	-0.007331	-0.908323
5.644217	-0.164924	-12.262365	0.418090	-0.012217	-0.908323
5.641905	-0.230863	-12.262365	0.417919	-0.017101	-0.908323
5.638822	-0.296769	-12.262365	0.417691	-0.021983	-0.908323
5.634970	-0.362635	-12.262365	0.417405	-0.026862	-0.908323
5.630348	-0.428452	-12.262365	0.417063	-0.031737	-0.908323
5.624957	-0.494210	-12.262365	0.416663	-0.036608	-0.908323
5.618799	-0.559901	-12.262365	0.416207	-0.041474	-0.908323
5.611873	-0.625515	-12.262365	0.415694	-0.046334	-0.908323
5.604181	-0.691044	-12.262365	0.415125	-0.051188	-0.908323
5.595724	-0.756478	-12.262365	0.414498	-0.056035	-0.908323
5.586503	-0.821810	-12.262365	0.413815	-0.060875	-0.908323
5.576519	-0.887029	-12.262365	0.413076	-0.065706	-0.908323
5.565774	-0.952127	-12.262365	0.412280	-0.070528	-0.908323
5.554269	-1.017094	-12.262365	0.411427	-0.075340	-0.908323
5.542006	-1.081924	-12.262365	0.410519	-0.080142	-0.908323
5.528986	-1.146605	-12.262365	0.409555	-0.084934	-0.908323
5.515211	-1.211130	-12.262365	0.408534	-0.089713	-0.908323
5.500683	-1.275489	-12.262365	0.407458	-0.094481	-0.908323
5.485404	-1.339674	-12.262365	0.406326	-0.099235	-0.908323
5.469377	-1.403677	-12.262365	0.405139	-0.103976	-0.908323
5.452602	-1.467487	-12.262365	0.403896	-0.108703	-0.908323
5.435083	-1.531098	-12.262365	0.402599	-0.113415	-0.908323
-5.140817	2.335891	-12.262365	-0.380801	0.173029	-0.908323
5.397821	-1.657683	-12.262365	0.399839	-0.122791	-0.908323
5.378084	-1.720640	-12.262365	0.398377	-0.127455	-0.908323
5.357612	-1.783363	-12.262365	0.396860	-0.132101	-0.908323
5.336409	-1.845841	-12.262365	0.395290	-0.136729	-0.908323
5.314476	-1.908068	-12.262365	0.393665	-0.141338	-0.908323
5.291819	-1.970035	-12.262365	0.391987	-0.145929	-0.908323
5.268439	-2.031732	-12.262365	0.390255	-0.150499	-0.908323
5.244340	-2.093152	-12.262365	0.388470	-0.155048	-0.908323
5.219524	-2.154286	-12.262365	0.386631	-0.159577	-0.908323
5.193996	-2.215127	-12.262365	0.384741	-0.164083	-0.908323
5.167759	-2.275664	-12.262365	0.382797	-0.168568	-0.908323
5.140817	-2.335891	-12.262365	0.380801	-0.173029	-0.908323
-5.167759	2.275664	-12.262365	-0.382797	0.168568	-0.908323
-5.193996	2.215127	-12.262365	-0.384741	0.164083	-0.908323
-5.219524	2.154286	-12.262365	-0.386631	0.159577	-0.908323
-5.244340	2.093152	-12.262365	-0.388470	0.155048	-0.908323
-5.268439	2.031732	-12.262365	-0.390255	0.150499	-0.908323
-5.291819	1.970035	-12.262365	-0.391987	0.145929	-0.908323
-5.314476	1.908068	-12.262365	-0.393665	0.141338	-0.908323
-5.336409	1.845841	-12.262365	-0.395290	0.136729	-0.908323
-5.357612	1.783363	-12.262365	-0.396860	0.132101	-0.908323
-5.378084	1.720640	-12.262365	-0.398377	0.127455	-0.908323
-5.397821	1.657683	-12.262365	-0.399839	0.122791	-0.908323
-5.416822	1.594499	-12.262365	-0.401246	0.118111	-0.908323
-5.435083	1.531098	-12.262365	-0.402599	0.113415	-0.908323
-5.452602	1.467487	-12.262365	-0.403896	0.108703	-0.908323
-5.469377	1.403677	-12.262365	-0.405139	0.103976	-0.908323
-5.485404	1.339674	-12.262365	-0.406326	0.099235	-0.908323
-5.500683	1.275489	-12.262365	-0.407458	0.094481	-0.908323
-5.515211	1.211130	-12.262365	-0.408534	0.089713	-0.908323
-5.528986	1.146605	-12.262365	-0.409555	0.084934	-0.908323
-5.554269	1.017094	-12.262365	-0.411427	0.075340	-0.908323
-5.565774	0.952127	-12.262365	-0.412280	0.070528	-0.908323
-5.576519	0.887029	-12.262365	-0.413076	0.065706	-0.908323
-5.586503	0.821810	-12.262365	-0.413815	0.060875	-0.908323
-5.595724	0.756478	-12.262365	-0.414498	0.056035	-0.908323
-5.604181	0.691044	-12.262365	-0.415125	0.051188	-0.908323
-5.611873	0.625515	-12.262365	-0.415694	0.046334	-0.908323
-5.618799	0.559901	-12.262365	-0.416207	0.041474	-0.908323
-5.624957	0.494210	-12.262365	-0.416663	0.036608	-0.908323
5.099020	2.424984	-12.262360	0.377709	0.179630	-0.908333
5.099020	-2.424984	-12.262360	0.377709	-0.179630	-0.908333
-5.099020	-2.424984	-12.262360	-0.377709	-0.179630	-0.908333
-5.099020	2.424984	-12.262360	-0.377709	0.179630	-0.908333
-5.099020	2.462455	-12.254851	-0.377710	0.182407	-0.907779
5.099020	2.462455	-12.254851	0.377710	0.182407	-0.907779
5.099020	-2.462455	-12.254851	0.377710	-0.182407	-0.907779
-5.099020	-2.462455	-12.254851	-0.377710	-0.182407	-0.907779
-5.099020	2.525158	-12.242287	-0.377705	0.187049	-0.906836
5.099020	-2.525158	-12.242287	0.377705	-0.187049	-0.906836
-5.099020	-2.525158	-12.242287	-0.377705	-0.187049	-0.906836
5.099020	2.525158	-12.242287	0.377705	0.187049	-0.906836
-5.099020	2.536193	-12.239945	-0.377707	0.187867	-0.906666
5.099020	2.536193	-12.239945	0.377707	0.187867	-0.906666
5.099020	-2.536193	-12.239945	0.377707	-0.187867	-0.906666
-5.099020	-2.536193	-12.239945	-0.377707	-0.187867	-0.906666
-5.099020	2.611105	-12.224051	-0.377710	0.193418	-0.905497
5.099020	2.611105	-12.224051	0.377710	0.193418	-0.905497
5.099020	-2.611105	-12.224051	0.377710	-0.193418	-0.905497
-5.099020	-2.611105	-12.224051	-0.377710	-0.193418	-0.905497
-5.099020	2.663340	-12.212970	-0.377705	0.197284	-0.904664
5.099020	-2.663340	-12.212970	0.377705	-0.197284	-0.904664
-5.099020	-2.663340	-12.212970	-0.377705	-0.197284	-0.904664
5.099020	2.663340	-12.212970	0.377705	0.197284	-0.904664
-5.099020	2.686676	-12.207742	-0.377708	0.199015	-0.904284
5.099020	2.686676	-12.207742	0.377708	0.199015	-0.904284
5.099020	-2.686676	-12.207742	0.377708	-0.199015	-0.904284
-5.099020	-2.686676	-12.207742	-0.377708	-0.199015	-0.904284
5.471451	-1.892552	-12.195551	0.405293	-0.140189	-0.903374
5.493191	-1.828492	-12.195551	0.406903	-0.135444	-0.903374
5.514181	-1.764183	-12.195551	0.408458	-0.130680	-0.903374
5.534418	-1.699632	-12.195551	0.409957	-0.125899	-0.903374
5.553900	-1.634850	-12.195551	0.411400	-0.121100	-0.903374
5.572623	-1.569844	-12.195551	0.412787	-0.116285	-0.903374
5.607784	-1.439198	-12.195551	0.415391	-0.106607	-0.903374
5.624218	-1.373576	-12.195551	0.416609	-0.101746	-0.903374
5.639883	-1.307767	-12.195551	0.417769	-0.096872	-0.903374
5.654778	-1.241778	-12.195551	0.418872	-0.091984	-0.903374
5.668902	-1.175621	-12.195551	0.419919	-0.087083	-0.903374
5.682251	-1.109303	-12.195551	0.420908	-0.082171	-0.903374
5.694825	-1.042833	-12.195551	0.421839	-0.077247	-0.903374
5.706621	-0.976221	-12.195551	0.422713	-0.072313	-0.903374
5.717638	-0.909476	-12.195551	0.423529	-0.067369	-0.903374
5.727875	-0.842606	-12.195551	0.424287	-0.062415	-0.903374
5.737329	-0.775622	-12.195551	0.424987	-0.057453	-0.903374
5.746000	-0.708532	-12.195551	0.425630	-0.052484	-0.903374
5.753887	-0.641344	-12.195551	0.426214	-0.047507	-0.903374
5.760988	-0.574070	-12.195551	0.426740	-0.042524	-0.903374
5.767302	-0.506717	-12.195551	0.427208	-0.037535	-0.903374
5.772829	-0.439294	-12.195551	0.427617	-0.032540	-0.903374
5.777568	-0.371812	-12.195551	0.427968	-0.027542	-0.903374
5.781518	-0.304279	-12.195551	0.428261	-0.022539	-0.903374
5.784678	-0.236705	-12.195551	0.428495	-0.017534	-0.903374
5.787049	-0.169098	-12.195551	0.428670	-0.012526	-0.903374
5.788630	-0.101468	-12.195551	0.428787	-0.007516	-0.903374
5.789421	-0.033824	-12.195551	0.428846	-0.002505	-0.903374
5.789421	0.033824	-12.195551	0.428846	0.002505	-0.903374
5.788630	0.101468	-12.195551	0.428787	0.007516	-0.903374
5.787049	0.169098	-12.195551	0.428670	0.012526	-0.903374
5.784678	0.236705	-12.195551	0.428495	0.017534	-0.903374
5.781518	0.304279	-12.195551	0.428261	0.022539	-0.903374
5.777568	0.371812	-12.195551	0.427968	0.027542	-0.903374
5.772829	0.439294	-12.195551	0.427617	0.032540	-0.903374
5.767302	0.506717	-12.195551	0.427208	0.037535	-0.903374
5.760988	0.574070	-12.195551	0.426740	0.042524	-0.903374
5.753887	0.641344	-12.195551	0.426214	0.047507	-0.903374
5.746000	0.708532	-12.195551	0.425630	0.052484	-0.903374
5.737329	0.775622	-12.195551	0.424987	0.057453	-0.903374
5.727875	0.842606	-12.195551	0.424287	0.062415	-0.903374
5.717638	0.909476	-12.195551	0.423529	0.067369	-0.903374
5.706621	0.976221	-12.195551	0.422713	0.072313	-0.903374
5.694825	1.042833	-12.195551	0.421839	0.077247	-0.903374
5.682251	1.109303	-12.195551	0.420908	0.082171	-0.903374
5.668902	1.175621	-12.195551	0.419919	0.087083	-0.903374
5.654778	1.241778	-12.195551	0.418872	0.091984	-0.903374
5.639883	1.307767	-12.195551	0.417769	0.096872	-0.903374
5.624218	1.373576	-12.195551	0.416609	0.101746	-0.903374
5.607784	1.439198	-12.195551	0.415391	0.106607	-0.903374
5.590585	1.504624	-12.195551	0.414117	0.111454	-0.903374
5.572623	1.569844	-12.195551	0.412787	0.116285	-0.903374
5.553900	1.634850	-12.195551	0.411400	0.121100	-0.903374
5.534418	1.699632	-12.195551	0.409957	0.125899	-0.903374
5.514181	1.764183	-12.195551	0.408458	0.130680	-0.903374
5.493191	1.828492	-12.195551	0.406903	0.135444	-0.903374
5.471451	1.892552	-12.195551	0.405293	0.140189	-0.903374
5.448965	1.956354	-12.195551	0.403627	0.144915	-0.903374
5.425734	2.019888	-12.195551	0.401906	0.149621	-0.903374
5.401762	2.083147	-12.195551	0.400131	0.154307	-0.903374
5.377053	2.146122	-12.195551	0.398300	0.158972	-0.903374
5.351610	2.208803	-12.195551	0.396416	0.163615	-0.903374
5.325436	2.271182	-12.195551	0.394477	0.168236	-0.903374
5.298535	2.333252	-12.195551	0.392484	0.172833	-0.903374
5.270910	2.395003	-12.195551	0.390438	0.177408	-0.903374
5.242566	2.456427	-12.195551	0.388338	0.181958	-0.903374
5.213506	2.517516	-12.195551	0.386186	0.186483	-0.903374
-5.122072	-2.698687	-12.195551	-0.379413	-0.199903	-0.903374
-5.153255	-2.638654	-12.195551	-0.381723	-0.195456	-0.903374
-5.183735	-2.578261	-12.195551	-0.383980	-0.190982	-0.903374
-5.213506	-2.517516	-12.195551	-0.386186	-0.186483	-0.903374
-5.242566	-2.456427	-12.195551	-0.388338	-0.181958	-0.903374
-5.270910	-2.395003	-12.195551	-0.390438	-0.177408	-0.903374
-5.298535	-2.333252	-12.195551	-0.392484	-0.172833	-0.903374
-5.325436	-2.271182	-12.195551	-0.394477	-0.168236	-0.903374
-5.351610	-2.208803	-12.195551	-0.396416	-0.163615	-0.903374
-5.377053	-2.146122	-12.195551	-0.398300	-0.158972	-0.903374
-5.401762	-2.083147	-12.195551	-0.400131	-0.154307	-0.903374
-5.425734	-2.019888	-12.195551	-0.401906	-0.149621	-0.903374
-5.448965	-1.956354	-12.195551	-0.403627	-0.144915	-0.903374
-5.471451	-1.892552	-12.195551	-0.405293	-0.140189	-0.903374
-5.493191	-1.828492	-12.195551	-0.406903	-0.135444	-0.903374
-5.514181	-1.764183	-12.195551	-0.408458	-0.130680	-0.903374
-5.534418	-1.699632	-12.195551	-0.409957	-0.125899	-0.903374
-5.553900	-1.634850	-12.195551	-0.411400	-0.121100	-0.903374
-5.572623	-1.569844	-12.195551	-0.412787	-0.116285	-0.903374
-5.590585	-1.504624	-12.195551	-0.414117	-0.111454	-0.903374
-5.607784	-1.439198	-12.195551	-0.415391	-0.106607	-0.903374
-5.624218	-1.373576	-12.195551	-0.416609	-0.101746	-0.903374
-5.639883	-1.307767	-12.195551	-0.417769	-0.096872	-0.903374
-5.654778	-1.241778	-12.195551	-0.418872	-0.091984	-0.903374
-5.668902	-1.175621	-12.195551	-0.419919	-0.087083	-0.903374
-5.682251	-1.109303	-12.195551	-0.420908	-0.082171	-0.903374
-5.694825	-1.042833	-12.195551	-0.421839	-0.077247	-0.903374
-5.706621	-0.976221	-12.195551	-0.422713	-0.072313	-0.903374
-5.717638	-0.909476	-12.195551	-0.423529	-0.067369	-0.903374
-5.727875	-0.842606	-12.195551	-0.424287	-0.062415	-0.903374
-5.737329	-0.775622	-12.195551	-0.424987	-0.057453	-0.903374
-5.746000	-0.708532	-12.195551	-0.425630	-0.052484	-0.903374
-5.753887	-0.641344	-12.195551	-0.426214	-0.047507	-0.903374
-5.760988	-0.574070	-12.195551	-0.426740	-0.042524	-0.903374
-5.767302	-0.506717	-12.195551	-0.427208	-0.037535	-0.903374
-5.772829	-0.439294	-12.195551	-0.427617	-0.032540	-0.903374
-5.777568	-0.371812	-12.195551	-0.427968	-0.027542	-0.903374
-5.781518	-0.304279	-12.195551	-0.428261	-0.022539	-0.903374
-5.784678	-0.236705	-12.195551	-0.428495	-0.017534	-0.903374
-5.787049	-0.169098	-12.195551	-0.428670	-0.012526	-0.903374
-5.788630	-0.101468	-12.195551	-0.428787	-0.007516	-0.903374
-5.789421	-0.033824	-12.195551	-0.428846	-0.002505	-0.903374
-5.789421	0.033824	-12.195551	-0.428846	0.002505	-0.903374
-5.788630	0.101468	-12.195551	-0.428787	0.007516	-0.903374
-5.787049	0.169098	-12.195551	-0.428670	0.012526	-0.903374
-5.784678	0.236705	-12.195551	-0.428495	0.017534	-0.903374
-5.781518	0.304279	-12.195551	-0.428261	0.022539	-0.903374
-5.777568	0.371812	-12.195551	-0.427968	0.027542	-0.903374
-5.772829	0.439294	-12.195551	-0.427617	0.032540	-0.903374
-5.767302	0.506717	-12.195551	-0.427208	0.037535	-0.903374
-5.760988	0.574070	-12.195551	-0.426740	0.042524	-0.903374
-5.753887	0.641344	-12.195551	-0.426214	0.047507	-0.903374
-5.746000	0.708532	-12.195551	-0.425630	0.052484	-0.903374
-5.737329	0.775622	-12.195551	-0.424987	0.057453	-0.903374
-5.727875	0.842606	-12.195551	-0.424287	0.062415	-0.903374
-5.717638	0.909476	-12.195551	-0.423529	0.067369	-0.903374
-5.706621	0.976221	-12.195551	-0.422713	0.072313	-0.903374
-5.694825	1.042833	-12.195551	-0.421839	0.077247	-0.903374
-5.682251	1.109303	-12.195551	-0.420908	0.082171	-0.903374
-5.668902	1.175621	-12.195551	-0.419919	0.087083	-0.903374
-5.654778	1.241778	-12.195551	-0.418872	0.091984	-0.903374
-5.639883	1.307767	-12.195551	-0.417769	0.096872	-0.903374
-5.624218	1.373576	-12.195551	-0.416609	0.101746	-0.903374
-5.607784	1.439198	-12.195551	-0.415391	0.106607	-0.903374
-5.590585	1.504624	-12.195551	-0.414117	0.111454	-0.903374
-5.572623	1.569844	-12.195551	-0.412787	0.116285	-0.903374
-5.553900	1.634850	-12.195551	-0.411400	0.121100	-0.903374
-5.534418	1.699632	-12.195551	-0.409957	0.125899	-0.903374
-5.514181	1.764183	-12.195551	-0.408458	0.130680	-0.903374
-5.493191	1.828492	-12.195551	-0.406903	0.135444	-0.903374
-5.471451	1.892552	-12.195551	-0.405293	0.140189	-0.903374
-5.448965	1.956354	-12.195551	-0.403627	0.144915	-0.903374
-5.425734	2.019888	-12.195551	-0.401906	0.149621	-0.903374
-5.401762	2.083147	-12.195551	-0.400131	0.154307	-0.903374
-5.377053	2.146122	-12.195551	-0.398300	0.158972	-0.903374
-5.351610	2.208803	-12.195551	-0.396416	0.163615	-0.903374
-5.325436	2.271182	-12.195551	-0.394477	0.168236	-0.903374
-5.298535	2.333252	-12.195551	-0.392484	0.172833	-0.903374
-5.270910	2.395003	-12.195551	-0.390438	0.177408	-0.903374
-5.242566	2.456427	-12.195551	-0.388338	0.181958	-0.903374
-5.213506	2.517516	-12.195551	-0.386186	0.186483	-0.903374
-5.183735	2.578261	-12.195551	-0.383980	0.190982	-0.903374
-5.153255	2.638654	-12.195551	-0.381723	0.195456	-0.903374
5.183735	2.578261	-12.195551	0.383980	0.190982	-0.903374
5.153255	2.638654	-12.195551	0.381723	0.195456	-0.903374
5.122072	2.698687	-12.195551	0.379413	0.199903	-0.903374
5.122072	-2.698687	-12.195551	0.379413	-0.199903	-0.903374
5.590585	-1.504624	-12.195551	0.414117	-0.111454	-0.903374
-5.122072	2.698687	-12.195551	-0.379413	0.199903	-0.903374
5.153255	-2.638654	-12.195551	0.381723	-0.195456	-0.903374
5.183735	-2.578261	-12.195551	0.383980	-0.190982	-0.903374
5.213506	-2.517516	-12.195551	0.386186	-0.186483	-0.903374
5.242566	-2.456427	-12.195551	0.388338	-0.181958	-0.903374
5.270910	-2.395003	-12.195551	0.390438	-0.177408	-0.903374
5.298535	-2.333252	-12.195551	0.392484	-0.172833	-0.903374
5.325436	-2.271182	-12.195551	0.394477	-0.168236	-0.903374
5.351610	-2.208803	-12.195551	0.396416	-0.163615	-0.903374
5.377053	-2.146122	-12.195551	0.398300	-0.158972	-0.903374
5.401762	-2.083147	-12.195551	0.400131	-0.154307	-0.903374
5.425734	-2.019888	-12.195551	0.401906	-0.149621	-0.903374
5.448965	-1.956354	-12.195551	0.403627	-0.144915	-0.903374
5.099020	2.741150	-12.195539	0.377710	0.203051	-0.903385
-5.099020	2.741150	-12.195539	-0.377710	0.203051	-0.903385
5.099020	-2.741150	-12.195539	0.377710	-0.203051	-0.903385
-5.099020	-2.741150	-12.195539	-0.377710	-0.203051	-0.903385
-5.099020	2.763332	-12.190571	-0.377709	0.204694	-0.903015
5.099020	2.763332	-12.190571	0.377709	0.204694	-0.903015
-5.099020	-2.763332	-12.190571	-0.377709	-0.204694	-0.903015
5.099020	-2.763332	-12.190571	0.377709	-0.204694	-0.903015
-5.099020	2.801182	-12.182093	-0.377705	0.207495	-0.902377
5.099020	-2.801182	-12.182093	0.377705	-0.207495	-0.902377
-5.099020	-2.801182	-12.182093	-0.377705	-0.207495	-0.902377
5.099020	2.801182	-12.182093	0.377705	0.207495	-0.902377
-5.099020	2.840913	-12.172720	-0.377709	0.210440	-0.901693
5.099020	2.840913	-12.172720	0.377709	0.210440	-0.901693
-5.099020	-2.840913	-12.172720	-0.377709	-0.210440	-0.901693
5.099020	-2.840913	-12.172720	0.377709	-0.210440	-0.901693
-5.099020	2.919418	-12.154201	-0.377708	0.216255	-0.900317
5.099020	2.919418	-12.154201	0.377708	0.216255	-0.900317
-5.099020	-2.919418	-12.154201	-0.377708	-0.216255	-0.900317
5.099020	-2.919418	-12.154201	0.377708	-0.216255	-0.900317
-5.099020	2.938666	-12.149660	-0.377705	0.217679	-0.899975
5.099020	-2.938666	-12.149660	0.377705	-0.217679	-0.899975
-5.099020	-2.938666	-12.149660	-0.377705	-0.217679	-0.899975
5.099020	2.938666	-12.149660	0.377705	0.217679	-0.899975
-5.099020	2.999199	-12.134657	-0.377710	0.222166	-0.898876
5.099020	2.999199	-12.134657	0.377710	0.222166	-0.898876
-5.099020	-2.999199	-12.134657	-0.377710	-0.222166	-0.898876
5.099020	-2.999199	-12.134657	0.377710	-0.222166	-0.898876
-5.926662	0.242515	-12.127071	-0.439012	0.017964	-0.898302
-5.923424	0.311748	-12.127071	-0.438772	0.023092	-0.898302
-5.919377	0.380938	-12.127071	-0.438472	0.028218	-0.898302
-5.914522	0.450077	-12.127071	-0.438113	0.033339	-0.898302
-5.908860	0.519154	-12.127071	-0.437693	0.038456	-0.898302
-5.902390	0.588160	-12.127071	-0.437214	0.043567	-0.898302
-5.895115	0.657086	-12.127071	-0.436675	0.048673	-0.898302
-5.887035	0.725922	-12.127071	-0.436077	0.053772	-0.898302
-5.878151	0.794659	-12.127071	-0.435419	0.058864	-0.898302
-5.868464	0.863288	-12.127071	-0.434701	0.063947	-0.898302
-5.857977	0.931799	-12.127071	-0.433924	0.069022	-0.898302
-5.846690	1.000182	-12.127071	-0.433088	0.074088	-0.898302
-5.834604	1.068429	-12.127071	-0.432193	0.079143	-0.898302
-5.821722	1.136530	-12.127071	-0.431239	0.084187	-0.898302
-5.808044	1.204476	-12.127071	-0.430226	0.089220	-0.898302
-5.793574	1.272258	-12.127071	-0.429154	0.094241	-0.898302
-5.778313	1.339866	-12.127071	-0.428023	0.099249	-0.898302
-5.762263	1.407290	-12.127071	-0.426834	0.104244	-0.898302
-5.745426	1.474523	-12.127071	-0.425587	0.109224	-0.898302
-5.727805	1.541554	-12.127071	-0.424282	0.114189	-0.898302
-5.709402	1.608375	-12.127071	-0.422919	0.119139	-0.898302
-5.690219	1.674977	-12.127071	-0.421498	0.124072	-0.898302
-5.670259	1.741349	-12.127071	-0.420019	0.128989	-0.898302
-5.649526	1.807484	-12.127071	-0.418483	0.133888	-0.898302
-5.628021	1.873372	-12.127071	-0.416890	0.138768	-0.898302
-5.605747	1.939005	-12.127071	-0.415241	0.143630	-0.898302
-5.582708	2.004372	-12.127071	-0.413534	0.148472	-0.898302
-5.558908	2.069466	-12.127071	-0.411771	0.153294	-0.898302
-5.534348	2.134278	-12.127071	-0.409952	0.158095	-0.898302
-5.509032	2.198798	-12.127071	-0.408076	0.162874	-0.898302
-5.482964	2.263017	-12.127071	-0.406145	0.167631	-0.898302
-5.456148	2.326928	-12.127071	-0.404159	0.172365	-0.898302
-5.428586	2.390521	-12.127071	-0.402118	0.177076	-0.898302
-5.400284	2.453788	-12.127071	-0.400021	0.181762	-0.898302
-5.371244	2.516720	-12.127071	-0.397870	0.186424	-0.898302
-5.341471	2.579308	-12.127071	-0.395665	0.191060	-0.898302
-5.310969	2.641544	-12.127071	-0.393405	0.195670	-0.898302
-5.279741	2.703419	-12.127071	-0.391092	0.200253	-0.898302
-5.247793	2.764925	-12.127071	-0.388725	0.204809	-0.898302
-5.215128	2.826054	-12.127071	-0.386306	0.209337	-0.898302
-5.181751	2.886797	-12.127071	-0.383833	0.213837	-0.898302
-5.147667	2.947146	-12.127071	-0.381309	0.218307	-0.898302
-5.727805	-1.541554	-12.127071	-0.424282	-0.114189	-0.898302
5.428586	-2.390521	-12.127071	0.402118	-0.177076	-0.898302
5.456148	-2.326928	-12.127071	0.404159	-0.172365	-0.898302
5.482964	-2.263017	-12.127071	0.406145	-0.167631	-0.898302
5.509032	-2.198798	-12.127071	0.408076	-0.162874	-0.898302
5.534348	-2.134278	-12.127071	0.409952	-0.158095	-0.898302
5.558908	-2.069466	-12.127071	0.411771	-0.153294	-0.898302
5.582708	-2.004372	-12.127071	0.413534	-0.148472	-0.898302
5.605747	-1.939005	-12.127071	0.415241	-0.143630	-0.898302
5.628021	-1.873372	-12.127071	0.416890	-0.138768	-0.898302
5.649526	-1.807484	-12.127071	0.418483	-0.133888	-0.898302
5.670259	-1.741349	-12.127071	0.420019	-0.128989	-0.898302
5.690219	-1.674977	-12.127071	0.421498	-0.124072	-0.898302
5.709402	-1.608375	-12.127071	0.422919	-0.119139	-0.898302
5.727805	-1.541554	-12.127071	0.424282	-0.114189	-0.898302
5.745426	-1.474523	-12.127071	0.425587	-0.109224	-0.898302
5.887035	-0.725922	-12.127071	0.436077	-0.053772	-0.898302
5.762263	-1.407290	-12.127071	0.426834	-0.104244	-0.898302
5.778313	-1.339866	-12.127071	0.428023	-0.099249	-0.898302
5.793574	-1.272258	-12.127071	0.429154	-0.094241	-0.898302
5.808044	-1.204476	-12.127071	0.430226	-0.089220	-0.898302
5.821722	-1.136530	-12.127071	0.431239	-0.084187	-0.898302
5.834604	-1.068429	-12.127071	0.432193	-0.079143	-0.898302
5.846690	-1.000182	-12.127071	0.433088	-0.074088	-0.898302
5.857977	-0.931799	-12.127071	0.433924	-0.069022	-0.898302
5.868464	-0.863288	-12.127071	0.434701	-0.063947	-0.898302
5.878151	-0.794659	-12.127071	0.435419	-0.058864	-0.898302
5.895115	-0.657086	-12.127071	0.436675	-0.048673	-0.898302
5.902390	-0.588160	-12.127071	0.437214	-0.043567	-0.898302
5.908860	-0.519154	-12.127071	0.437693	-0.038456	-0.898302
5.914522	-0.450077	-12.127071	0.438113	-0.033339	-0.898302
5.919377	-0.380938	-12.127071	0.438472	-0.028218	-0.898302
5.923424	-0.311748	-12.127071	0.438772	-0.023092	-0.898302
5.926662	-0.242515	-12.127071	0.439012	-0.017964	-0.898302
5.929091	-0.173248	-12.127071	0.439192	-0.012833	-0.898302
5.930711	-0.103958	-12.127071	0.439312	-0.007701	-0.898302
5.931521	-0.034654	-12.127071	0.439372	-0.002567	-0.898302
5.931521	0.034654	-12.127071	0.439372	0.002567	-0.898302
5.930711	0.103958	-12.127071	0.439312	0.007701	-0.898302
5.929091	0.173248	-12.127071	0.439192	0.012833	-0.898302
5.926662	0.242515	-12.127071	0.439012	0.017964	-0.898302
5.923424	0.311748	-12.127071	0.438772	0.023092	-0.898302
5.919377	0.380938	-12.127071	0.438472	0.028218	-0.898302
5.914522	0.450077	-12.127071	0.438113	0.033339	-0.898302
5.908860	0.519154	-12.127071	0.437693	0.038456	-0.898302
5.902390	0.588160	-12.127071	0.437214	0.043567	-0.898302
5.895115	0.657086	-12.127071	0.436675	0.048673	-0.898302
5.887035	0.725922	-12.127071	0.436077	0.053772	-0.898302
5.878151	0.794659	-12.127071	0.435419	0.058864	-0.898302
5.868464	0.863288	-12.127071	0.434701	0.063947	-0.898302
5.857977	0.931799	-12.127071	0.433924	0.069022	-0.898302
5.846690	1.000182	-12.127071	0.433088	0.074088	-0.898302
5.834604	1.068429	-12.127071	0.432193	0.079143	-0.898302
5.821722	1.136530	-12.127071	0.431239	0.084187	-0.898302
5.808044	1.204476	-12.127071	0.430226	0.089220	-0.898302
5.793574	1.272258	-12.127071	0.429154	0.094241	-0.898302
5.778313	1.339866	-12.127071	0.428023	0.099249	-0.898302
5.762263	1.407290	-12.127071	0.426834	0.104244	-0.898302
5.745426	1.474523	-12.127071	0.425587	0.109224	-0.898302
5.727805	1.541554	-12.127071	0.424282	0.114189	-0.898302
5.709402	1.608375	-12.127071	0.422919	0.119139	-0.898302
5.690219	1.674977	-12.127071	0.421498	0.124072	-0.898302
-5.745426	-1.474523	-12.127071	-0.425587	-0.109224	-0.898302
-5.762263	-1.407290	-12.127071	-0.426834	-0.104244	-0.898302
-5.778313	-1.339866	-12.127071	-0.428023	-0.099249	-0.898302
-5.793574	-1.272258	-12.127071	-0.429154	-0.094241	-0.898302
-5.808044	-1.204476	-12.127071	-0.430226	-0.089220	-0.898302
-5.821722	-1.136530	-12.127071	-0.431239	-0.084187	-0.898302
-5.834604	-1.068429	-12.127071	-0.432193	-0.079143	-0.898302
-5.846690	-1.000182	-12.127071	-0.433088	-0.074088	-0.898302
5.112880	-3.007092	-12.127071	0.378732	-0.222748	-0.898302
5.670259	1.741349	-12.127071	0.420019	0.128989	-0.898302
5.649526	1.807484	-12.127071	0.418483	0.133888	-0.898302
5.628021	1.873372	-12.127071	0.416890	0.138768	-0.898302
5.605747	1.939005	-12.127071	0.415241	0.143630	-0.898302
5.582708	2.004372	-12.127071	0.413534	0.148472	-0.898302
5.558908	2.069466	-12.127071	0.411771	0.153294	-0.898302
5.534348	2.134278	-12.127071	0.409952	0.158095	-0.898302
-5.857977	-0.931799	-12.127071	-0.433924	-0.069022	-0.898302
-5.868464	-0.863288	-12.127071	-0.434701	-0.063947	-0.898302
5.509032	2.198798	-12.127071	0.408076	0.162874	-0.898302
5.482964	2.263017	-12.127071	0.406145	0.167631	-0.898302
5.456148	2.326928	-12.127071	0.404159	0.172365	-0.898302
5.428586	2.390521	-12.127071	0.402118	0.177076	-0.898302
5.400284	2.453788	-12.127071	0.400021	0.181762	-0.898302
5.371244	2.516720	-12.127071	0.397870	0.186424	-0.898302
5.341471	2.579308	-12.127071	0.395665	0.191060	-0.898302
5.310969	2.641544	-12.127071	0.393405	0.195670	-0.898302
5.279741	2.703419	-12.127071	0.391092	0.200253	-0.898302
5.247793	2.764925	-12.127071	0.388725	0.204809	-0.898302
5.215128	2.826054	-12.127071	0.386306	0.209337	-0.898302
5.181751	2.886797	-12.127071	0.383833	0.213837	-0.898302
5.147667	2.947146	-12.127071	0.381309	0.218307	-0.898302
-5.670259	-1.741349	-12.127071	-0.420019	-0.128989	-0.898302
-5.649526	-1.807484	-12.127071	-0.418483	-0.133888	-0.898302
-5.878151	-0.794659	-12.127071	-0.435419	-0.058864	-0.898302
-5.887035	-0.725922	-12.127071	-0.436077	-0.053772	-0.898302
-5.895115	-0.657086	-12.127071	-0.436675	-0.048673	-0.898302
-5.902390	-0.588160	-12.127071	-0.437214	-0.043567	-0.898302
-5.908860	-0.519154	-12.127071	-0.437693	-0.038456	-0.898302
-5.914522	-0.450077	-12.127071	-0.438113	-0.033339	-0.898302
-5.919377	-0.380938	-12.127071	-0.438472	-0.028218	-0.898302
-5.923424	-0.311748	-12.127071	-0.438772	-0.023092	-0.898302
-5.628021	-1.873372	-12.127071	-0.416890	-0.138768	-0.898302
-5.605747	-1.939005	-12.127071	-0.415241	-0.143630	-0.898302
-5.582708	-2.004372	-12.127071	-0.413534	-0.148472	-0.898302
-5.558908	-2.069466	-12.127071	-0.411771	-0.153294	-0.898302
-5.534348	-2.134278	-12.127071	-0.409952	-0.158095	-0.898302
-5.509032	-2.198798	-12.127071	-0.408076	-0.162874	-0.898302
-5.709402	-1.608375	-12.127071	-0.422919	-0.119139	-0.898302
-5.482964	-2.263017	-12.127071	-0.406145	-0.167631	-0.898302
-5.456148	-2.326928	-12.127071	-0.404159	-0.172365	-0.898302
-5.428586	-2.390521	-12.127071	-0.402118	-0.177076	-0.898302
-5.400284	-2.453788	-12.127071	-0.400021	-0.181762	-0.898302
-5.371244	-2.516720	-12.127071	-0.397870	-0.186424	-0.898302
-5.341471	-2.579308	-12.127071	-0.395665	-0.191060	-0.898302
-5.310969	-2.641544	-12.127071	-0.393405	-0.195670	-0.898302
-5.279741	-2.703419	-12.127071	-0.391092	-0.200253	-0.898302
-5.247793	-2.764925	-12.127071	-0.388725	-0.204809	-0.898302
5.400284	-2.453788	-12.127071	0.400021	-0.181762	-0.898302
-5.926662	-0.242515	-12.127071	-0.439012	-0.017964	-0.898302
-5.929091	-0.173248	-12.127071	-0.439192	-0.012833	-0.898302
-5.930711	-0.103958	-12.127071	-0.439312	-0.007701	-0.898302
-5.931521	-0.034654	-12.127071	-0.439372	-0.002567	-0.898302
-5.931521	0.034654	-12.127071	-0.439372	0.002567	-0.898302
-5.930711	0.103958	-12.127071	-0.439312	0.007701	-0.898302
-5.929091	0.173248	-12.127071	-0.439192	0.012833	-0.898302
-5.112880	3.007092	-12.127071	-0.378732	0.222748	-0.898302
5.112880	3.007092	-12.127071	0.378732	0.222748	-0.898302
-5.215128	-2.826054	-12.127071	-0.386306	-0.209337	-0.898302
-5.181751	-2.886797	-12.127071	-0.383833	-0.213837	-0.898302
-5.147667	-2.947146	-12.127071	-0.381309	-0.218307	-0.898302
-5.112880	-3.007092	-12.127071	-0.378732	-0.222748	-0.898302
-5.690219	-1.674977	-12.127071	-0.421498	-0.124072	-0.898302
5.147667	-2.947146	-12.127071	0.381309	-0.218307	-0.898302
5.181751	-2.886797	-12.127071	0.383833	-0.213837	-0.898302
5.215128	-2.826054	-12.127071	0.386306	-0.209337	-0.898302
5.247793	-2.764925	-12.127071	0.388725	-0.204809	-0.898302
5.279741	-2.703419	-12.127071	0.391092	-0.200253	-0.898302
5.310969	-2.641544	-12.127071	0.393405	-0.195670	-0.898302
5.341471	-2.579308	-12.127071	0.395665	-0.191060	-0.898302
5.371244	-2.516720	-12.127071	0.397870	-0.186424	-0.898302
5.099020	3.029856	-12.127058	0.377710	0.224436	-0.898312
-5.099020	3.029856	-12.127058	-0.377710	0.224436	-0.898312
5.099020	-3.029856	-12.127058	0.377710	-0.224436	-0.898312
-5.099020	-3.029856	-12.127058	-0.377710	-0.224436	-0.898312
-5.099020	3.075775	-12.115676	-0.377705	0.227835	-0.897457
5.099020	-3.075775	-12.115676	0.377705	-0.227835	-0.897457
-5.099020	-3.075775	-12.115676	-0.377705	-0.227835	-0.897457
5.099020	3.075775	-12.115676	0.377705	0.227835	-0.897457
-5.099020	3.079719	-12.114651	-0.377706	0.228128	-0.897383
5.099020	3.079719	-12.114651	0.377706	0.228128	-0.897383
-5.099020	-3.079719	-12.114651	-0.377706	-0.228128	-0.897383
5.099020	-3.079719	-12.114651	0.377706	-0.228128	-0.897383
-5.099020	3.161839	-12.093308	-0.377710	0.234213	-0.895812
5.099020	3.161839	-12.093308	0.377710	0.234213	-0.895812
-5.099020	-3.161839	-12.093308	-0.377710	-0.234213	-0.895812
5.099020	-3.161839	-12.093308	0.377710	-0.234213	-0.895812
-5.099020	3.212492	-12.080145	-0.377705	0.237962	-0.894826
-5.099020	-3.212492	-12.080145	-0.377705	-0.237962	-0.894826
5.099020	-3.212492	-12.080145	0.377705	-0.237962	-0.894826
5.099020	3.212492	-12.080145	0.377705	0.237962	-0.894826
-5.099020	3.244877	-12.071337	-0.377709	0.240364	-0.894182
5.099020	3.244877	-12.071337	0.377709	0.240364	-0.894182
-5.099020	-3.244877	-12.071337	-0.377709	-0.240364	-0.894182
5.099020	-3.244877	-12.071337	0.377709	-0.240364	-0.894182
-5.666177	-2.185117	-12.056935	-0.419717	-0.161860	-0.893106
-5.691322	-2.118762	-12.056935	-0.421579	-0.156945	-0.893106
-5.715690	-2.052117	-12.056935	-0.423384	-0.152009	-0.893106
-5.739278	-1.985192	-12.056935	-0.425132	-0.147051	-0.893106
-5.762082	-1.917997	-12.056935	-0.426821	-0.142074	-0.893106
-5.784099	-1.850539	-12.056935	-0.428452	-0.137077	-0.893106
-5.805327	-1.782829	-12.056935	-0.430024	-0.132061	-0.893106
-5.825762	-1.714875	-12.056935	-0.431538	-0.127028	-0.893106
-5.845402	-1.646687	-12.056935	-0.432993	-0.121977	-0.893106
-5.864243	-1.578275	-12.056935	-0.434388	-0.116909	-0.893106
-5.882284	-1.509647	-12.056935	-0.435725	-0.111826	-0.893106
-5.899522	-1.440812	-12.056935	-0.437002	-0.106727	-0.893106
-5.915954	-1.371781	-12.056935	-0.438219	-0.101613	-0.893106
-5.931579	-1.302563	-12.056935	-0.439376	-0.096486	-0.893106
-5.946393	-1.233167	-12.056935	-0.440474	-0.091346	-0.893106
-5.973586	-1.093880	-12.056935	-0.442488	-0.081028	-0.893106
-5.985960	-1.024007	-12.056935	-0.443404	-0.075852	-0.893106
-5.997516	-0.953995	-12.056935	-0.444260	-0.070666	-0.893106
-6.008253	-0.883852	-12.056935	-0.445056	-0.065471	-0.893106
-6.018170	-0.813588	-12.056935	-0.445790	-0.060266	-0.893106
-6.027266	-0.743214	-12.056935	-0.446464	-0.055053	-0.893106
-6.035538	-0.672738	-12.056935	-0.447077	-0.049832	-0.893106
-6.042987	-0.602170	-12.056935	-0.447629	-0.044605	-0.893106
-6.049611	-0.531520	-12.056935	-0.448119	-0.039372	-0.893106
-6.055408	-0.460798	-12.056935	-0.448549	-0.034133	-0.893106
-6.060379	-0.390012	-12.056935	-0.448917	-0.028890	-0.893106
-6.064522	-0.319174	-12.056935	-0.449224	-0.023642	-0.893106
-6.067837	-0.248291	-12.056935	-0.449469	-0.018392	-0.893106
-6.070324	-0.177375	-12.056935	-0.449654	-0.013139	-0.893106
-6.071982	-0.106435	-12.056935	-0.449776	-0.007884	-0.893106
-6.072812	-0.035480	-12.056935	-0.449838	-0.002628	-0.893106
-6.072812	0.035480	-12.056935	-0.449838	0.002628	-0.893106
-6.071982	0.106435	-12.056935	-0.449776	0.007884	-0.893106
-6.070324	0.177375	-12.056935	-0.449654	0.013139	-0.893106
-6.067837	0.248291	-12.056935	-0.449469	0.018392	-0.893106
-6.064522	0.319174	-12.056935	-0.449224	0.023642	-0.893106
-6.060379	0.390012	-12.056935	-0.448917	0.028890	-0.893106
-6.055408	0.460798	-12.056935	-0.448549	0.034133	-0.893106
-6.049611	0.531520	-12.056935	-0.448119	0.039372	-0.893106
-6.042987	0.602170	-12.056935	-0.447629	0.044605	-0.893106
-6.035538	0.672738	-12.056935	-0.447077	0.049832	-0.893106
-6.027266	0.743214	-12.056935	-0.446464	0.055053	-0.893106
-6.018170	0.813588	-12.056935	-0.445790	0.060266	-0.893106
-6.008253	0.883852	-12.056935	-0.445056	0.065471	-0.893106
-5.997516	0.953995	-12.056935	-0.444260	0.070666	-0.893106
-5.985960	1.024007	-12.056935	-0.443404	0.075852	-0.893106
-5.973586	1.093880	-12.056935	-0.442488	0.081028	-0.893106
-5.960397	1.163603	-12.056935	-0.441511	0.086193	-0.893106
-5.946393	1.233167	-12.056935	-0.440474	0.091346	-0.893106
-5.931579	1.302563	-12.056935	-0.439376	0.096486	-0.893106
-5.915954	1.371781	-12.056935	-0.438219	0.101613	-0.893106
-5.899522	1.440812	-12.056935	-0.437002	0.106727	-0.893106
-5.882284	1.509647	-12.056935	-0.435725	0.111826	-0.893106
-5.864243	1.578275	-12.056935	-0.434388	0.116909	-0.893106
-5.845402	1.646687	-12.056935	-0.432993	0.121977	-0.893106
-5.825762	1.714875	-12.056935	-0.431538	0.127028	-0.893106
-5.805327	1.782829	-12.056935	-0.430024	0.132061	-0.893106
-5.784099	1.850539	-12.056935	-0.428452	0.137077	-0.893106
-5.762082	1.917997	-12.056935	-0.426821	0.142074	-0.893106
-5.739278	1.985192	-12.056935	-0.425132	0.147051	-0.893106
5.123555	-3.260290	-12.056935	0.379523	-0.241503	-0.893106
-5.715690	2.052117	-12.056935	-0.423384	0.152009	-0.893106
-5.691322	2.118762	-12.056935	-0.421579	0.156945	-0.893106
-5.666177	2.185117	-12.056935	-0.419717	0.161860	-0.893106
-5.640259	2.251173	-12.056935	-0.417797	0.166754	-0.893106
-5.613570	2.316923	-12.056935	-0.415820	0.171624	-0.893106
-5.586115	2.382356	-12.056935	-0.413786	0.176471	-0.893106
-5.557897	2.447464	-12.056935	-0.411696	0.181294	-0.893106
-5.528920	2.512238	-12.056935	-0.409550	0.186092	-0.893106
-5.499189	2.576669	-12.056935	-0.407347	0.190864	-0.893106
-5.468707	2.640748	-12.056935	-0.405089	0.195611	-0.893106
-5.437478	2.704466	-12.056935	-0.402776	0.200331	-0.893106
-5.405506	2.767816	-12.056935	-0.400408	0.205023	-0.893106
-5.372797	2.830787	-12.056935	-0.397985	0.209688	-0.893106
-5.339354	2.893372	-12.056935	-0.395508	0.214324	-0.893106
-5.305182	2.955561	-12.056935	-0.392976	0.218930	-0.893106
-5.270286	3.017348	-12.056935	-0.390392	0.223507	-0.893106
-5.234670	3.078722	-12.056935	-0.387753	0.228053	-0.893106
-5.198339	3.139676	-12.056935	-0.385062	0.232569	-0.893106
-5.161299	3.200201	-12.056935	-0.382318	0.237052	-0.893106
-5.123555	3.260290	-12.056935	-0.379523	0.241503	-0.893106
5.161299	-3.200201	-12.056935	0.382318	-0.237052	-0.893106
5.198339	-3.139676	-12.056935	0.385062	-0.232569	-0.893106
5.234670	-3.078722	-12.056935	0.387753	-0.228053	-0.893106
5.270286	-3.017348	-12.056935	0.390392	-0.223507	-0.893106
5.305182	-2.955561	-12.056935	0.392976	-0.218930	-0.893106
5.339354	-2.893372	-12.056935	0.395508	-0.214324	-0.893106
5.372797	-2.830787	-12.056935	0.397985	-0.209688	-0.893106
5.405506	-2.767816	-12.056935	0.400408	-0.205023	-0.893106
5.437478	-2.704466	-12.056935	0.402776	-0.200331	-0.893106
5.468707	-2.640748	-12.056935	0.405089	-0.195611	-0.893106
5.499189	-2.576669	-12.056935	0.407347	-0.190864	-0.893106
5.528920	-2.512238	-12.056935	0.409550	-0.186092	-0.893106
5.557897	-2.447464	-12.056935	0.411696	-0.181294	-0.893106
5.586115	-2.382356	-12.056935	0.413786	-0.176471	-0.893106
5.613570	-2.316923	-12.056935	0.415820	-0.171624	-0.893106
5.640259	-2.251173	-12.056935	0.417797	-0.166754	-0.893106
5.666177	-2.185117	-12.056935	0.419717	-0.161860	-0.893106
5.691322	-2.118762	-12.056935	0.421579	-0.156945	-0.893106
5.715690	-2.052117	-12.056935	0.423384	-0.152009	-0.893106
5.739278	-1.985192	-12.056935	0.425132	-0.147051	-0.893106
5.762082	-1.917997	-12.056935	0.426821	-0.142074	-0.893106
5.784099	-1.850539	-12.056935	0.428452	-0.137077	-0.893106
5.805327	-1.782829	-12.056935	0.430024	-0.132061	-0.893106
5.825762	-1.714875	-12.056935	0.431538	-0.127028	-0.893106
5.845402	-1.646687	-12.056935	0.432993	-0.121977	-0.893106
5.864243	-1.578275	-12.056935	0.434388	-0.116909	-0.893106
5.882284	-1.509647	-12.056935	0.435725	-0.111826	-0.893106
5.899522	-1.440812	-12.056935	0.437002	-0.106727	-0.893106
5.915954	-1.371781	-12.056935	0.438219	-0.101613	-0.893106
5.931579	-1.302563	-12.056935	0.439376	-0.096486	-0.893106
5.946393	-1.233167	-12.056935	0.440474	-0.091346	-0.893106
5.960397	-1.163603	-12.056935	0.441511	-0.086193	-0.893106
5.973586	-1.093880	-12.056935	0.442488	-0.081028	-0.893106
5.985960	-1.024007	-12.056935	0.443404	-0.075852	-0.893106
5.997516	-0.953995	-12.056935	0.444260	-0.070666	-0.893106
6.008253	-0.883852	-12.056935	0.445056	-0.065471	-0.893106
6.018170	-0.813588	-12.056935	0.445790	-0.060266	-0.893106
6.027266	-0.743214	-12.056935	0.446464	-0.055053	-0.893106
6.035538	-0.672738	-12.056935	0.447077	-0.049832	-0.893106
6.042987	-0.602170	-12.056935	0.447629	-0.044605	-0.893106
6.049611	-0.531520	-12.056935	0.448119	-0.039372	-0.893106
6.055408	-0.460798	-12.056935	0.448549	-0.034133	-0.893106
6.060379	-0.390012	-12.056935	0.448917	-0.028890	-0.893106
6.064522	-0.319174	-12.056935	0.449224	-0.023642	-0.893106
6.067837	-0.248291	-12.056935	0.449469	-0.018392	-0.893106
6.070324	-0.177375	-12.056935	0.449654	-0.013139	-0.893106
6.071982	-0.106435	-12.056935	0.449776	-0.007884	-0.893106
6.072812	-0.035480	-12.056935	0.449838	-0.002628	-0.893106
6.072812	0.035480	-12.056935	0.449838	0.002628	-0.893106
6.071982	0.106435	-12.056935	0.449776	0.007884	-0.893106
6.070324	0.177375	-12.056935	0.449654	0.013139	-0.893106
6.067837	0.248291	-12.056935	0.449469	0.018392	-0.893106
6.064522	0.319174	-12.056935	0.449224	0.023642	-0.893106
6.060379	0.390012	-12.056935	0.448917	0.028890	-0.893106
6.055408	0.460798	-12.056935	0.448549	0.034133	-0.893106
6.049611	0.531520	-12.056935	0.448119	0.039372	-0.893106
6.042987	0.602170	-12.056935	0.447629	0.044605	-0.893106
6.035538	0.672738	-12.056935	0.447077	0.049832	-0.893106
6.027266	0.743214	-12.056935	0.446464	0.055053	-0.893106
6.018170	0.813588	-12.056935	0.445790	0.060266	-0.893106
6.008253	0.883852	-12.056935	0.445056	0.065471	-0.893106
5.997516	0.953995	-12.056935	0.444260	0.070666	-0.893106
5.985960	1.024007	-12.056935	0.443404	0.075852	-0.893106
5.973586	1.093880	-12.056935	0.442488	0.081028	-0.893106
5.960397	1.163603	-12.056935	0.441511	0.086193	-0.893106
