-3.313253	-23.948511	-13.517354	0.000000	-0.870855	-0.491540
-3.578313	-23.948511	-13.517354	0.000000	-0.870855	-0.491540
-3.843374	-23.948511	-13.517354	0.000000	-0.870855	-0.491540
-4.108434	-23.948511	-13.517354	0.000000	-0.870855	-0.491540
-4.373494	-23.948511	-13.517354	0.000000	-0.870855	-0.491540
-4.638554	-23.948511	-13.517354	0.000000	-0.870855	-0.491540
-4.903615	-23.948511	-13.517354	0.000000	-0.870855	-0.491540
-5.168674	-23.948511	-13.517354	0.000000	-0.870855	-0.491540
-5.433735	-23.948511	-13.517354	0.000000	-0.870855	-0.491540
-5.698795	-23.948511	-13.517354	0.000000	-0.870855	-0.491540
-10.734940	23.948511	-13.517354	0.000000	0.870855	-0.491540
-10.469879	23.948511	-13.517354	0.000000	0.870855	-0.491540
-10.204820	23.948511	-13.517354	0.000000	0.870855	-0.491540
-9.939759	23.948511	-13.517354	0.000000	0.870855	-0.491540
-9.674699	23.948511	-13.517354	0.000000	0.870855	-0.491540
-9.409638	23.948511	-13.517354	0.000000	0.870855	-0.491540
-9.144578	23.948511	-13.517354	0.000000	0.870855	-0.491540
-8.879519	23.948511	-13.517354	0.000000	0.870855	-0.491540
-8.614458	23.948511	-13.517354	0.000000	0.870855	-0.491540
-8.349398	23.948511	-13.517354	0.000000	0.870855	-0.491540
-8.084337	23.948511	-13.517354	0.000000	0.870855	-0.491540
-7.819277	23.948511	-13.517354	0.000000	0.870855	-0.491540
-7.554217	23.948511	-13.517354	0.000000	0.870855	-0.491540
-7.289156	23.948511	-13.517354	0.000000	0.870855	-0.491540
-7.024096	23.948511	-13.517354	0.000000	0.870855	-0.491540
-6.759036	23.948511	-13.517354	0.000000	0.870855	-0.491540
-2.253012	23.948511	-13.517354	0.000000	0.870855	-0.491540
-1.987952	23.948511	-13.517354	0.000000	0.870855	-0.491540
-1.722892	23.948511	-13.517354	0.000000	0.870855	-0.491540
-1.457831	23.948511	-13.517354	0.000000	0.870855	-0.491540
-1.192771	23.948511	-13.517354	0.000000	0.870855	-0.491540
-11.000000	23.948511	-13.517354	0.000000	0.870855	-0.491540
1.987952	23.948511	-13.517354	0.000000	0.870855	-0.491540
1.722892	23.948511	-13.517354	0.000000	0.870855	-0.491540
1.457831	23.948511	-13.517354	0.000000	0.870855	-0.491540
1.192771	23.948511	-13.517354	0.000000	0.870855	-0.491540
0.927711	23.948511	-13.517354	0.000000	0.870855	-0.491540
0.662651	23.948511	-13.517354	0.000000	0.870855	-0.491540
0.397590	23.948511	-13.517354	0.000000	0.870855	-0.491540
0.132530	23.948511	-13.517354	0.000000	0.870855	-0.491540
-0.132530	23.948511	-13.517354	0.000000	0.870855	-0.491540
-0.397590	23.948511	-13.517354	0.000000	0.870855	-0.491540
5.168674	23.948511	-13.517354	0.000000	0.870855	-0.491540
4.903615	23.948511	-13.517354	0.000000	0.870855	-0.491540
-0.662651	23.948511	-13.517354	0.000000	0.870855	-0.491540
4.638554	23.948511	-13.517354	0.000000	0.870855	-0.491540
4.373494	23.948511	-13.517354	0.000000	0.870855	-0.491540
4.108434	23.948511	-13.517354	0.000000	0.870855	-0.491540
3.843374	23.948511	-13.517354	0.000000	0.870855	-0.491540
3.578313	23.948511	-13.517354	0.000000	0.870855	-0.491540
3.313253	23.948511	-13.517354	0.000000	0.870855	-0.491540
3.048193	23.948511	-13.517354	0.000000	0.870855	-0.491540
2.253012	23.948511	-13.517354	0.000000	0.870855	-0.491540
2.783133	23.948511	-13.517354	0.000000	0.870855	-0.491540
-2.518072	23.948511	-13.517354	0.000000	0.870855	-0.491540
-3.048193	23.948511	-13.517354	0.000000	0.870855	-0.491540
10.204820	23.948511	-13.517354	0.000000	0.870855	-0.491540
-3.313253	23.948511	-13.517354	0.000000	0.870855	-0.491540
-3.578313	23.948511	-13.517354	0.000000	0.870855	-0.491540
-3.843374	23.948511	-13.517354	0.000000	0.870855	-0.491540
2.518072	23.948511	-13.517354	0.000000	0.870855	-0.491540
-4.108434	23.948511	-13.517354	0.000000	0.870855	-0.491540
-4.373494	23.948511	-13.517354	0.000000	0.870855	-0.491540
-4.638554	23.948511	-13.517354	0.000000	0.870855	-0.491540
-4.903615	23.948511	-13.517354	0.000000	0.870855	-0.491540
-5.168674	23.948511	-13.517354	0.000000	0.870855	-0.491540
-5.433735	23.948511	-13.517354	0.000000	0.870855	-0.491540
-5.698795	23.948511	-13.517354	0.000000	0.870855	-0.491540
-5.963855	23.948511	-13.517354	0.000000	0.870855	-0.491540
-6.228916	23.948511	-13.517354	0.000000	0.870855	-0.491540
-6.493976	23.948511	-13.517354	0.000000	0.870855	-0.491540
-2.783133	23.948511	-13.517354	0.000000	0.870855	-0.491540
-0.927711	23.948511	-13.517354	0.000000	0.870855	-0.491540
11.000000	23.948511	-13.517354	0.000000	0.870855	-0.491540
10.734940	23.948511	-13.517354	0.000000	0.870855	-0.491540
10.469879	23.948511	-13.517354	0.000000	0.870855	-0.491540
9.939759	23.948511	-13.517354	0.000000	0.870855	-0.491540
9.674699	23.948511	-13.517354	0.000000	0.870855	-0.491540
9.409638	23.948511	-13.517354	0.000000	0.870855	-0.491540
9.144578	23.948511	-13.517354	0.000000	0.870855	-0.491540
8.879519	23.948511	-13.517354	0.000000	0.870855	-0.491540
8.614458	23.948511	-13.517354	0.000000	0.870855	-0.491540
8.349398	23.948511	-13.517354	0.000000	0.870855	-0.491540
8.084337	23.948511	-13.517354	0.000000	0.870855	-0.491540
7.819277	23.948511	-13.517354	0.000000	0.870855	-0.491540
7.554217	23.948511	-13.517354	0.000000	0.870855	-0.491540
7.289156	23.948511	-13.517354	0.000000	0.870855	-0.491540
7.024096	23.948511	-13.517354	0.000000	0.870855	-0.491540
6.759036	23.948511	-13.517354	0.000000	0.870855	-0.491540
6.493976	23.948511	-13.517354	0.000000	0.870855	-0.491540
6.228916	23.948511	-13.517354	0.000000	0.870855	-0.491540
5.963855	23.948511	-13.517354	0.000000	0.870855	-0.491540
5.698795	23.948511	-13.517354	0.000000	0.870855	-0.491540
5.433735	23.948511	-13.517354	0.000000	0.870855	-0.491540
0.075104	23.958412	-13.499797	0.000000	0.871215	-0.490902
-0.095086	23.958487	-13.499664	0.000000	0.871218	-0.490897
-0.132530	23.958767	-13.499167	0.000000	0.871228	-0.490879
0.132530	23.958792	-13.499123	0.000000	0.871229	-0.490877
0.245739	23.959539	-13.497794	0.000000	0.871256	-0.490829
-0.265252	23.959759	-13.497407	0.000000	0.871264	-0.490815
0.397590	23.961618	-13.494102	0.000000	0.871332	-0.490695
-0.397590	23.961681	-13.493991	0.000000	0.871334	-0.490691
0.416148	23.961874	-13.493651	0.000000	0.871341	-0.490678
-0.435861	23.962238	-13.493003	0.000000	0.871354	-0.490655
0.586348	23.965408	-13.487370	0.000000	0.871469	-0.490450
-0.606217	23.965921	-13.486459	0.000000	0.871488	-0.490417
0.662651	23.967535	-13.483591	0.000000	0.871547	-0.490312
-0.662651	23.967543	-13.483579	0.000000	0.871547	-0.490312
0.756357	23.970146	-13.478950	0.000000	0.871642	-0.490144
-0.776338	23.970806	-13.477776	0.000000	0.871666	-0.490101
0.926193	23.976082	-13.468388	0.000000	0.871858	-0.489760
0.927711	23.976147	-13.468274	0.000000	0.871860	-0.489755
-0.927711	23.976225	-13.468134	0.000000	0.871863	-0.489750
-0.946241	23.976889	-13.466953	0.000000	0.871887	-0.489707
1.095873	23.983215	-13.455681	0.000000	0.872117	-0.489297
-1.115945	23.984165	-13.453989	0.000000	0.872151	-0.489236
1.192771	23.987976	-13.447190	0.000000	0.872290	-0.488989
-1.192771	23.988003	-13.447142	0.000000	0.872291	-0.488987
1.265414	23.991545	-13.440825	0.000000	0.872420	-0.488757
-1.285466	23.992634	-13.438880	0.000000	0.872459	-0.488687
1.434835	24.001068	-13.423814	0.000000	0.872766	-0.488139
-1.454822	24.002293	-13.421621	0.000000	0.872811	-0.488059
-1.457831	24.002485	-13.421276	0.000000	0.872818	-0.488046
1.457831	24.002522	-13.421209	0.000000	0.872819	-0.488044
1.604151	24.011780	-13.404640	0.000000	0.873156	-0.487441
-1.624030	24.013138	-13.402208	0.000000	0.873205	-0.487353
1.722892	24.020132	-13.389666	0.000000	0.873459	-0.486897
-1.722892	24.020172	-13.389593	0.000000	0.873461	-0.486894
1.773380	24.023684	-13.383298	0.000000	0.873588	-0.486665
-1.793108	24.025167	-13.380634	0.000000	0.873642	-0.486569
1.942539	24.036772	-13.359776	0.000000	0.874064	-0.485810
-1.962073	24.038376	-13.356890	0.000000	0.874123	-0.485705
-1.987952	24.040581	-13.352918	0.000000	0.874203	-0.485561
1.987952	24.040604	-13.352871	0.000000	0.874204	-0.485559
2.111643	24.051044	-13.334064	0.000000	0.874583	-0.484875
-2.130942	24.052761	-13.330968	0.000000	0.874646	-0.484762
2.253012	24.063967	-13.310725	0.000000	0.875053	-0.484026
-2.253012	24.064013	-13.310637	0.000000	0.875055	-0.484023
2.280710	24.066498	-13.306152	0.000000	0.875145	-0.483860
-2.299730	24.068319	-13.302856	0.000000	0.875212	-0.483740
0.397590	-24.079050	-13.283424	0.000000	-0.875602	-0.483034
0.662651	-24.079050	-13.283424	0.000000	-0.875602	-0.483034
0.927711	-24.079050	-13.283424	0.000000	-0.875602	-0.483034
1.192771	-24.079050	-13.283424	0.000000	-0.875602	-0.483034
3.313253	-24.079050	-13.283424	0.000000	-0.875602	-0.483034
3.578313	-24.079050	-13.283424	0.000000	-0.875602	-0.483034
1.457831	-24.079050	-13.283424	0.000000	-0.875602	-0.483034
1.722892	-24.079050	-13.283424	0.000000	-0.875602	-0.483034
3.843374	-24.079050	-13.283424	0.000000	-0.875602	-0.483034
4.108434	-24.079050	-13.283424	0.000000	-0.875602	-0.483034
4.373494	-24.079050	-13.283424	0.000000	-0.875602	-0.483034
4.638554	-24.079050	-13.283424	0.000000	-0.875602	-0.483034
1.987952	-24.079050	-13.283424	0.000000	-0.875602	-0.483034
2.253012	-24.079050	-13.283424	0.000000	-0.875602	-0.483034
2.518072	-24.079050	-13.283424	0.000000	-0.875602	-0.483034
2.783133	-24.079050	-13.283424	0.000000	-0.875602	-0.483034
3.048193	-24.079050	-13.283424	0.000000	-0.875602	-0.483034
-11.000000	-24.079050	-13.283424	0.000000	-0.875602	-0.483034
11.000000	-24.079050	-13.283424	0.000000	-0.875602	-0.483034
10.734940	-24.079050	-13.283424	0.000000	-0.875602	-0.483034
10.469879	-24.079050	-13.283424	0.000000	-0.875602	-0.483034
10.204820	-24.079050	-13.283424	0.000000	-0.875602	-0.483034
9.939759	-24.079050	-13.283424	0.000000	-0.875602	-0.483034
9.674699	-24.079050	-13.283424	0.000000	-0.875602	-0.483034
9.409638	-24.079050	-13.283424	0.000000	-0.875602	-0.483034
9.144578	-24.079050	-13.283424	0.000000	-0.875602	-0.483034
8.879519	-24.079050	-13.283424	0.000000	-0.875602	-0.483034
8.614458	-24.079050	-13.283424	0.000000	-0.875602	-0.483034
8.349398	-24.079050	-13.283424	0.000000	-0.875602	-0.483034
8.084337	-24.079050	-13.283424	0.000000	-0.875602	-0.483034
7.819277	-24.079050	-13.283424	0.000000	-0.875602	-0.483034
7.554217	-24.079050	-13.283424	0.000000	-0.875602	-0.483034
-9.939759	-24.079050	-13.283424	0.000000	-0.875602	-0.483034
7.289156	-24.079050	-13.283424	0.000000	-0.875602	-0.483034
6.759036	-24.079050	-13.283424	0.000000	-0.875602	-0.483034
6.493976	-24.079050	-13.283424	0.000000	-0.875602	-0.483034
6.228916	-24.079050	-13.283424	0.000000	-0.875602	-0.483034
5.963855	-24.079050	-13.283424	0.000000	-0.875602	-0.483034
5.698795	-24.079050	-13.283424	0.000000	-0.875602	-0.483034
5.433735	-24.079050	-13.283424	0.000000	-0.875602	-0.483034
5.168674	-24.079050	-13.283424	0.000000	-0.875602	-0.483034
7.024096	-24.079050	-13.283424	0.000000	-0.875602	-0.483034
-0.927711	-24.079050	-13.283424	0.000000	-0.875602	-0.483034
4.903615	-24.079050	-13.283424	0.000000	-0.875602	-0.483034
-10.734940	-24.079050	-13.283424	0.000000	-0.875602	-0.483034
-10.469879	-24.079050	-13.283424	0.000000	-0.875602	-0.483034
-10.204820	-24.079050	-13.283424	0.000000	-0.875602	-0.483034
-9.674699	-24.079050	-13.283424	0.000000	-0.875602	-0.483034
-9.409638	-24.079050	-13.283424	0.000000	-0.875602	-0.483034
-9.144578	-24.079050	-13.283424	0.000000	-0.875602	-0.483034
-8.879519	-24.079050	-13.283424	0.000000	-0.875602	-0.483034
-8.614458	-24.079050	-13.283424	0.000000	-0.875602	-0.483034
-8.349398	-24.079050	-13.283424	0.000000	-0.875602	-0.483034
-8.084337	-24.079050	-13.283424	0.000000	-0.875602	-0.483034
-7.819277	-24.079050	-13.283424	0.000000	-0.875602	-0.483034
-7.554217	-24.079050	-13.283424	0.000000	-0.875602	-0.483034
-7.289156	-24.079050	-13.283424	0.000000	-0.875602	-0.483034
-7.024096	-24.079050	-13.283424	0.000000	-0.875602	-0.483034
-6.759036	-24.079050	-13.283424	0.000000	-0.875602	-0.483034
-6.493976	-24.079050	-13.283424	0.000000	-0.875602	-0.483034
-6.228916	-24.079050	-13.283424	0.000000	-0.875602	-0.483034
-5.963855	-24.079050	-13.283424	0.000000	-0.875602	-0.483034
-5.698795	-24.079050	-13.283424	0.000000	-0.875602	-0.483034
-5.433735	-24.079050	-13.283424	0.000000	-0.875602	-0.483034
-5.168674	-24.079050	-13.283424	0.000000	-0.875602	-0.483034
-4.903615	-24.079050	-13.283424	0.000000	-0.875602	-0.483034
-4.638554	-24.079050	-13.283424	0.000000	-0.875602	-0.483034
-4.373494	-24.079050	-13.283424	0.000000	-0.875602	-0.483034
-4.108434	-24.079050	-13.283424	0.000000	-0.875602	-0.483034
-3.843374	-24.079050	-13.283424	0.000000	-0.875602	-0.483034
-3.578313	-24.079050	-13.283424	0.000000	-0.875602	-0.483034
-3.313253	-24.079050	-13.283424	0.000000	-0.875602	-0.483034
-3.048193	-24.079050	-13.283424	0.000000	-0.875602	-0.483034
-2.783133	-24.079050	-13.283424	0.000000	-0.875602	-0.483034
-2.518072	-24.079050	-13.283424	0.000000	-0.875602	-0.483034
-2.253012	-24.079050	-13.283424	0.000000	-0.875602	-0.483034
-1.987952	-24.079050	-13.283424	0.000000	-0.875602	-0.483034
-1.722892	-24.079050	-13.283424	0.000000	-0.875602	-0.483034
-1.457831	-24.079050	-13.283424	0.000000	-0.875602	-0.483034
-1.192771	-24.079050	-13.283424	0.000000	-0.875602	-0.483034
-0.662651	-24.079050	-13.283424	0.000000	-0.875602	-0.483034
-0.397590	-24.079050	-13.283424	0.000000	-0.875602	-0.483034
-0.132530	-24.079050	-13.283424	0.000000	-0.875602	-0.483034
0.132530	-24.079050	-13.283424	0.000000	-0.875602	-0.483034
-11.000000	24.079050	-13.283424	0.000000	0.875602	-0.483034
-3.313253	24.079050	-13.283424	0.000000	0.875602	-0.483034
-3.048193	24.079050	-13.283424	0.000000	0.875602	-0.483034
-2.518072	24.079050	-13.283424	0.000000	0.875602	-0.483034
-2.783133	24.079050	-13.283424	0.000000	0.875602	-0.483034
2.518072	24.079050	-13.283424	0.000000	0.875602	-0.483034
2.783133	24.079050	-13.283424	0.000000	0.875602	-0.483034
3.048193	24.079050	-13.283424	0.000000	0.875602	-0.483034
3.313253	24.079050	-13.283424	0.000000	0.875602	-0.483034
3.578313	24.079050	-13.283424	0.000000	0.875602	-0.483034
-10.734940	24.079050	-13.283424	0.000000	0.875602	-0.483034
9.144578	24.079050	-13.283424	0.000000	0.875602	-0.483034
-10.469879	24.079050	-13.283424	0.000000	0.875602	-0.483034
-10.204820	24.079050	-13.283424	0.000000	0.875602	-0.483034
-9.939759	24.079050	-13.283424	0.000000	0.875602	-0.483034
-9.674699	24.079050	-13.283424	0.000000	0.875602	-0.483034
-9.409638	24.079050	-13.283424	0.000000	0.875602	-0.483034
-9.144578	24.079050	-13.283424	0.000000	0.875602	-0.483034
-8.879519	24.079050	-13.283424	0.000000	0.875602	-0.483034
-8.614458	24.079050	-13.283424	0.000000	0.875602	-0.483034
-8.349398	24.079050	-13.283424	0.000000	0.875602	-0.483034
-8.084337	24.079050	-13.283424	0.000000	0.875602	-0.483034
-7.819277	24.079050	-13.283424	0.000000	0.875602	-0.483034
-7.554217	24.079050	-13.283424	0.000000	0.875602	-0.483034
-7.289156	24.079050	-13.283424	0.000000	0.875602	-0.483034
-7.024096	24.079050	-13.283424	0.000000	0.875602	-0.483034
-6.759036	24.079050	-13.283424	0.000000	0.875602	-0.483034
-6.493976	24.079050	-13.283424	0.000000	0.875602	-0.483034
-6.228916	24.079050	-13.283424	0.000000	0.875602	-0.483034
-5.963855	24.079050	-13.283424	0.000000	0.875602	-0.483034
-5.698795	24.079050	-13.283424	0.000000	0.875602	-0.483034
-5.433735	24.079050	-13.283424	0.000000	0.875602	-0.483034
-4.903615	24.079050	-13.283424	0.000000	0.875602	-0.483034
-4.638554	24.079050	-13.283424	0.000000	0.875602	-0.483034
-4.373494	24.079050	-13.283424	0.000000	0.875602	-0.483034
-4.108434	24.079050	-13.283424	0.000000	0.875602	-0.483034
-3.843374	24.079050	-13.283424	0.000000	0.875602	-0.483034
9.409638	24.079050	-13.283424	0.000000	0.875602	-0.483034
-3.578313	24.079050	-13.283424	0.000000	0.875602	-0.483034
9.674699	24.079050	-13.283424	0.000000	0.875602	-0.483034
9.939759	24.079050	-13.283424	0.000000	0.875602	-0.483034
3.843374	24.079050	-13.283424	0.000000	0.875602	-0.483034
10.204820	24.079050	-13.283424	0.000000	0.875602	-0.483034
4.108434	24.079050	-13.283424	0.000000	0.875602	-0.483034
10.469879	24.079050	-13.283424	0.000000	0.875602	-0.483034
4.373494	24.079050	-13.283424	0.000000	0.875602	-0.483034
10.734940	24.079050	-13.283424	0.000000	0.875602	-0.483034
4.638554	24.079050	-13.283424	0.000000	0.875602	-0.483034
11.000000	24.079050	-13.283424	0.000000	0.875602	-0.483034
4.903615	24.079050	-13.283424	0.000000	0.875602	-0.483034
5.168674	24.079050	-13.283424	0.000000	0.875602	-0.483034
5.433735	24.079050	-13.283424	0.000000	0.875602	-0.483034
5.698795	24.079050	-13.283424	0.000000	0.875602	-0.483034
5.963855	24.079050	-13.283424	0.000000	0.875602	-0.483034
6.228916	24.079050	-13.283424	0.000000	0.875602	-0.483034
6.493976	24.079050	-13.283424	0.000000	0.875602	-0.483034
6.759036	24.079050	-13.283424	0.000000	0.875602	-0.483034
7.024096	24.079050	-13.283424	0.000000	0.875602	-0.483034
7.289156	24.079050	-13.283424	0.000000	0.875602	-0.483034
7.554217	24.079050	-13.283424	0.000000	0.875602	-0.483034
7.819277	24.079050	-13.283424	0.000000	0.875602	-0.483034
8.084337	24.079050	-13.283424	0.000000	0.875602	-0.483034
8.349398	24.079050	-13.283424	0.000000	0.875602	-0.483034
8.614458	24.079050	-13.283424	0.000000	0.875602	-0.483034
8.879519	24.079050	-13.283424	0.000000	0.875602	-0.483034
-5.168674	24.079050	-13.283424	0.000000	0.875602	-0.483034
2.408253	24.079046	-13.283422	0.000000	0.875602	-0.483034
-2.407909	24.079044	-13.283422	0.000000	0.875602	-0.483034
2.449755	24.083130	-13.276027	0.000000	0.875750	-0.482765
-2.468454	24.085049	-13.272545	0.000000	0.875820	-0.482638
-2.518072	24.090311	-13.262978	0.000000	0.876011	-0.482290
2.518072	24.090326	-13.262951	0.000000	0.876012	-0.482289
2.618793	24.100937	-13.243673	0.000000	0.876398	-0.481588
-2.637131	24.102942	-13.240022	0.000000	0.876471	-0.481455
2.783133	24.119387	-13.210041	0.000000	0.877069	-0.480365
-2.783133	24.119440	-13.209937	0.000000	0.877071	-0.480361
2.787841	24.119915	-13.209078	0.000000	0.877088	-0.480330
-2.805776	24.121998	-13.205271	0.000000	0.877164	-0.480192
2.956913	24.140060	-13.172223	0.000000	0.877820	-0.478990
-2.974405	24.142212	-13.168280	0.000000	0.877899	-0.478847
-3.048193	24.151562	-13.151105	0.000000	0.878239	-0.478222
3.048193	24.151567	-13.151094	0.000000	0.878239	-0.478222
3.128077	24.161638	-13.132604	0.000000	0.878605	-0.477549
-3.143032	24.163578	-13.129031	0.000000	0.878676	-0.477419
3.301353	24.184683	-13.090116	0.000000	0.879443	-0.476004
-3.309912	24.185852	-13.087954	0.000000	0.879486	-0.475926
-3.313253	24.186321	-13.087087	0.000000	0.879503	-0.475894
3.313253	24.186348	-13.087034	0.000000	0.879504	-0.475892
7.554217	-24.207304	-13.048235	0.000000	-0.880266	-0.474481
-11.000000	-24.207304	-13.048235	0.000000	-0.880266	-0.474481
9.939759	-24.207304	-13.048235	0.000000	-0.880266	-0.474481
2.783133	-24.207304	-13.048235	0.000000	-0.880266	-0.474481
2.518072	-24.207304	-13.048235	0.000000	-0.880266	-0.474481
2.253012	-24.207304	-13.048235	0.000000	-0.880266	-0.474481
1.987952	-24.207304	-13.048235	0.000000	-0.880266	-0.474481
1.722892	-24.207304	-13.048235	0.000000	-0.880266	-0.474481
1.457831	-24.207304	-13.048235	0.000000	-0.880266	-0.474481
1.192771	-24.207304	-13.048235	0.000000	-0.880266	-0.474481
0.927711	-24.207304	-13.048235	0.000000	-0.880266	-0.474481
0.662651	-24.207304	-13.048235	0.000000	-0.880266	-0.474481
7.289156	-24.207304	-13.048235	0.000000	-0.880266	-0.474481
0.397590	-24.207304	-13.048235	0.000000	-0.880266	-0.474481
7.024096	-24.207304	-13.048235	0.000000	-0.880266	-0.474481
6.759036	-24.207304	-13.048235	0.000000	-0.880266	-0.474481
6.493976	-24.207304	-13.048235	0.000000	-0.880266	-0.474481
6.228916	-24.207304	-13.048235	0.000000	-0.880266	-0.474481
5.963855	-24.207304	-13.048235	0.000000	-0.880266	-0.474481
5.698795	-24.207304	-13.048235	0.000000	-0.880266	-0.474481
5.433735	-24.207304	-13.048235	0.000000	-0.880266	-0.474481
5.168674	-24.207304	-13.048235	0.000000	-0.880266	-0.474481
4.903615	-24.207304	-13.048235	0.000000	-0.880266	-0.474481
4.638554	-24.207304	-13.048235	0.000000	-0.880266	-0.474481
4.373494	-24.207304	-13.048235	0.000000	-0.880266	-0.474481
4.108434	-24.207304	-13.048235	0.000000	-0.880266	-0.474481
3.843374	-24.207304	-13.048235	0.000000	-0.880266	-0.474481
3.578313	-24.207304	-13.048235	0.000000	-0.880266	-0.474481
3.313253	-24.207304	-13.048235	0.000000	-0.880266	-0.474481
9.144578	-24.207304	-13.048235	0.000000	-0.880266	-0.474481
-7.024096	-24.207304	-13.048235	0.000000	-0.880266	-0.474481
8.879519	-24.207304	-13.048235	0.000000	-0.880266	-0.474481
8.614458	-24.207304	-13.048235	0.000000	-0.880266	-0.474481
10.204820	-24.207304	-13.048235	0.000000	-0.880266	-0.474481
8.349398	-24.207304	-13.048235	0.000000	-0.880266	-0.474481
8.084337	-24.207304	-13.048235	0.000000	-0.880266	-0.474481
-10.734940	-24.207304	-13.048235	0.000000	-0.880266	-0.474481
10.469879	-24.207304	-13.048235	0.000000	-0.880266	-0.474481
10.734940	-24.207304	-13.048235	0.000000	-0.880266	-0.474481
11.000000	-24.207304	-13.048235	0.000000	-0.880266	-0.474481
-6.759036	-24.207304	-13.048235	0.000000	-0.880266	-0.474481
-6.493976	-24.207304	-13.048235	0.000000	-0.880266	-0.474481
-6.228916	-24.207304	-13.048235	0.000000	-0.880266	-0.474481
-7.289156	-24.207304	-13.048235	0.000000	-0.880266	-0.474481
-5.963855	-24.207304	-13.048235	0.000000	-0.880266	-0.474481
-5.698795	-24.207304	-13.048235	0.000000	-0.880266	-0.474481
-5.433735	-24.207304	-13.048235	0.000000	-0.880266	-0.474481
-5.168674	-24.207304	-13.048235	0.000000	-0.880266	-0.474481
-4.903615	-24.207304	-13.048235	0.000000	-0.880266	-0.474481
-7.554217	-24.207304	-13.048235	0.000000	-0.880266	-0.474481
-4.638554	-24.207304	-13.048235	0.000000	-0.880266	-0.474481
0.132530	-24.207304	-13.048235	0.000000	-0.880266	-0.474481
-4.373494	-24.207304	-13.048235	0.000000	-0.880266	-0.474481
-4.108434	-24.207304	-13.048235	0.000000	-0.880266	-0.474481
-3.843374	-24.207304	-13.048235	0.000000	-0.880266	-0.474481
-3.578313	-24.207304	-13.048235	0.000000	-0.880266	-0.474481
-3.313253	-24.207304	-13.048235	0.000000	-0.880266	-0.474481
-3.048193	-24.207304	-13.048235	0.000000	-0.880266	-0.474481
9.674699	-24.207304	-13.048235	0.000000	-0.880266	-0.474481
-8.084337	-24.207304	-13.048235	0.000000	-0.880266	-0.474481
-8.349398	-24.207304	-13.048235	0.000000	-0.880266	-0.474481
-8.614458	-24.207304	-13.048235	0.000000	-0.880266	-0.474481
-8.879519	-24.207304	-13.048235	0.000000	-0.880266	-0.474481
-9.144578	-24.207304	-13.048235	0.000000	-0.880266	-0.474481
-9.409638	-24.207304	-13.048235	0.000000	-0.880266	-0.474481
-9.674699	-24.207304	-13.048235	0.000000	-0.880266	-0.474481
-9.939759	-24.207304	-13.048235	0.000000	-0.880266	-0.474481
-10.204820	-24.207304	-13.048235	0.000000	-0.880266	-0.474481
-10.469879	-24.207304	-13.048235	0.000000	-0.880266	-0.474481
-1.192771	-24.207304	-13.048235	0.000000	-0.880266	-0.474481
-0.132530	-24.207304	-13.048235	0.000000	-0.880266	-0.474481
-0.397590	-24.207304	-13.048235	0.000000	-0.880266	-0.474481
-0.662651	-24.207304	-13.048235	0.000000	-0.880266	-0.474481
-0.927711	-24.207304	-13.048235	0.000000	-0.880266	-0.474481
-1.457831	-24.207304	-13.048235	0.000000	-0.880266	-0.474481
-1.722892	-24.207304	-13.048235	0.000000	-0.880266	-0.474481
-1.987952	-24.207304	-13.048235	0.000000	-0.880266	-0.474481
-2.253012	-24.207304	-13.048235	0.000000	-0.880266	-0.474481
-2.518072	-24.207304	-13.048235	0.000000	-0.880266	-0.474481
-2.783133	-24.207304	-13.048235	0.000000	-0.880266	-0.474481
7.819277	-24.207304	-13.048235	0.000000	-0.880266	-0.474481
3.048193	-24.207304	-13.048235	0.000000	-0.880266	-0.474481
-7.819277	-24.207304	-13.048235	0.000000	-0.880266	-0.474481
9.409638	-24.207304	-13.048235	0.000000	-0.880266	-0.474481
-8.614458	24.207304	-13.048235	0.000000	0.880266	-0.474481
-8.349398	24.207304	-13.048235	0.000000	0.880266	-0.474481
-8.084337	24.207304	-13.048235	0.000000	0.880266	-0.474481
-7.819277	24.207304	-13.048235	0.000000	0.880266	-0.474481
-7.554217	24.207304	-13.048235	0.000000	0.880266	-0.474481
-7.289156	24.207304	-13.048235	0.000000	0.880266	-0.474481
-7.024096	24.207304	-13.048235	0.000000	0.880266	-0.474481
-6.759036	24.207304	-13.048235	0.000000	0.880266	-0.474481
-6.493976	24.207304	-13.048235	0.000000	0.880266	-0.474481
-6.228916	24.207304	-13.048235	0.000000	0.880266	-0.474481
-5.963855	24.207304	-13.048235	0.000000	0.880266	-0.474481
-5.698795	24.207304	-13.048235	0.000000	0.880266	-0.474481
-5.433735	24.207304	-13.048235	0.000000	0.880266	-0.474481
-5.168674	24.207304	-13.048235	0.000000	0.880266	-0.474481
-4.903615	24.207304	-13.048235	0.000000	0.880266	-0.474481
-11.000000	24.207304	-13.048235	0.000000	0.880266	-0.474481
-4.108434	24.207304	-13.048235	0.000000	0.880266	-0.474481
-3.578313	24.207304	-13.048235	0.000000	0.880266	-0.474481
-3.843374	24.207304	-13.048235	0.000000	0.880266	-0.474481
3.578313	24.207304	-13.048235	0.000000	0.880266	-0.474481
3.843374	24.207304	-13.048235	0.000000	0.880266	-0.474481
4.108434	24.207304	-13.048235	0.000000	0.880266	-0.474481
4.373494	24.207304	-13.048235	0.000000	0.880266	-0.474481
-10.734940	24.207304	-13.048235	0.000000	0.880266	-0.474481
-10.469879	24.207304	-13.048235	0.000000	0.880266	-0.474481
-10.204820	24.207304	-13.048235	0.000000	0.880266	-0.474481
-9.939759	24.207304	-13.048235	0.000000	0.880266	-0.474481
-9.674699	24.207304	-13.048235	0.000000	0.880266	-0.474481
-9.409638	24.207304	-13.048235	0.000000	0.880266	-0.474481
-9.144578	24.207304	-13.048235	0.000000	0.880266	-0.474481
-8.879519	24.207304	-13.048235	0.000000	0.880266	-0.474481
11.000000	24.207304	-13.048235	0.000000	0.880266	-0.474481
10.734940	24.207304	-13.048235	0.000000	0.880266	-0.474481
10.469879	24.207304	-13.048235	0.000000	0.880266	-0.474481
10.204820	24.207304	-13.048235	0.000000	0.880266	-0.474481
9.939759	24.207304	-13.048235	0.000000	0.880266	-0.474481
9.674699	24.207304	-13.048235	0.000000	0.880266	-0.474481
9.409638	24.207304	-13.048235	0.000000	0.880266	-0.474481
9.144578	24.207304	-13.048235	0.000000	0.880266	-0.474481
8.879519	24.207304	-13.048235	0.000000	0.880266	-0.474481
8.614458	24.207304	-13.048235	0.000000	0.880266	-0.474481
8.349398	24.207304	-13.048235	0.000000	0.880266	-0.474481
8.084337	24.207304	-13.048235	0.000000	0.880266	-0.474481
7.819277	24.207304	-13.048235	0.000000	0.880266	-0.474481
7.554217	24.207304	-13.048235	0.000000	0.880266	-0.474481
7.289156	24.207304	-13.048235	0.000000	0.880266	-0.474481
7.024096	24.207304	-13.048235	0.000000	0.880266	-0.474481
6.759036	24.207304	-13.048235	0.000000	0.880266	-0.474481
6.493976	24.207304	-13.048235	0.000000	0.880266	-0.474481
6.228916	24.207304	-13.048235	0.000000	0.880266	-0.474481
5.963855	24.207304	-13.048235	0.000000	0.880266	-0.474481
5.698795	24.207304	-13.048235	0.000000	0.880266	-0.474481
5.433735	24.207304	-13.048235	0.000000	0.880266	-0.474481
5.168674	24.207304	-13.048235	0.000000	0.880266	-0.474481
4.903615	24.207304	-13.048235	0.000000	0.880266	-0.474481
4.638554	24.207304	-13.048235	0.000000	0.880266	-0.474481
-4.373494	24.207304	-13.048235	0.000000	0.880266	-0.474481
-4.638554	24.207304	-13.048235	0.000000	0.880266	-0.474481
3.463093	24.207302	-13.048234	0.000000	0.880266	-0.474481
-3.462961	24.207300	-13.048234	0.000000	0.880266	-0.474481
3.469984	24.208265	-13.046450	0.000000	0.880301	-0.474416
-3.475954	24.209122	-13.044862	0.000000	0.880332	-0.474359
3.578313	24.224148	-13.016915	0.000000	0.880878	-0.473343
-3.578313	24.224152	-13.016905	0.000000	0.880879	-0.473342
3.638028	24.232901	-13.000634	0.000000	0.881196	-0.472750
-3.643915	24.233786	-12.998986	0.000000	0.881229	-0.472690
3.805498	24.258579	-12.952656	0.000000	0.882130	-0.471006
-3.811274	24.259485	-12.950960	0.000000	0.882163	-0.470944
-3.843374	24.264629	-12.941298	0.000000	0.882351	-0.470593
3.843374	24.264641	-12.941275	0.000000	0.882351	-0.470592
3.972408	24.285292	-12.902502	0.000000	0.883102	-0.469182
-3.978042	24.286213	-12.900769	0.000000	0.883135	-0.469119
4.108434	24.307972	-12.859704	0.000000	0.883927	-0.467626
-4.108434	24.307981	-12.859682	0.000000	0.883927	-0.467625
4.138771	24.313030	-12.850159	0.000000	0.884110	-0.467279
-4.144236	24.313959	-12.848401	0.000000	0.884144	-0.467215
8.879519	-24.333261	-12.811808	0.000000	-0.884846	-0.465884
9.144578	-24.333261	-12.811808	0.000000	-0.884846	-0.465884
9.409638	-24.333261	-12.811808	0.000000	-0.884846	-0.465884
9.674699	-24.333261	-12.811808	0.000000	-0.884846	-0.465884
9.939759	-24.333261	-12.811808	0.000000	-0.884846	-0.465884
10.204820	-24.333261	-12.811808	0.000000	-0.884846	-0.465884
10.469879	-24.333261	-12.811808	0.000000	-0.884846	-0.465884
10.734940	-24.333261	-12.811808	0.000000	-0.884846	-0.465884
11.000000	-24.333261	-12.811808	0.000000	-0.884846	-0.465884
-10.204820	-24.333261	-12.811808	0.000000	-0.884846	-0.465884
-10.469879	-24.333261	-12.811808	0.000000	-0.884846	-0.465884
3.313253	-24.333261	-12.811808	0.000000	-0.884846	-0.465884
-10.734940	-24.333261	-12.811808	0.000000	-0.884846	-0.465884
3.578313	-24.333261	-12.811808	0.000000	-0.884846	-0.465884
3.843374	-24.333261	-12.811808	0.000000	-0.884846	-0.465884
4.108434	-24.333261	-12.811808	0.000000	-0.884846	-0.465884
4.373494	-24.333261	-12.811808	0.000000	-0.884846	-0.465884
8.614458	-24.333261	-12.811808	0.000000	-0.884846	-0.465884
4.638554	-24.333261	-12.811808	0.000000	-0.884846	-0.465884
4.903615	-24.333261	-12.811808	0.000000	-0.884846	-0.465884
2.783133	-24.333261	-12.811808	0.000000	-0.884846	-0.465884
2.518072	-24.333261	-12.811808	0.000000	-0.884846	-0.465884
2.253012	-24.333261	-12.811808	0.000000	-0.884846	-0.465884
1.987952	-24.333261	-12.811808	0.000000	-0.884846	-0.465884
1.722892	-24.333261	-12.811808	0.000000	-0.884846	-0.465884
1.457831	-24.333261	-12.811808	0.000000	-0.884846	-0.465884
1.192771	-24.333261	-12.811808	0.000000	-0.884846	-0.465884
0.927711	-24.333261	-12.811808	0.000000	-0.884846	-0.465884
0.662651	-24.333261	-12.811808	0.000000	-0.884846	-0.465884
0.397590	-24.333261	-12.811808	0.000000	-0.884846	-0.465884
0.132530	-24.333261	-12.811808	0.000000	-0.884846	-0.465884
-0.132530	-24.333261	-12.811808	0.000000	-0.884846	-0.465884
-0.397590	-24.333261	-12.811808	0.000000	-0.884846	-0.465884
-0.662651	-24.333261	-12.811808	0.000000	-0.884846	-0.465884
-0.927711	-24.333261	-12.811808	0.000000	-0.884846	-0.465884
-1.192771	-24.333261	-12.811808	0.000000	-0.884846	-0.465884
-1.457831	-24.333261	-12.811808	0.000000	-0.884846	-0.465884
-1.722892	-24.333261	-12.811808	0.000000	-0.884846	-0.465884
-1.987952	-24.333261	-12.811808	0.000000	-0.884846	-0.465884
-2.253012	-24.333261	-12.811808	0.000000	-0.884846	-0.465884
-2.518072	-24.333261	-12.811808	0.000000	-0.884846	-0.465884
-2.783133	-24.333261	-12.811808	0.000000	-0.884846	-0.465884
-3.048193	-24.333261	-12.811808	0.000000	-0.884846	-0.465884
-3.313253	-24.333261	-12.811808	0.000000	-0.884846	-0.465884
-3.578313	-24.333261	-12.811808	0.000000	-0.884846	-0.465884
-3.843374	-24.333261	-12.811808	0.000000	-0.884846	-0.465884
-4.108434	-24.333261	-12.811808	0.000000	-0.884846	-0.465884
-4.373494	-24.333261	-12.811808	0.000000	-0.884846	-0.465884
-4.638554	-24.333261	-12.811808	0.000000	-0.884846	-0.465884
-4.903615	-24.333261	-12.811808	0.000000	-0.884846	-0.465884
-5.168674	-24.333261	-12.811808	0.000000	-0.884846	-0.465884
5.168674	-24.333261	-12.811808	0.000000	-0.884846	-0.465884
-5.433735	-24.333261	-12.811808	0.000000	-0.884846	-0.465884
-5.698795	-24.333261	-12.811808	0.000000	-0.884846	-0.465884
5.433735	-24.333261	-12.811808	0.000000	-0.884846	-0.465884
5.698795	-24.333261	-12.811808	0.000000	-0.884846	-0.465884
5.963855	-24.333261	-12.811808	0.000000	-0.884846	-0.465884
6.228916	-24.333261	-12.811808	0.000000	-0.884846	-0.465884
6.493976	-24.333261	-12.811808	0.000000	-0.884846	-0.465884
6.759036	-24.333261	-12.811808	0.000000	-0.884846	-0.465884
7.024096	-24.333261	-12.811808	0.000000	-0.884846	-0.465884
7.289156	-24.333261	-12.811808	0.000000	-0.884846	-0.465884
7.554217	-24.333261	-12.811808	0.000000	-0.884846	-0.465884
7.819277	-24.333261	-12.811808	0.000000	-0.884846	-0.465884
8.084337	-24.333261	-12.811808	0.000000	-0.884846	-0.465884
8.349398	-24.333261	-12.811808	0.000000	-0.884846	-0.465884
-11.000000	-24.333261	-12.811808	0.000000	-0.884846	-0.465884
-8.349398	-24.333261	-12.811808	0.000000	-0.884846	-0.465884
3.048193	-24.333261	-12.811808	0.000000	-0.884846	-0.465884
-5.963855	-24.333261	-12.811808	0.000000	-0.884846	-0.465884
-6.228916	-24.333261	-12.811808	0.000000	-0.884846	-0.465884
-6.493976	-24.333261	-12.811808	0.000000	-0.884846	-0.465884
-6.759036	-24.333261	-12.811808	0.000000	-0.884846	-0.465884
-7.024096	-24.333261	-12.811808	0.000000	-0.884846	-0.465884
-7.289156	-24.333261	-12.811808	0.000000	-0.884846	-0.465884
-7.554217	-24.333261	-12.811808	0.000000	-0.884846	-0.465884
-7.819277	-24.333261	-12.811808	0.000000	-0.884846	-0.465884
-8.084337	-24.333261	-12.811808	0.000000	-0.884846	-0.465884
-8.614458	-24.333261	-12.811808	0.000000	-0.884846	-0.465884
-8.879519	-24.333261	-12.811808	0.000000	-0.884846	-0.465884
-9.144578	-24.333261	-12.811808	0.000000	-0.884846	-0.465884
-9.409638	-24.333261	-12.811808	0.000000	-0.884846	-0.465884
-9.674699	-24.333261	-12.811808	0.000000	-0.884846	-0.465884
-9.939759	-24.333261	-12.811808	0.000000	-0.884846	-0.465884
-11.000000	24.333261	-12.811808	0.000000	0.884846	-0.465884
4.373494	24.333261	-12.811808	0.000000	0.884846	-0.465884
-7.289156	24.333261	-12.811808	0.000000	0.884846	-0.465884
-4.638554	24.333261	-12.811808	0.000000	0.884846	-0.465884
-4.373494	24.333261	-12.811808	0.000000	0.884846	-0.465884
-7.554217	24.333261	-12.811808	0.000000	0.884846	-0.465884
-4.903615	24.333261	-12.811808	0.000000	0.884846	-0.465884
-7.819277	24.333261	-12.811808	0.000000	0.884846	-0.465884
9.674699	24.333261	-12.811808	0.000000	0.884846	-0.465884
7.289156	24.333261	-12.811808	0.000000	0.884846	-0.465884
5.963855	24.333261	-12.811808	0.000000	0.884846	-0.465884
11.000000	24.333261	-12.811808	0.000000	0.884846	-0.465884
10.734940	24.333261	-12.811808	0.000000	0.884846	-0.465884
10.469879	24.333261	-12.811808	0.000000	0.884846	-0.465884
10.204820	24.333261	-12.811808	0.000000	0.884846	-0.465884
9.939759	24.333261	-12.811808	0.000000	0.884846	-0.465884
-8.084337	24.333261	-12.811808	0.000000	0.884846	-0.465884
9.409638	24.333261	-12.811808	0.000000	0.884846	-0.465884
9.144578	24.333261	-12.811808	0.000000	0.884846	-0.465884
8.879519	24.333261	-12.811808	0.000000	0.884846	-0.465884
8.614458	24.333261	-12.811808	0.000000	0.884846	-0.465884
8.349398	24.333261	-12.811808	0.000000	0.884846	-0.465884
8.084337	24.333261	-12.811808	0.000000	0.884846	-0.465884
7.819277	24.333261	-12.811808	0.000000	0.884846	-0.465884
-8.349398	24.333261	-12.811808	0.000000	0.884846	-0.465884
7.554217	24.333261	-12.811808	0.000000	0.884846	-0.465884
-8.614458	24.333261	-12.811808	0.000000	0.884846	-0.465884
-8.879519	24.333261	-12.811808	0.000000	0.884846	-0.465884
-9.144578	24.333261	-12.811808	0.000000	0.884846	-0.465884
-9.409638	24.333261	-12.811808	0.000000	0.884846	-0.465884
-9.939759	24.333261	-12.811808	0.000000	0.884846	-0.465884
-10.469879	24.333261	-12.811808	0.000000	0.884846	-0.465884
-10.734940	24.333261	-12.811808	0.000000	0.884846	-0.465884
-9.674699	24.333261	-12.811808	0.000000	0.884846	-0.465884
-7.024096	24.333261	-12.811808	0.000000	0.884846	-0.465884
-5.963855	24.333261	-12.811808	0.000000	0.884846	-0.465884
-5.433735	24.333261	-12.811808	0.000000	0.884846	-0.465884
-5.168674	24.333261	-12.811808	0.000000	0.884846	-0.465884
5.433735	24.333261	-12.811808	0.000000	0.884846	-0.465884
-5.698795	24.333261	-12.811808	0.000000	0.884846	-0.465884
5.698795	24.333261	-12.811808	0.000000	0.884846	-0.465884
6.228916	24.333261	-12.811808	0.000000	0.884846	-0.465884
6.493976	24.333261	-12.811808	0.000000	0.884846	-0.465884
6.759036	24.333261	-12.811808	0.000000	0.884846	-0.465884
7.024096	24.333261	-12.811808	0.000000	0.884846	-0.465884
-6.228916	24.333261	-12.811808	0.000000	0.884846	-0.465884
-6.493976	24.333261	-12.811808	0.000000	0.884846	-0.465884
5.168674	24.333261	-12.811808	0.000000	0.884846	-0.465884
-10.204820	24.333261	-12.811808	0.000000	0.884846	-0.465884
4.903615	24.333261	-12.811808	0.000000	0.884846	-0.465884
-6.759036	24.333261	-12.811808	0.000000	0.884846	-0.465884
4.638554	24.333261	-12.811808	0.000000	0.884846	-0.465884
4.255383	24.333248	-12.811801	0.000000	0.884846	-0.465884
-4.255348	24.333248	-12.811800	0.000000	0.884846	-0.465884
4.304598	24.341782	-12.795611	0.000000	0.885156	-0.465295
-4.309866	24.342712	-12.793841	0.000000	0.885190	-0.465231
-4.373494	24.354177	-12.771963	0.000000	0.885607	-0.464435
4.373494	24.354183	-12.771953	0.000000	0.885607	-0.464435
4.469903	24.371538	-12.738844	0.000000	0.886238	-0.463231
-4.474948	24.372461	-12.737077	0.000000	0.886271	-0.463166
4.634697	24.402288	-12.679841	0.000000	0.887356	-0.461085
-4.638554	24.403021	-12.678428	0.000000	0.887383	-0.461034
4.638554	24.403032	-12.678402	0.000000	0.887383	-0.461033
-4.639492	24.403196	-12.678091	0.000000	0.887389	-0.461022
4.798990	24.434021	-12.618583	0.000000	0.888510	-0.458858
-4.803511	24.434906	-12.616868	0.000000	0.888542	-0.458795
4.903615	24.454910	-12.578006	0.000000	0.889270	-0.457382
-4.903615	24.454910	-12.578004	0.000000	0.889270	-0.457382
1.722892	-24.456909	-12.574163	0.000000	-0.889342	-0.457242
1.457831	-24.456909	-12.574163	0.000000	-0.889342	-0.457242
1.192771	-24.456909	-12.574163	0.000000	-0.889342	-0.457242
0.927711	-24.456909	-12.574163	0.000000	-0.889342	-0.457242
0.662651	-24.456909	-12.574163	0.000000	-0.889342	-0.457242
0.397590	-24.456909	-12.574163	0.000000	-0.889342	-0.457242
-0.132530	-24.456909	-12.574163	0.000000	-0.889342	-0.457242
-0.397590	-24.456909	-12.574163	0.000000	-0.889342	-0.457242
-0.662651	-24.456909	-12.574163	0.000000	-0.889342	-0.457242
-0.927711	-24.456909	-12.574163	0.000000	-0.889342	-0.457242
-1.192771	-24.456909	-12.574163	0.000000	-0.889342	-0.457242
-1.457831	-24.456909	-12.574163	0.000000	-0.889342	-0.457242
-1.722892	-24.456909	-12.574163	0.000000	-0.889342	-0.457242
-1.987952	-24.456909	-12.574163	0.000000	-0.889342	-0.457242
-2.253012	-24.456909	-12.574163	0.000000	-0.889342	-0.457242
-2.518072	-24.456909	-12.574163	0.000000	-0.889342	-0.457242
-2.783133	-24.456909	-12.574163	0.000000	-0.889342	-0.457242
-3.048193	-24.456909	-12.574163	0.000000	-0.889342	-0.457242
-3.313253	-24.456909	-12.574163	0.000000	-0.889342	-0.457242
-3.578313	-24.456909	-12.574163	0.000000	-0.889342	-0.457242
-3.843374	-24.456909	-12.574163	0.000000	-0.889342	-0.457242
-4.108434	-24.456909	-12.574163	0.000000	-0.889342	-0.457242
-4.373494	-24.456909	-12.574163	0.000000	-0.889342	-0.457242
-4.638554	-24.456909	-12.574163	0.000000	-0.889342	-0.457242
-4.903615	-24.456909	-12.574163	0.000000	-0.889342	-0.457242
-5.168674	-24.456909	-12.574163	0.000000	-0.889342	-0.457242
-5.698795	-24.456909	-12.574163	0.000000	-0.889342	-0.457242
-5.963855	-24.456909	-12.574163	0.000000	-0.889342	-0.457242
-6.228916	-24.456909	-12.574163	0.000000	-0.889342	-0.457242
-6.493976	-24.456909	-12.574163	0.000000	-0.889342	-0.457242
-6.759036	-24.456909	-12.574163	0.000000	-0.889342	-0.457242
-7.024096	-24.456909	-12.574163	0.000000	-0.889342	-0.457242
-7.289156	-24.456909	-12.574163	0.000000	-0.889342	-0.457242
-7.554217	-24.456909	-12.574163	0.000000	-0.889342	-0.457242
-7.819277	-24.456909	-12.574163	0.000000	-0.889342	-0.457242
-8.084337	-24.456909	-12.574163	0.000000	-0.889342	-0.457242
-8.349398	-24.456909	-12.574163	0.000000	-0.889342	-0.457242
-8.614458	-24.456909	-12.574163	0.000000	-0.889342	-0.457242
-8.879519	-24.456909	-12.574163	0.000000	-0.889342	-0.457242
-9.144578	-24.456909	-12.574163	0.000000	-0.889342	-0.457242
-9.409638	-24.456909	-12.574163	0.000000	-0.889342	-0.457242
-9.674699	-24.456909	-12.574163	0.000000	-0.889342	-0.457242
-9.939759	-24.456909	-12.574163	0.000000	-0.889342	-0.457242
-10.204820	-24.456909	-12.574163	0.000000	-0.889342	-0.457242
-10.469879	-24.456909	-12.574163	0.000000	-0.889342	-0.457242
-10.734940	-24.456909	-12.574163	0.000000	-0.889342	-0.457242
0.132530	-24.456909	-12.574163	0.000000	-0.889342	-0.457242
-11.000000	-24.456909	-12.574163	0.000000	-0.889342	-0.457242
-5.433735	-24.456909	-12.574163	0.000000	-0.889342	-0.457242
6.228916	-24.456909	-12.574163	0.000000	-0.889342	-0.457242
11.000000	-24.456909	-12.574163	0.000000	-0.889342	-0.457242
10.734940	-24.456909	-12.574163	0.000000	-0.889342	-0.457242
10.469879	-24.456909	-12.574163	0.000000	-0.889342	-0.457242
10.204820	-24.456909	-12.574163	0.000000	-0.889342	-0.457242
9.939759	-24.456909	-12.574163	0.000000	-0.889342	-0.457242
9.674699	-24.456909	-12.574163	0.000000	-0.889342	-0.457242
9.409638	-24.456909	-12.574163	0.000000	-0.889342	-0.457242
9.144578	-24.456909	-12.574163	0.000000	-0.889342	-0.457242
8.879519	-24.456909	-12.574163	0.000000	-0.889342	-0.457242
8.614458	-24.456909	-12.574163	0.000000	-0.889342	-0.457242
8.349398	-24.456909	-12.574163	0.000000	-0.889342	-0.457242
8.084337	-24.456909	-12.574163	0.000000	-0.889342	-0.457242
7.819277	-24.456909	-12.574163	0.000000	-0.889342	-0.457242
7.554217	-24.456909	-12.574163	0.000000	-0.889342	-0.457242
7.289156	-24.456909	-12.574163	0.000000	-0.889342	-0.457242
7.024096	-24.456909	-12.574163	0.000000	-0.889342	-0.457242
6.759036	-24.456909	-12.574163	0.000000	-0.889342	-0.457242
6.493976	-24.456909	-12.574163	0.000000	-0.889342	-0.457242
5.963855	-24.456909	-12.574163	0.000000	-0.889342	-0.457242
5.698795	-24.456909	-12.574163	0.000000	-0.889342	-0.457242
5.433735	-24.456909	-12.574163	0.000000	-0.889342	-0.457242
5.168674	-24.456909	-12.574163	0.000000	-0.889342	-0.457242
4.903615	-24.456909	-12.574163	0.000000	-0.889342	-0.457242
4.638554	-24.456909	-12.574163	0.000000	-0.889342	-0.457242
4.373494	-24.456909	-12.574163	0.000000	-0.889342	-0.457242
4.108434	-24.456909	-12.574163	0.000000	-0.889342	-0.457242
3.843374	-24.456909	-12.574163	0.000000	-0.889342	-0.457242
3.578313	-24.456909	-12.574163	0.000000	-0.889342	-0.457242
3.313253	-24.456909	-12.574163	0.000000	-0.889342	-0.457242
3.048193	-24.456909	-12.574163	0.000000	-0.889342	-0.457242
2.783133	-24.456909	-12.574163	0.000000	-0.889342	-0.457242
2.518072	-24.456909	-12.574163	0.000000	-0.889342	-0.457242
2.253012	-24.456909	-12.574163	0.000000	-0.889342	-0.457242
1.987952	-24.456909	-12.574163	0.000000	-0.889342	-0.457242
8.879519	24.456909	-12.574163	0.000000	0.889342	-0.457242
7.554217	24.456909	-12.574163	0.000000	0.889342	-0.457242
11.000000	24.456909	-12.574163	0.000000	0.889342	-0.457242
10.734940	24.456909	-12.574163	0.000000	0.889342	-0.457242
10.469879	24.456909	-12.574163	0.000000	0.889342	-0.457242
-11.000000	24.456909	-12.574163	0.000000	0.889342	-0.457242
10.204820	24.456909	-12.574163	0.000000	0.889342	-0.457242
-8.349398	24.456909	-12.574163	0.000000	0.889342	-0.457242
9.939759	24.456909	-12.574163	0.000000	0.889342	-0.457242
9.409638	24.456909	-12.574163	0.000000	0.889342	-0.457242
9.144578	24.456909	-12.574163	0.000000	0.889342	-0.457242
7.289156	24.456909	-12.574163	0.000000	0.889342	-0.457242
5.963855	24.456909	-12.574163	0.000000	0.889342	-0.457242
6.228916	24.456909	-12.574163	0.000000	0.889342	-0.457242
8.614458	24.456909	-12.574163	0.000000	0.889342	-0.457242
6.493976	24.456909	-12.574163	0.000000	0.889342	-0.457242
-5.168674	24.456909	-12.574163	0.000000	0.889342	-0.457242
-5.433735	24.456909	-12.574163	0.000000	0.889342	-0.457242
5.168674	24.456909	-12.574163	0.000000	0.889342	-0.457242
5.433735	24.456909	-12.574163	0.000000	0.889342	-0.457242
5.698795	24.456909	-12.574163	0.000000	0.889342	-0.457242
-10.734940	24.456909	-12.574163	0.000000	0.889342	-0.457242
-10.469879	24.456909	-12.574163	0.000000	0.889342	-0.457242
-10.204820	24.456909	-12.574163	0.000000	0.889342	-0.457242
-9.939759	24.456909	-12.574163	0.000000	0.889342	-0.457242
-9.674699	24.456909	-12.574163	0.000000	0.889342	-0.457242
-9.409638	24.456909	-12.574163	0.000000	0.889342	-0.457242
-9.144578	24.456909	-12.574163	0.000000	0.889342	-0.457242
-8.879519	24.456909	-12.574163	0.000000	0.889342	-0.457242
-8.614458	24.456909	-12.574163	0.000000	0.889342	-0.457242
9.674699	24.456909	-12.574163	0.000000	0.889342	-0.457242
-8.084337	24.456909	-12.574163	0.000000	0.889342	-0.457242
-7.819277	24.456909	-12.574163	0.000000	0.889342	-0.457242
-7.554217	24.456909	-12.574163	0.000000	0.889342	-0.457242
-7.289156	24.456909	-12.574163	0.000000	0.889342	-0.457242
-7.024096	24.456909	-12.574163	0.000000	0.889342	-0.457242
-6.759036	24.456909	-12.574163	0.000000	0.889342	-0.457242
-6.493976	24.456909	-12.574163	0.000000	0.889342	-0.457242
-6.228916	24.456909	-12.574163	0.000000	0.889342	-0.457242
-5.963855	24.456909	-12.574163	0.000000	0.889342	-0.457242
-5.698795	24.456909	-12.574163	0.000000	0.889342	-0.457242
8.349398	24.456909	-12.574163	0.000000	0.889342	-0.457242
6.759036	24.456909	-12.574163	0.000000	0.889342	-0.457242
8.084337	24.456909	-12.574163	0.000000	0.889342	-0.457242
7.819277	24.456909	-12.574163	0.000000	0.889342	-0.457242
7.024096	24.456909	-12.574163	0.000000	0.889342	-0.457242
4.913543	24.456892	-12.574155	0.000000	0.889342	-0.457242
-4.913529	24.456890	-12.574155	0.000000	0.889342	-0.457242
4.962793	24.466724	-12.555054	0.000000	0.889699	-0.456547
-4.967016	24.467579	-12.553389	0.000000	0.889730	-0.456487
5.126116	24.500389	-12.489234	0.000000	0.890923	-0.454154
-5.130017	24.501202	-12.487638	0.000000	0.890953	-0.454096
-5.168674	24.509424	-12.471451	0.000000	0.891252	-0.453508
5.168674	24.509434	-12.471429	0.000000	0.891253	-0.453507
5.288967	24.534998	-12.421104	0.000000	0.892182	-0.451677
-5.292525	24.535763	-12.419594	0.000000	0.892210	-0.451622
5.433735	24.566687	-12.358290	0.000000	0.893334	-0.449393
-5.433735	24.566690	-12.358277	0.000000	0.893335	-0.449392
5.451355	24.570543	-12.350644	0.000000	0.893474	-0.449114
-5.454549	24.571249	-12.349239	0.000000	0.893500	-0.449063
-5.433735	-24.578236	-12.335327	0.000000	-0.893754	-0.448557
-5.698795	-24.578236	-12.335327	0.000000	-0.893754	-0.448557
-5.963855	-24.578236	-12.335327	0.000000	-0.893754	-0.448557
-6.228916	-24.578236	-12.335327	0.000000	-0.893754	-0.448557
-6.759036	-24.578236	-12.335327	0.000000	-0.893754	-0.448557
-7.024096	-24.578236	-12.335327	0.000000	-0.893754	-0.448557
-7.289156	-24.578236	-12.335327	0.000000	-0.893754	-0.448557
-11.000000	-24.578236	-12.335327	0.000000	-0.893754	-0.448557
-8.614458	-24.578236	-12.335327	0.000000	-0.893754	-0.448557
-8.879519	-24.578236	-12.335327	0.000000	-0.893754	-0.448557
-9.144578	-24.578236	-12.335327	0.000000	-0.893754	-0.448557
-9.409638	-24.578236	-12.335327	0.000000	-0.893754	-0.448557
3.578313	-24.578236	-12.335327	0.000000	-0.893754	-0.448557
-0.927711	-24.578236	-12.335327	0.000000	-0.893754	-0.448557
-0.662651	-24.578236	-12.335327	0.000000	-0.893754	-0.448557
-0.397590	-24.578236	-12.335327	0.000000	-0.893754	-0.448557
-0.132530	-24.578236	-12.335327	0.000000	-0.893754	-0.448557
0.132530	-24.578236	-12.335327	0.000000	-0.893754	-0.448557
-7.554217	-24.578236	-12.335327	0.000000	-0.893754	-0.448557
0.397590	-24.578236	-12.335327	0.000000	-0.893754	-0.448557
-8.349398	-24.578236	-12.335327	0.000000	-0.893754	-0.448557
0.662651	-24.578236	-12.335327	0.000000	-0.893754	-0.448557
0.927711	-24.578236	-12.335327	0.000000	-0.893754	-0.448557
1.192771	-24.578236	-12.335327	0.000000	-0.893754	-0.448557
-9.674699	-24.578236	-12.335327	0.000000	-0.893754	-0.448557
1.457831	-24.578236	-12.335327	0.000000	-0.893754	-0.448557
-9.939759	-24.578236	-12.335327	0.000000	-0.893754	-0.448557
1.722892	-24.578236	-12.335327	0.000000	-0.893754	-0.448557
-10.204820	-24.578236	-12.335327	0.000000	-0.893754	-0.448557
1.987952	-24.578236	-12.335327	0.000000	-0.893754	-0.448557
-10.469879	-24.578236	-12.335327	0.000000	-0.893754	-0.448557
-8.084337	-24.578236	-12.335327	0.000000	-0.893754	-0.448557
2.253012	-24.578236	-12.335327	0.000000	-0.893754	-0.448557
2.518072	-24.578236	-12.335327	0.000000	-0.893754	-0.448557
2.783133	-24.578236	-12.335327	0.000000	-0.893754	-0.448557
3.048193	-24.578236	-12.335327	0.000000	-0.893754	-0.448557
3.313253	-24.578236	-12.335327	0.000000	-0.893754	-0.448557
