96.36100006 -42.04700089 343.21798706 0.812710 -0.530971 0.239943
96.17299652 -42.34700012 343.21798706 0.839317 -0.490748 0.233908
96.44100189 -42.04700089 342.91799927 0.828590 -0.518439 0.211328
96.25700378 -42.34700012 342.91799927 0.837310 -0.502994 0.214266
96.56300354 -41.74700165 343.21798706 0.829280 -0.520006 0.204667
96.62899780 -41.74700165 342.91799927 0.829895 -0.516210 0.211661
86.81800079 -53.09799957 345.01800537 -0.537255 -0.782766 0.314063
86.51799774 -52.86800003 345.01800537 -0.567118 -0.745866 0.349371
86.51799774 -53.01900101 344.71798706 -0.557066 -0.802605 0.213312
96.90399933 -41.44699860 342.61801147 0.832144 -0.508448 0.221396
96.97599792 -41.44699860 342.31799316 0.815504 -0.537040 0.215734
96.78299713 -41.74700165 342.31799316 0.815237 -0.545010 0.195839
87.11799622 -53.01499939 345.61801147 -0.501102 -0.762263 0.409696
86.81800079 -52.83300018 345.61801147 -0.524300 -0.741252 0.419112
86.51799774 -52.59799957 345.61801147 -0.502416 -0.769071 0.395104
86.51799774 -52.72100067 345.31799316 -0.541175 -0.772419 0.332413
86.81800079 -52.96799850 345.31799316 -0.552116 -0.756124 0.351347
96.73400116 -41.44699860 343.21798706 0.840645 -0.506793 0.190987
96.81500244 -41.44699860 342.91799927 0.833576 -0.503205 0.227895
97.26399994 -40.84700012 342.61801147 0.841033 -0.491236 0.226607
97.07499695 -41.14699936 342.61801147 0.824155 -0.508718 0.248947
97.18599701 -41.14699936 342.31799316 0.830059 -0.509042 0.227769
97.11799622 -40.84700012 343.21798706 0.830587 -0.517788 0.204989
96.91899872 -41.14699936 343.21798706 0.833585 -0.517034 0.194453
97.17800140 -40.84700012 342.91799927 0.827016 -0.523524 0.204857
96.99199677 -41.14699936 342.91799927 0.838185 -0.497435 0.223617
73.91799927 -44.41400146 339.61801147 -0.333332 -0.665039 -0.668291
74.21800232 -44.56100082 339.61801147 -0.307571 -0.732695 -0.607090
74.21800232 -44.32899857 339.31799316 -0.381472 -0.741660 -0.551743
92.03299713 -34.24700165 346.51800537 0.597644 0.634681 -0.489900
92.35199738 -34.54700089 346.51800537 0.607400 0.667308 -0.431004
91.91799927 -34.36999893 346.21798706 0.606254 0.734902 -0.303931
91.91799927 -34.36399841 345.91799927 0.649999 0.733371 -0.199168
92.08000183 -34.54700089 345.91799927 0.742022 0.625934 -0.240020
92.81800079 -34.99700165 346.21798706 0.497798 0.810700 -0.308161
93.00399780 -35.14699936 346.21798706 0.702042 0.660651 -0.265852
92.81800079 -35.11399841 345.91799927 0.492088 0.815954 -0.303428
92.51799774 -34.99900055 345.91799927 0.483239 0.843001 -0.236284
92.21800232 -34.59700012 346.21798706 0.662715 0.691598 -0.287230
92.48200226 -34.84700012 346.21798706 0.510598 0.781199 -0.359190
92.31600189 -34.84700012 345.91799927 0.663584 0.710647 -0.233745
92.21800232 -34.82099915 345.61801147 0.665691 0.697466 -0.265323
91.91799927 -34.69699860 345.31799316 0.573444 0.747901 -0.334375
92.21800232 -34.92300034 345.31799316 0.558192 0.789600 -0.254861
92.51799774 -35.04899979 345.61801147 0.533833 0.824190 -0.189034
92.51799774 -35.10200119 345.31799316 0.536976 0.785547 -0.307526
92.81800079 -35.25000000 345.61801147 0.566314 0.777696 -0.272904
92.81800079 -35.31800079 345.31799316 0.572450 0.763798 -0.298184
88.61799622 -44.44699860 336.21798706 0.275733 0.030912 -0.960737
88.31800079 -44.44699860 336.12799072 0.223119 0.065333 -0.972599
88.61799622 -44.74700165 336.19699097 0.302828 0.011124 -0.952980
88.31800079 -44.74700165 336.11700439 0.277411 0.059536 -0.958905
81.41799927 -47.97800064 348.01800537 -0.576924 -0.764464 0.287667
81.11799622 -47.86100006 347.71798706 -0.567331 -0.760192 0.316613
81.41799927 -48.08300018 347.71798706 -0.588804 -0.749242 0.303226
82.31800079 -48.30899811 348.61801147 -0.578988 -0.746717 0.327394
86.81800079 -50.45899963 351.61801147 -0.507456 -0.800157 0.319745
86.51799774 -50.36299896 351.31799316 -0.596705 -0.765849 0.239622
86.81800079 -50.54999924 351.31799316 -0.509560 -0.826687 0.238615
87.51999664 -50.44699860 352.81799316 -0.358820 -0.887292 0.289759
87.11799622 -50.17900085 352.81799316 -0.530691 -0.846612 0.040183
87.11799622 -50.19300079 352.51800537 -0.535470 -0.808637 0.243677
87.41799927 -50.50299835 352.51800537 -0.542866 -0.805792 0.236634
88.01799774 -50.74700165 352.50399780 -0.447630 -0.790221 0.418542
79.31800079 -37.54700089 333.98800659 0.325992 0.026638 -0.944997
79.61799622 -37.54700089 334.07598877 0.286558 0.038792 -0.957277
79.31800079 -37.24700165 333.99099731 0.556056 -0.209861 -0.804214
79.61799622 -37.24700165 334.09899902 0.353034 0.034915 -0.934959
74.81800079 -45.34700012 340.26400757 -0.276003 -0.678043 -0.681234
74.51799774 -45.34700012 340.40301514 -0.385358 -0.726441 -0.569018
74.51799774 -45.17100143 340.21798706 -0.269113 -0.718165 -0.641730
74.81800079 -45.04499817 339.91799927 -0.325920 -0.692377 -0.643732
74.51799774 -44.90999985 339.91799927 -0.258559 -0.718571 -0.645603
88.61799622 -43.84700012 336.25399780 0.293286 0.159602 -0.942608
88.31800079 -43.84700012 336.18600464 0.262181 0.102031 -0.959610
88.61799622 -44.14699936 336.22100830 0.236282 0.073760 -0.968881
88.31800079 -44.14699936 336.16699219 0.220258 0.083374 -0.971872
75.11799622 -45.04700089 339.75201416 -0.362963 -0.638881 -0.678298
89.51799774 -36.34700012 337.24200439 0.422669 0.474890 -0.771901
89.81800079 -36.34700012 337.40100098 0.369958 0.499201 -0.783536
89.51799774 -36.04700089 337.48901367 0.417664 0.657280 -0.627328
93.11799622 -38.01800156 339.01800537 0.534024 0.769576 -0.350101
75.41799927 -45.04700089 339.59899902 -0.283676 -0.690759 -0.665116
88.31800079 -38.74700165 336.55899048 0.284607 0.028585 -0.958218
93.00800323 -48.64699936 340.21798706 0.840181 -0.501081 0.207396
88.31800079 -38.44699860 336.55700684 0.254137 0.061343 -0.965221
88.61799622 -38.74700165 336.65200806 0.277841 0.051545 -0.959243
88.61799622 -38.44699860 336.64999390 0.280350 0.023465 -0.959611
84.11799622 -50.05799866 347.41799927 -0.353577 -0.834441 0.422720
84.41799927 -50.17399979 347.41799927 -0.127569 -0.878650 0.460109
84.41799927 -50.29399872 347.11801147 -0.178789 -0.824831 0.536366
84.11799622 -50.17399979 347.11801147 -0.379898 -0.818609 0.430763
85.01799774 -50.15800095 347.11801147 0.329635 -0.683626 0.651150
84.71800232 -50.31499863 347.11801147 0.135179 -0.791765 0.595680
85.01799774 -50.44699860 346.92800903 0.137900 -0.576807 0.805157
85.01799774 -50.62799835 346.81799316 0.014935 -0.520018 0.854025
84.71800232 -50.56800079 346.81799316 -0.006945 -0.695890 0.718114
85.01799774 -50.74700165 346.73498535 -0.275431 -0.307492 0.910816
84.71800232 -50.74700165 346.64401245 -0.229631 -0.540944 0.809104
75.41799927 -45.27799988 339.91799927 -0.230128 -0.743609 -0.627763
75.11799622 -45.19300079 339.91799927 -0.299316 -0.744288 -0.597031
74.81800079 -43.07500076 337.81799316 0.196453 -0.961167 -0.193816
75.41799927 -45.64699936 340.31698608 -0.308365 -0.708755 -0.634489
92.58200073 -49.24700165 340.51800537 0.826850 -0.522301 0.208616
75.11799622 -45.42699814 340.21798706 -0.304054 -0.731982 -0.609717
90.11799622 -41.74700165 336.85198975 0.262892 0.091051 -0.960519
90.11799622 -41.44699860 336.88400269 0.270248 0.094393 -0.958152
92.50399780 -49.54700089 339.91799927 0.865547 -0.457354 0.204096
92.45600128 -49.54700089 340.21798706 0.860767 -0.479845 0.169791
92.38400269 -49.54700089 340.51800537 0.825535 -0.516151 0.228209
92.30100250 -49.54700089 340.81799316 0.839840 -0.509313 0.187800
92.49099731 -49.24700165 340.81799316 0.822302 -0.525232 0.218974
96.95200348 -38.74700165 348.91799927 0.869101 -0.457500 0.188034
97.55799866 -37.84700012 347.71798706 0.949097 0.168758 -0.265963
97.61100006 -38.14699936 347.71798706 0.931140 0.353376 -0.090024
97.62999725 -38.44699860 347.41799927 0.998439 -0.022001 -0.051336
97.31800079 -38.74700165 347.47698975 0.908412 -0.344470 0.236914
97.61799622 -38.44699860 347.32998657 0.987456 -0.038023 -0.153246
97.57499695 -38.44699860 347.11801147 0.974084 -0.185240 -0.129794
97.38999939 -38.74700165 347.11801147 0.900145 -0.380774 0.211541
76.01799774 -45.94699860 340.39898682 -0.276559 -0.692196 -0.666618
97.47399902 -37.84700012 347.41799927 0.866204 0.469132 -0.172064
97.61799622 -38.14699936 347.64999390 0.996671 0.015989 0.079947
97.63700104 -38.14699936 347.41799927 0.977526 0.202288 -0.059354
97.31900024 -37.84700012 347.11801147 0.658061 0.690240 -0.300874
97.59799957 -38.14699936 347.11801147 0.947423 0.249465 -0.200390
76.01799774 -45.78200150 340.21798706 -0.289997 -0.728999 -0.620050
76.01799774 -45.52799988 339.91799927 -0.340782 -0.702761 -0.624495
75.71800232 -45.64699936 340.19100952 -0.272284 -0.705390 -0.654436
75.71800232 -45.36999893 339.91799927 -0.301323 -0.704162 -0.642931
91.01799774 -43.54700089 337.00100708 0.312089 0.044584 -0.949006
90.71800232 -43.24700165 336.92401123 0.257549 0.079929 -0.962954
91.01799774 -43.24700165 337.01501465 0.292567 0.060047 -0.954358
92.25399780 -49.54700089 341.11801147 0.852010 -0.502994 0.145179
92.41699982 -49.24700165 341.11801147 0.842584 -0.512683 0.164950
92.20099640 -49.54700089 341.41799927 0.839532 -0.513297 0.178082
92.36900330 -49.24700165 341.41799927 0.858341 -0.481798 0.176412
92.05899811 -49.84700012 341.11801147 0.840818 -0.517540 0.158673
92.01200104 -49.84700012 341.41799927 0.830533 -0.523040 0.191429
75.71800232 -45.94100189 340.51800537 -0.282898 -0.704848 -0.650506
90.75800323 -49.54700089 347.11801147 0.827633 -0.519748 0.211862
90.95899963 -49.24700165 347.11801147 0.838876 -0.494800 0.226847
90.85800171 -49.24700165 347.41799927 0.837277 -0.498706 0.224189
97.54199982 -41.14699936 339.61801147 0.896137 0.196713 -0.397797
97.24600220 -41.14699936 339.31799316 0.707356 0.451044 -0.544248
97.05500031 -40.84700012 339.31799316 0.673620 0.535873 -0.508995
97.22200012 -40.84700012 339.61801147 0.744967 0.615270 -0.257812
97.01799774 -40.56000137 339.61801147 0.644410 0.693106 -0.323017
92.51799774 -46.54700089 337.22399902 0.288860 0.057263 -0.955657
92.81800079 -46.54700089 337.32199097 0.267711 0.043581 -0.962513
92.51799774 -46.24700165 337.26000977 0.278793 0.078371 -0.957148
92.81800079 -46.24700165 337.32901001 0.278736 0.080923 -0.956952
75.71800232 -46.20800018 340.81799316 -0.424095 -0.794976 -0.433770
85.91799927 -49.36999893 352.51800537 -0.552116 -0.756124 0.351347
86.10700226 -49.54700089 352.51800537 -0.596157 -0.770491 0.225699
76.01799774 -46.37500000 340.81799316 -0.347780 -0.765117 -0.541890
86.49099731 -49.84700012 352.81799316 -0.461487 -0.887066 -0.011969
86.21800232 -49.65399933 352.51800537 -0.638144 -0.767207 0.064531
86.49900055 -49.84700012 352.51800537 -0.542989 -0.825642 0.153227
87.01499939 -50.14699936 352.81799316 -0.297621 -0.953654 0.044327
86.81800079 -50.01200104 352.51800537 -0.481107 -0.833815 0.270719
86.51799774 -49.96799850 352.21798706 -0.592106 -0.740535 0.317833
86.51799774 -50.10400009 351.91799927 -0.632213 -0.712647 0.304041
86.81800079 -50.17599869 352.21798706 -0.495034 -0.774201 0.394404
86.81800079 -50.32699966 351.91799927 -0.510482 -0.784241 0.352667
87.11799622 -50.34600067 352.21798706 -0.533298 -0.771751 0.346402
87.41799927 -50.58499908 352.21798706 -0.542837 -0.781622 0.307236
87.41799927 -50.71799850 351.91799927 -0.549746 -0.765776 0.333717
87.11799622 -50.48300171 351.91799927 -0.510482 -0.784241 0.352667
91.92800140 -49.84700012 341.71798706 0.829895 -0.516210 0.211661
92.11699677 -49.54700089 341.71798706 0.824562 -0.525830 0.208808
92.30699921 -49.24700165 341.71798706 0.862743 -0.476352 0.169599
92.03900146 -49.54700089 342.01800537 0.816844 -0.534857 0.216088
92.25000000 -49.24700165 342.01800537 0.837246 -0.507192 0.204391
92.29100037 -49.84700012 340.21798706 0.843747 -0.488005 0.223479
92.12400055 -50.14699936 340.21798706 0.833576 -0.503205 0.227895
92.37000275 -49.84700012 339.91799927 0.857889 -0.481544 0.179282
92.17700195 -50.14699936 339.91799927 0.853391 -0.497934 0.154227
76.31800079 -46.46599960 340.81799316 -0.313330 -0.756813 -0.573636
92.42900085 -49.84700012 339.61801147 0.836002 -0.500992 0.223848
92.23300171 -50.14699936 339.61801147 0.819310 -0.545705 0.175889
92.51699829 -49.84700012 339.31799316 0.811764 -0.529277 0.246789
92.31800079 -50.14699936 339.31799316 0.804108 -0.543819 0.240148
93.10700226 -49.24700165 337.81799316 0.779225 -0.557043 -0.287250
92.92299652 -49.54700089 337.81799316 0.781057 -0.578388 -0.235408
92.89199829 -49.24700165 337.51800537 0.768833 -0.452159 -0.452159
92.81800079 -49.53900146 337.51800537 0.000978 0.000978 -0.999999
92.81700134 -49.54700089 337.51800537 0.756167 -0.590606 -0.281772
76.31800079 -46.24700165 340.57901001 -0.258871 -0.694030 -0.671795
76.61799622 -46.29199982 340.51800537 -0.254644 -0.710156 -0.656380
91.49800110 -49.84700012 343.51800537 0.834162 -0.518533 0.187874
76.61799622 -46.59500122 340.81799316 -0.279713 -0.717664 -0.637746
91.41999817 -49.84700012 343.81799316 0.823818 -0.520064 0.225515
88.01799774 -43.84700012 336.10299683 0.303096 0.090535 -0.948650
88.01799774 -44.14699936 336.07800293 0.269430 0.038490 -0.962250
87.71800232 -43.84700012 335.99899292 0.273924 0.001207 -0.961751
87.71800232 -44.14699936 336.00900269 0.215843 0.042204 -0.975515
91.28900146 -50.14699936 343.51800537 0.812271 -0.534835 0.232738
91.22299957 -50.14699936 343.81799316 0.805600 -0.545829 0.230392
91.11199951 -50.14699936 344.11801147 0.819931 -0.524571 0.229212
91.05500031 -50.14699936 344.41799927 0.852198 -0.498955 0.157487
91.23799896 -49.84700012 344.41799927 0.831357 -0.520541 0.194637
87.41799927 -43.84700012 335.92700195 0.254097 -0.063837 -0.965070
87.11799622 -43.84700012 335.85501099 0.223492 0.001170 -0.974705
87.41799927 -44.14699936 335.95498657 0.263897 0.018242 -0.964378
87.11799622 -44.14699936 335.84899902 0.262985 0.051101 -0.963446
90.78199768 -50.74700165 344.11801147 0.831600 -0.512339 0.214361
90.94499969 -50.44699860 344.11801147 0.859359 -0.475105 0.189148
90.88300323 -50.44699860 344.41799927 0.849783 -0.499785 0.167584
90.71800232 -36.94699860 337.46701050 0.371566 0.220025 -0.901958
90.79599762 -36.94699860 337.51800537 0.577706 0.180438 -0.796051
91.01799774 -36.94699860 337.82000732 0.496060 0.721693 -0.482788
77.51799774 -42.21799850 335.71798706 -0.258133 -0.711053 -0.654042
79.61799622 -44.13000107 336.91799927 -0.297869 -0.697174 -0.652091
79.31800079 -44.00799942 336.91799927 -0.265259 -0.703651 -0.659176
91.90599823 -37.24700165 338.71798706 0.465802 0.843977 -0.265953
91.61799622 -37.07199860 338.71798706 0.600100 0.757606 -0.256736
81.11799622 -45.84199905 338.11801147 -0.250809 -0.746117 -0.616769
91.91799927 -37.25299835 338.71798706 0.519343 0.821394 -0.235785
92.30000305 -37.54700089 338.71798706 0.711770 0.671452 -0.206243
92.21800232 -37.46300125 338.71798706 0.634662 0.745844 -0.202289
92.21800232 -37.39599991 339.01800537 0.600167 0.765408 -0.232272
91.91799927 -37.15900040 339.01800537 0.562652 0.785206 -0.258601
79.01799774 -43.63000107 336.61801147 -0.247300 -0.729298 -0.637939
79.01799774 -43.91099930 336.91799927 -0.230739 -0.714192 -0.660824
79.01799774 -44.14699936 337.17199707 -0.258793 -0.703346 -0.662066
78.71800232 -43.81999969 336.91799927 -0.265669 -0.714285 -0.647470
78.71800232 -44.06700134 337.21798706 -0.276198 -0.716836 -0.640203
92.81800079 -37.22900009 340.51800537 0.539651 0.799309 -0.264351
92.81800079 -37.12900162 340.81799316 0.555667 0.780467 -0.286541
91.00299835 -50.14699936 344.71798706 0.856330 -0.490805 0.160654
92.51799774 -36.91600037 340.81799316 0.596684 0.752617 -0.278452
91.18299866 -49.84700012 344.71798706 0.851834 -0.497518 0.163871
90.93699646 -50.14699936 345.01800537 0.836568 -0.505585 0.211040
91.12500000 -49.84700012 345.01800537 0.846813 -0.501540 0.177102
93.11799622 -37.41099930 340.51800537 0.518351 0.805098 -0.288323
93.11799622 -37.35499954 340.81799316 0.518146 0.826893 -0.218569
93.47499847 -37.54700089 340.81799316 0.642635 0.688189 -0.336773
93.41799927 -37.50199890 340.81799316 0.529747 0.800122 -0.281379
93.11799622 -37.24700165 341.05300903 0.553816 0.768922 -0.319448
93.11799622 -37.22200012 341.11801147 0.539501 0.789475 -0.292691
92.81800079 -37.02000046 341.11801147 0.594195 0.739121 -0.317226
90.83599854 -50.44699860 344.71798706 0.844301 -0.507772 0.171243
90.76599884 -50.44699860 345.01800537 0.828521 -0.509977 0.231251
96.66699982 -37.54700089 346.51800537 0.634123 0.729004 -0.257761
96.41799927 -37.28799820 346.51800537 0.574768 0.771107 -0.273925
96.11799622 -37.11299896 346.51800537 0.534202 0.795787 -0.285223
96.41799927 -37.25899887 346.81799316 0.600167 0.765408 -0.232272
96.11799622 -37.00299835 346.81799316 0.605493 0.792463 -0.073350
80.51799774 -36.34700012 334.44000244 0.259828 0.010877 -0.965594
80.81800079 -36.34700012 334.51000977 0.268813 0.035924 -0.962522
80.51799774 -36.04700089 334.44299316 0.270243 0.067244 -0.960441
80.81800079 -36.04700089 334.52600098 0.270691 0.113769 -0.955920
80.51799774 -36.94699860 334.45300293 0.264659 0.030774 -0.963851
80.81800079 -36.94699860 334.48699951 0.187531 0.056140 -0.980653
96.11799622 -37.02799988 347.11801147 0.562521 0.823027 0.078724
80.51799774 -36.64699936 334.44000244 0.272321 0.003631 -0.962200
96.41799927 -37.17900085 347.11801147 0.503732 0.855912 -0.116912
80.81800079 -36.64699936 334.49798584 0.228924 0.039971 -0.972623
96.71800232 -37.32400131 347.11801147 0.559078 0.723998 -0.404053
96.79199982 -37.24700165 347.41799927 0.625737 0.703751 -0.336435
90.63300323 -50.74700165 344.71798706 0.814099 -0.555273 0.170043
81.11799622 -36.94699860 334.56100464 0.282430 0.083826 -0.955618
81.41799927 -36.94699860 334.65701294 0.309970 0.071332 -0.948067
81.11799622 -36.64699936 334.59500122 0.313793 0.074217 -0.946587
90.56800079 -50.74700165 345.01800537 0.831555 -0.524797 0.181950
81.41799927 -36.64699936 334.69400024 0.294167 0.079049 -0.952479
81.11799622 -37.54700089 334.54299927 0.331272 0.013855 -0.943433
81.41799927 -37.54700089 334.66400146 0.316745 0.039434 -0.947691
81.11799622 -37.24700165 334.54098511 0.275311 0.041110 -0.960476
81.41799927 -37.24700165 334.64898682 0.338001 -0.006283 -0.941125
81.71800232 -37.54700089 334.74301147 0.243797 0.082108 -0.966344
82.01799774 -37.54700089 334.81399536 0.255820 0.071831 -0.964052
81.71800232 -37.24700165 334.75299072 0.264944 0.010888 -0.964202
82.01799774 -37.24700165 334.82800293 0.275753 0.028441 -0.960808
85.31800079 -31.48500061 341.41799927 0.580085 0.764441 -0.281302
81.11799622 -38.14699936 334.51501465 0.291218 0.031247 -0.956146
81.41799927 -38.14699936 334.60000610 0.251753 0.063878 -0.965681
94.37300110 -46.84700012 339.31799316 0.840000 -0.514742 0.171581
81.11799622 -37.84700012 334.52801514 0.308613 0.063272 -0.949081
81.41799927 -37.84700012 334.62399292 0.275766 0.105863 -0.955378
81.71800232 -38.14699936 334.66000366 0.249322 0.068908 -0.965966
82.01799774 -38.14699936 334.76000977 0.273929 0.083593 -0.958110
81.71800232 -37.84700012 334.70498657 0.241764 0.117650 -0.963176
82.01799774 -37.84700012 334.78500366 0.277016 0.097541 -0.955902
94.18900299 -47.14699936 339.31799316 0.837349 -0.516790 0.178255
94.11699677 -47.14699936 339.61801147 0.813685 -0.536817 0.223033
94.30899811 -46.84700012 339.61801147 0.821748 -0.524878 0.221887
81.71800232 -38.74700165 334.64700317 0.271320 0.013384 -0.962396
82.01799774 -38.74700165 334.72799683 0.280333 0.025934 -0.959553
81.71800232 -38.44699860 334.65798950 0.255898 0.058669 -0.964922
82.01799774 -38.44699860 334.72601318 0.250671 0.048158 -0.966874
82.31800079 -38.44699860 334.80899048 0.289203 0.023583 -0.956977
82.31800079 -38.74700165 334.83898926 0.251271 0.048274 -0.966712
82.61799622 -38.74700165 334.87799072 0.217381 0.065091 -0.973914
82.61799622 -38.44699860 334.90499878 0.264732 0.045986 -0.963225
81.71800232 -39.34700012 334.62799072 0.242546 0.048017 -0.968951
82.01799774 -39.34700012 334.70300293 0.262347 0.033255 -0.964401
81.71800232 -39.04700089 334.63198853 0.241548 0.032773 -0.969835
82.01799774 -39.04700089 334.71499634 0.250719 0.035468 -0.967410
82.31800079 -39.34700012 334.79098511 0.263428 0.028181 -0.964267
82.31800079 -39.04700089 334.78900146 0.264219 0.053846 -0.962959
82.61799622 -39.34700012 334.86999512 0.250704 0.008397 -0.968028
82.61799622 -39.04700089 334.86700439 0.234394 0.052769 -0.970708
90.83999634 -50.14699936 345.31799316 0.831555 -0.524797 0.181950
91.05100250 -49.84700012 345.31799316 0.826658 -0.535602 0.172533
90.80699921 -50.14699936 345.61801147 0.816879 -0.548109 0.179683
91.00700378 -49.84700012 345.61801147 0.827435 -0.529016 0.188396
93.81900024 -47.74700165 339.31799316 0.831883 -0.496670 0.247566
93.99700165 -47.44699860 339.31799316 0.827079 -0.515204 0.224733
93.72200012 -47.74700165 339.61801147 0.834271 -0.500563 0.231147
93.90000153 -47.44699860 339.61801147 0.820750 -0.526201 0.222446
82.91799927 -39.34700012 334.94601440 0.226973 0.073177 -0.971148
83.21800232 -39.34700012 335.00399780 0.278793 0.078371 -0.957148
82.91799927 -39.04700089 334.94100952 0.280998 0.025995 -0.959356
83.21800232 -39.04700089 335.04699707 0.301364 0.073724 -0.950655
82.31800079 -39.94699860 334.74600220 0.298172 0.095888 -0.949684
82.31800079 -39.64699936 334.77700806 0.270820 0.085995 -0.958781
82.61799622 -39.94699860 334.84100342 0.254741 0.053434 -0.965532
82.61799622 -39.64699936 334.85598755 0.234134 0.065657 -0.969985
82.91799927 -39.94699860 334.91400146 0.261019 0.018211 -0.965162
83.21800232 -39.94699860 334.98999023 0.268292 0.048667 -0.962108
82.91799927 -39.64699936 334.90301514 0.235165 0.040210 -0.971123
83.21800232 -39.64699936 335.01000977 0.288534 0.021052 -0.957238
82.91799927 -40.54700089 334.86898804 0.251753 0.063878 -0.965681
83.21800232 -40.54700089 334.93899536 0.246772 0.082257 -0.965576
82.91799927 -40.24700165 334.89801025 0.254555 0.079786 -0.963762
83.21800232 -40.24700165 334.96798706 0.276364 0.080981 -0.957635
83.51799774 -40.54700089 335.01800537 0.278795 0.108638 -0.954186
83.81800079 -40.54700089 335.11700439 0.313793 0.074217 -0.946587
83.51799774 -40.24700165 335.07199097 0.283159 0.114581 -0.952204
83.81800079 -40.24700165 335.14801025 0.311993 0.128309 -0.941381
90.50199890 -50.74700165 345.31799316 0.832292 -0.505484 0.227544
90.66999817 -50.44699860 345.31799316 0.835289 -0.503608 0.220614
90.41400146 -50.74700165 345.61801147 0.823702 -0.515776 0.235563
90.57599640 -50.44699860 345.61801147 0.820734 -0.530344 0.212443
93.83999634 -47.44699860 339.91799927 0.824607 -0.521690 0.218773
93.75000000 -47.44699860 340.21798706 0.845578 -0.506752 0.167927
83.51799774 -41.14699936 335.01400757 0.314715 0.011195 -0.949120
83.81800079 -41.14699936 335.10598755 0.261851 0.056379 -0.963460
83.51799774 -40.84700012 335.00000000 0.297429 0.021156 -0.954510
83.81800079 -40.84700012 335.10000610 0.325969 0.029172 -0.944930
84.11799622 -41.14699936 335.18301392 0.295622 0.101169 -0.949933
84.41799927 -41.14699936 335.27499390 0.276945 0.100116 -0.955656
84.11799622 -40.84700012 335.22198486 0.338268 0.039872 -0.940205
84.41799927 -40.84700012 335.32299805 0.267236 0.067126 -0.961290
90.32700348 -50.74700165 345.91799927 0.833244 -0.519836 0.188346
93.64199829 -47.74700165 339.91799927 0.829895 -0.516210 0.211661
90.52400208 -50.44699860 345.91799927 0.824310 -0.544074 0.156514
93.58300018 -47.74700165 340.21798706 0.848380 -0.507264 0.151444
90.26300049 -50.74700165 346.21798706 0.826893 -0.518146 0.218569
90.47399902 -50.44699860 346.21798706 0.818396 -0.533870 0.212630
84.11799622 -41.74700165 335.13800049 0.322765 0.050151 -0.945149
84.41799927 -41.74700165 335.24200439 0.290845 0.065344 -0.954536
84.11799622 -41.44699860 335.14999390 0.278164 0.075630 -0.957551
84.41799927 -41.44699860 335.26199341 0.319062 0.036864 -0.947017
93.27200317 -48.34700012 339.91799927 0.827810 -0.520988 0.208092
93.45099640 -48.04700089 339.91799927 0.833469 -0.515813 0.198157
93.18499756 -48.34700012 340.21798706 0.814696 -0.539564 0.212463
93.40000153 -48.04700089 340.21798706 0.825751 -0.538012 0.169346
84.11799622 -42.34700012 335.12298584 0.298762 0.101342 -0.948932
84.41799927 -42.34700012 335.21600342 0.213622 0.129197 -0.968336
84.11799622 -42.04700089 335.12899780 0.332826 0.018982 -0.942797
84.41799927 -42.04700089 335.23001099 0.264156 0.040926 -0.963611
84.71800232 -42.34700012 335.25601196 0.244805 0.117869 -0.962381
85.01799774 -42.34700012 335.34799194 0.291258 0.092732 -0.952139
84.71800232 -42.04700089 335.29400635 0.251054 0.074433 -0.965107
85.01799774 -42.04700089 335.39898682 0.281250 0.092022 -0.955212
84.71800232 -42.94699860 335.22799683 0.350734 0.037532 -0.935723
85.01799774 -42.94699860 335.33898926 0.284586 0.031068 -0.958147
84.71800232 -42.64699936 335.24200439 0.296904 0.044220 -0.953883
85.01799774 -42.64699936 335.33700562 0.279042 0.020897 -0.960052
85.31800079 -42.64699936 335.41101074 0.288215 0.033687 -0.956973
85.31800079 -42.94699860 335.42001343 0.268173 0.035839 -0.962704
85.61799622 -42.94699860 335.49200439 0.279894 0.072849 -0.957263
85.61799622 -42.64699936 335.52398682 0.292151 0.026107 -0.956016
84.71800232 -43.54700089 335.18600464 0.255319 0.056046 -0.965231
85.01799774 -43.54700089 335.30599976 0.303418 0.082040 -0.949319
84.71800232 -43.24700165 335.22698975 0.340608 0.034703 -0.939565
85.01799774 -43.24700165 335.30999756 0.297652 0.068292 -0.952229
85.31800079 -43.54700089 335.39300537 0.289761 0.073406 -0.954280
85.31800079 -43.24700165 335.40100098 0.266581 0.051314 -0.962445
85.61799622 -43.54700089 335.46200562 0.226565 0.015421 -0.973874
85.61799622 -43.24700165 335.48199463 0.243432 0.068660 -0.967485
85.91799927 -43.54700089 335.53100586 0.251291 0.038000 -0.967165
86.21800232 -43.54700089 335.61300659 0.268379 0.099832 -0.958126
85.91799927 -43.24700165 335.53900146 0.281948 0.092250 -0.954984
86.21800232 -43.24700165 335.66198730 0.302766 0.118706 -0.945644
85.91799927 -44.14699936 335.51599121 0.229866 0.017865 -0.973058
86.21800232 -44.14699936 335.56399536 0.214564 0.008207 -0.976676
85.91799927 -43.84700012 335.52301025 0.221128 0.054976 -0.973694
86.21800232 -43.84700012 335.59201050 0.233875 0.076291 -0.969269
85.31800079 -44.14699936 335.34698486 0.202796 0.003477 -0.979215
85.31800079 -43.84700012 335.35101318 0.335208 0.037245 -0.941408
85.61799622 -44.14699936 335.42199707 0.284404 0.089607 -0.954508
85.61799622 -43.84700012 335.47500610 0.258851 0.058773 -0.964127
92.61599731 -48.94699860 341.11801147 0.823867 -0.537698 0.179233
92.81600189 -48.64699936 341.11801147 0.821007 -0.539778 0.185974
90.15299988 -51.04700089 345.91799927 0.832479 -0.523487 0.181495
92.55400085 -48.94699860 341.41799927 0.823290 -0.523912 0.218424
92.74500275 -48.64699936 341.41799927 0.827856 -0.516839 0.218017
93.33999634 -48.04700089 340.51800537 0.812694 -0.547386 0.199743
85.91799927 -44.74700165 335.52700806 0.170886 -0.036037 -0.984631
86.21800232 -44.74700165 335.56100464 0.195394 -0.051546 -0.979369
85.91799927 -44.44699860 335.52301025 0.288905 -0.033768 -0.956762
86.21800232 -44.44699860 335.59500122 0.237615 -0.027742 -0.970963
93.23999786 -48.04700089 340.81799316 0.834952 -0.497907 0.234399
86.51799774 -44.14699936 335.63800049 0.342878 -0.034673 -0.938740
86.51799774 -43.84700012 335.67098999 0.313080 0.071450 -0.947035
86.51799774 -44.74700165 335.64700317 0.188104 -0.012694 -0.982067
90.17800140 -50.74700165 346.51800537 0.841460 -0.475340 0.256899
86.81800079 -44.74700165 335.68399048 0.237620 0.114314 -0.964608
86.51799774 -44.44699860 335.68899536 0.247086 0.058357 -0.967235
90.35600281 -50.44699860 346.51800537 0.795913 -0.516311 0.316141
90.23699951 -50.44699860 346.81799316 0.839887 -0.476193 0.260442
86.81800079 -44.44699860 335.73699951 0.241258 0.134322 -0.961120
86.51799774 -45.04700089 335.67498779 0.138866 -0.089016 -0.986302
87.11799622 -45.04700089 335.75500488 0.324061 0.153067 -0.933571
87.41799927 -45.04700089 335.84600830 0.258924 0.115800 -0.958931
85.01799774 -49.50299835 350.41799927 -0.482343 -0.844481 0.232803
84.71800232 -49.34500122 350.41799927 -0.517221 -0.810990 0.273455
84.71800232 -49.45000076 350.11801147 -0.488605 -0.837828 0.243537
87.11799622 -51.83499908 348.61801147 -0.563791 -0.788682 0.245194
87.11799622 -51.90800095 348.31799316 -0.583788 -0.781997 0.218340
87.41799927 -52.01200104 348.61801147 -0.506922 -0.823167 0.255786
87.41799927 -52.12799835 348.31799316 -0.570591 -0.762387 0.305274
84.11799622 -29.44700050 344.53601074 0.457582 0.828679 0.322351
84.11799622 -29.40099907 344.41799927 0.410070 0.910220 -0.057813
84.41799927 -29.56599998 344.41799927 0.575362 0.797005 -0.183691
84.11799622 -29.46999931 344.11801147 0.484165 0.800549 -0.353137
84.41799927 -29.77599907 344.11801147 0.602489 0.716782 -0.351043
84.71800232 -29.74699974 344.54400635 0.659022 0.575177 -0.484624
91.87999725 -50.14699936 341.11801147 0.814513 -0.551572 0.179827
91.81600189 -50.14699936 341.41799927 0.818318 -0.547052 0.176323
91.74900055 -50.14699936 341.71798706 0.834884 -0.514820 0.194756
91.67800140 -50.14699936 342.01800537 0.830840 -0.514908 0.211128
91.85399628 -49.84700012 342.01800537 0.840318 -0.502380 0.203668
88.61799622 -52.48400116 348.31799316 0.755092 -0.599958 0.264361
88.80699921 -52.24700165 348.31799316 0.800302 -0.544455 0.251167
88.72699738 -52.24700165 348.61801147 0.786407 -0.596220 0.161508
79.61799622 -48.67399979 342.31799316 -0.483621 -0.859934 0.163167
79.31800079 -48.55500031 342.31799316 -0.460478 -0.872715 0.162264
79.61799622 -48.66899872 342.61801147 -0.539133 -0.839123 0.072167
79.31800079 -48.47000122 342.61801147 -0.515322 -0.836836 0.184795
87.71800232 -52.36100006 348.31799316 -0.556036 -0.767554 0.318880
79.31800079 -48.42900085 341.71798706 -0.328027 -0.809767 -0.486494
88.01799774 -52.53400040 348.31799316 -0.493353 -0.814899 0.304208
88.01799774 -52.46500015 348.61801147 -0.527732 -0.789207 0.314088
87.71800232 -52.20000076 348.61801147 -0.568336 -0.755098 0.326834
79.61799622 -48.59400177 341.71798706 -0.339858 -0.726874 -0.596784
79.61799622 -48.79899979 342.01800537 -0.517649 -0.855541 -0.009461
79.31800079 -48.61399841 342.01800537 -0.528471 -0.841210 -0.114381
88.31800079 -52.44900131 348.91799927 -0.008576 -0.956876 0.290371
88.64399719 -52.24700165 348.91799927 0.650343 -0.731054 0.206433
88.31800079 -52.35300064 349.21798706 0.138664 -0.890594 0.433146
88.61799622 -52.20199966 349.21798706 0.536782 -0.772128 0.340123
79.01799774 -48.36899948 342.31799316 -0.552758 -0.828419 0.090451
88.01799774 -52.32799911 348.91799927 -0.510015 -0.815712 0.272944
87.71800232 -52.09700012 348.91799927 -0.540679 -0.807145 0.237031
88.01799774 -52.25699997 349.21798706 -0.457847 -0.832875 0.310961
91.55400085 -50.44699860 341.71798706 0.810759 -0.561063 0.166965
87.71800232 -52.00999832 349.21798706 -0.519069 -0.816566 0.252562
73.31800079 -44.53099823 342.01800537 -0.510298 -0.772736 0.377458
73.31800079 -44.72000122 341.71798706 -0.515904 -0.766533 0.382453
91.49199677 -50.44699860 342.01800537 0.820197 -0.529997 0.215359
74.21800232 -45.41899872 341.41799927 -0.479784 -0.874736 0.068143
74.21800232 -45.36600113 341.11801147 -0.555647 -0.828497 -0.069634
73.91799927 -45.09199905 340.81799316 -0.523472 -0.850119 -0.057233
74.21800232 -45.34400177 340.51800537 -0.404514 -0.823305 -0.398168
73.91799927 -45.14599991 340.51800537 -0.436985 -0.850808 -0.291838
74.21800232 -45.37799835 340.81799316 -0.593128 -0.796233 -0.119214
91.40799713 -50.44699860 342.31799316 0.829338 -0.511654 0.224517
91.31900024 -50.44699860 342.61801147 0.829119 -0.518770 0.208421
79.61799622 -45.27799988 338.11801147 -0.307862 -0.701151 -0.643124
79.31800079 -45.13999939 338.11801147 -0.286478 -0.702592 -0.651378
79.91799927 -45.94699860 338.74798584 -0.279208 -0.713178 -0.642977
79.91799927 -45.62799835 338.41799927 -0.267893 -0.740272 -0.616629
80.21800232 -45.75600052 338.41799927 -0.289321 -0.730495 -0.618603
80.21800232 -45.51200104 338.11801147 -0.275148 -0.733197 -0.621865
79.91799927 -45.40900040 338.11801147 -0.265476 -0.723303 -0.637460
80.81800079 -45.46599960 337.81799316 -0.286244 -0.714810 -0.638052
80.51799774 -45.86600113 338.41799927 -0.272469 -0.724990 -0.632574
80.51799774 -45.62599945 338.11801147 -0.289997 -0.728999 -0.620050
80.81800079 -45.75799942 338.11801147 -0.268352 -0.725661 -0.633564
94.91799927 -45.64699936 337.99700928 0.411519 -0.022351 -0.911127
94.91799927 -45.94699860 338.02200317 0.699884 -0.234343 -0.674719
76.31800079 -45.82199860 344.11801147 -0.543171 -0.751957 0.373532
76.31800079 -45.69300079 344.41799927 -0.530881 -0.793944 0.296342
76.61799622 -45.88899994 344.41799927 -0.553013 -0.771013 0.315779
87.11799622 -51.70000076 348.91799927 -0.574268 -0.765161 0.291111
87.41799927 -51.93700027 348.91799927 -0.522139 -0.807513 0.274397
87.41799927 -51.81499863 349.21798706 -0.558192 -0.789600 0.254861
87.11799622 -51.61199951 349.21798706 -0.548304 -0.799933 0.243863
75.71800232 -45.20299911 344.71798706 -0.483185 -0.794606 0.367606
76.01799774 -45.34500122 344.71798706 -0.466398 -0.810227 0.354972
75.71800232 -45.08000183 345.01800537 -0.492047 -0.811641 0.314847
76.01799774 -45.23899841 345.01800537 -0.548500 -0.795403 0.257842
75.11799622 -44.78799820 344.71798706 -0.564771 -0.757855 0.326634
75.41799927 -45.00999832 344.71798706 -0.539630 -0.776619 0.325059
75.41799927 -44.86800003 345.01800537 -0.553546 -0.751589 0.358750
87.41799927 -51.71300125 349.51800537 -0.548976 -0.767923 0.330030
87.11799622 -51.51300049 349.51800537 -0.536751 -0.790084 0.296084
87.11799622 -51.40599823 349.81799316 -0.528878 -0.768247 0.360672
94.61799622 -45.64699936 337.90301514 0.286532 0.013527 -0.957975
94.31800079 -45.64699936 337.83099365 0.260274 0.001199 -0.965534
94.61799622 -45.94699860 337.89599609 0.318211 0.044728 -0.946964
87.41799927 -51.57199860 349.81799316 -0.483324 -0.783986 0.389569
94.31800079 -45.94699860 337.80300903 0.272708 0.091764 -0.957711
94.01799774 -45.64699936 337.75799561 0.243065 0.053055 -0.968558
93.71800232 -45.64699936 337.67098999 0.301014 0.060203 -0.951717
94.01799774 -45.94699860 337.72299194 0.275066 0.078042 -0.958253
75.11799622 -44.64300156 345.01800537 -0.554189 -0.752462 0.355916
91.22799683 -50.74700165 342.31799316 0.826210 -0.526046 0.201626
91.12999725 -50.74700165 342.61801147 0.833637 -0.507498 0.217934
93.71800232 -45.94699860 337.62298584 0.286693 0.073280 -0.955216
74.81800079 -44.30199814 345.31799316 -0.573878 -0.780287 0.248628
74.81800079 -44.22900009 345.61801147 -0.594614 -0.761800 0.257088
94.61799622 -45.04700089 337.92599487 0.310083 0.093685 -0.946082
94.31800079 -45.04700089 337.82400513 0.212312 0.118233 -0.970023
94.61799622 -45.34700012 337.89801025 0.319907 0.026554 -0.947077
74.51799774 -44.06000137 345.31799316 -0.579049 -0.771540 0.263491
74.51799774 -43.97600174 345.61801147 -0.594986 -0.751309 0.285529
94.31800079 -45.34700012 337.79800415 0.199217 0.027112 -0.979580
86.90100098 -51.34700012 349.51800537 -0.656231 -0.691702 0.301511
86.51799774 -50.91600037 349.51800537 -0.757629 -0.578232 0.302731
86.70500183 -51.04700089 349.81799316 -0.729074 -0.616909 0.296437
90.87100220 -51.04700089 342.91799927 0.831525 -0.516485 0.204473
90.80599976 -51.04700089 343.21798706 0.837986 -0.510013 0.194076
79.61799622 -45.82799911 350.11801147 -0.557099 -0.757332 0.340719
79.31800079 -45.58499908 350.11801147 -0.524415 -0.776135 0.350148
79.61799622 -45.66199875 350.41799927 -0.563578 -0.783358 0.262166
79.31800079 -45.48699951 350.41799927 -0.523848 -0.827527 0.201947
86.54599762 -50.74700165 349.81799316 -0.811764 -0.529277 0.246789
79.31800079 -45.42599869 350.71798706 -0.550754 -0.817877 0.166577
79.61799622 -45.63000107 350.71798706 -0.527490 -0.841368 0.117704
79.01799774 -42.34700012 335.19100952 -0.258715 -0.709482 -0.655517
78.71800232 -42.15999985 335.11801147 -0.290015 -0.703407 -0.648929
88.31800079 -52.01900101 349.81799316 0.150804 -0.889027 0.432306
88.61799622 -52.07400131 349.51800537 0.585580 -0.734814 0.342264
88.31800079 -52.12500000 349.51800537 0.086061 -0.911152 0.402983
88.79599762 -51.94699860 349.21798706 0.813124 -0.536447 0.225953
88.88400269 -51.94699860 348.91799927 0.846281 -0.510712 0.151595
89.63800049 -51.04700089 348.01800537 0.857355 -0.478628 0.189364
89.70899963 -51.04700089 347.71798706 0.862261 -0.466127 0.198067
89.54399872 -51.34700012 347.71798706 0.837389 -0.517957 0.174643
89.97899628 -50.44699860 348.01800537 0.839602 -0.524935 0.139689
89.80000305 -50.74700165 348.01800537 0.872413 -0.467312 0.143232
90.02100372 -50.44699860 347.71798706 0.828495 -0.531855 0.175287
89.84400177 -50.74700165 347.71798706 0.868566 -0.455811 0.194499
90.08799744 -50.44699860 347.41799927 0.854267 -0.480245 0.198980
89.94599915 -50.74700165 347.41799927 0.866740 -0.447591 0.220053
90.01799774 -50.74700165 347.11801147 0.869337 -0.445852 0.213234
91.68099976 -48.64699936 345.61801147 0.843623 -0.516774 0.145757
91.48699951 -48.94699860 345.61801147 0.847052 -0.496237 0.190399
91.73600006 -48.64699936 345.31799316 0.843942 -0.493683 0.209853
91.56500244 -48.94699860 345.31799316 0.843061 -0.490646 0.220259
91.85700226 -48.34700012 345.61801147 0.828560 -0.542035 0.140309
91.91200256 -48.34700012 345.31799316 0.811764 -0.529277 0.246789
92.08799744 -48.04700089 345.61801147 0.832525 -0.527614 0.168896
92.12899780 -48.04700089 345.31799316 0.816941 -0.540063 0.202334
90.69799805 -51.34700012 342.91799927 0.826481 -0.530338 0.188867
90.62699890 -51.34700012 343.21798706 0.830733 -0.519019 0.201252
92.93900299 -47.14699936 344.41799927 0.821671 -0.520648 0.231911
92.98799896 -47.14699936 344.11801147 0.864051 -0.482295 0.144251
92.73899841 -47.44699860 344.41799927 0.834162 -0.518533 0.187874
92.55599976 -47.74700165 344.41799927 0.841696 -0.509801 0.177907
92.81300354 -47.44699860 344.11801147 0.825244 -0.527366 0.202132
92.60800171 -47.74700165 344.11801147 0.835462 -0.516330 0.188167
93.12400055 -46.84700012 344.41799927 0.850131 -0.502417 0.157650
93.13099670 -46.84700012 344.11801147 0.865570 -0.487867 0.113025
82.61799622 -32.14699936 335.45999146 0.522758 0.542929 -0.657230
82.31800079 -32.14699936 335.30398560 0.391934 0.555924 -0.733032
79.01799774 -45.39599991 350.11801147 -0.514230 -0.794430 0.323185
86.51799774 -31.67600060 343.21798706 0.625429 0.718680 -0.303871
86.81800079 -31.96299934 343.21798706 0.501716 0.838215 -0.213722
86.51799774 -31.74099922 342.91799927 0.573210 0.800074 -0.176954
86.81800079 -31.94599915 342.91799927 0.530031 0.831626 -0.165728
85.61799622 -31.62000084 341.71798706 0.572814 0.758938 -0.309672
83.81800079 -31.01600075 339.91799927 0.568336 0.755098 -0.326834
78.71800232 -45.20199966 350.11801147 -0.556036 -0.767554 0.318880
78.71800232 -45.06100082 350.41799927 -0.537190 -0.749453 0.386972
79.01799774 -45.29999924 350.41799927 -0.577183 -0.754036 0.313512
90.28500366 -51.94699860 342.91799927 0.825244 -0.527366 0.202132
90.48999786 -51.64699936 342.91799927 0.820723 -0.544648 0.172547
90.23400116 -51.94699860 343.21798706 0.808234 -0.559546 0.183483
90.44799805 -51.64699936 343.21798706 0.824751 -0.535259 0.182440
90.71800232 -44.44699860 336.84298706 0.287935 0.081345 -0.954189
91.01799774 -44.74700165 336.88598633 0.283407 0.062273 -0.956976
90.71800232 -44.74700165 336.79998779 0.217785 0.012949 -0.975911
78.71800232 -45.34400177 349.81799316 -0.581814 -0.773139 0.252485
91.01799774 -44.44699860 336.95700073 0.333776 0.103216 -0.936985
78.41799927 -45.16400146 349.51800537 -0.585559 -0.765488 0.266737
78.11799622 -44.95000076 349.51800537 -0.563357 -0.788075 0.248127
78.41799927 -45.08300018 349.81799316 -0.582850 -0.776613 0.239078
78.11799622 -44.88800049 349.81799316 -0.560964 -0.784092 0.265554
85.61799622 -49.90700150 350.11801147 -0.424992 -0.889147 0.169707
85.32800293 -49.84700012 350.11801147 -0.222961 -0.952651 0.206746
85.31800079 -49.84400177 350.11801147 -0.440047 -0.818138 0.370148
85.61799622 -49.84999847 350.41799927 -0.485928 -0.863067 0.137801
85.31800079 -49.67399979 350.41799927 -0.515875 -0.829357 0.214568
90.41799927 -42.04700089 336.91198730 0.258264 0.066771 -0.963764
90.11799622 -42.04700089 336.82901001 0.288159 0.057124 -0.955877
90.41799927 -42.34700012 336.89001465 0.264782 0.058980 -0.962503
90.11799622 -42.34700012 336.82199097 0.284861 0.081205 -0.955123
85.31800079 -49.65200043 350.71798706 -0.552274 -0.824748 0.121588
85.61900330 -49.84700012 350.71798706 -0.567850 -0.821480 0.052135
90.06099701 -51.94699860 343.81799316 0.822302 -0.525232 0.218974
85.61799622 -49.83499908 351.01800537 -0.545437 -0.805022 0.233317
88.61799622 -40.24700165 336.52200317 0.221281 0.086262 -0.971387
88.31800079 -40.24700165 336.46499634 0.287851 0.021002 -0.957445
88.61799622 -40.54700089 336.51901245 0.253630 0.033082 -0.966735
88.31800079 -40.54700089 336.45401001 0.235225 0.068452 -0.969527
85.01799774 -49.61100006 350.11801147 -0.492556 -0.816730 0.300569
78.11799622 -45.21300125 348.91799927 -0.553602 -0.773767 0.307911
78.11799622 -45.07699966 349.21798706 -0.580536 -0.742245 0.334738
78.41799927 -45.32600021 349.21798706 -0.549940 -0.754342 0.358515
83.81800079 -37.84700012 335.29400635 0.260018 0.074834 -0.962700
83.51799774 -37.84700012 335.21398926 0.237101 0.111502 -0.965065
83.81800079 -38.14699936 335.28201294 0.271561 0.023347 -0.962138
83.51799774 -38.14699936 335.20401001 0.261819 0.043430 -0.964139
84.41799927 -37.84700012 335.46899414 0.285786 0.059698 -0.956432
84.41799927 -38.14699936 335.46600342 0.300652 0.044400 -0.952700
84.11799622 -37.84700012 335.38598633 0.285176 0.054500 -0.956924
84.11799622 -38.14699936 335.35699463 0.281648 0.028537 -0.959093
89.78600311 -52.54700089 343.51800537 0.849209 -0.494004 0.186557
89.95700073 -52.24700165 343.51800537 0.838660 -0.506218 0.200976
89.72399902 -52.54700089 343.81799316 0.844601 -0.495318 0.203246
89.89199829 -52.24700165 343.81799316 0.852941 -0.481185 0.202367
83.21800232 -36.64699936 335.17898560 0.297873 0.084549 -0.950854
82.91799927 -36.64699936 335.11999512 0.231980 0.081506 -0.969300
83.21800232 -36.94699860 335.17800903 0.272576 0.018335 -0.961960
82.91799927 -36.94699860 335.10299683 0.254211 0.035614 -0.966493
82.61799622 -36.04700089 335.07400513 0.308649 0.021243 -0.950939
82.31800079 -36.04700089 334.95599365 0.275196 0.006062 -0.961369
82.61799622 -36.34700012 335.05899048 0.277999 0.064739 -0.958397
82.31800079 -36.34700012 334.98498535 0.258294 0.040783 -0.965205
77.51799774 -44.65800095 349.21798706 -0.535544 -0.794627 0.285939
89.64299774 -52.54700089 344.11801147 0.838007 -0.504623 0.207607
77.51799774 -44.77700043 348.91799927 -0.541155 -0.767309 0.344077
89.81300354 -52.24700165 344.11801147 0.852802 -0.485395 0.192665
77.81800079 -44.97100067 348.91799927 -0.550422 -0.746418 0.374026
85.01799774 -49.42800140 350.71798706 -0.554047 -0.800976 0.226866
89.56999969 -52.54700089 344.41799927 0.826160 -0.534220 0.179077
84.71800232 -49.24499893 350.71798706 -0.513885 -0.809329 0.284444
77.81800079 -44.85200119 349.21798706 -0.540861 -0.780180 0.314306
89.76100159 -52.24700165 344.41799927 0.848380 -0.507264 0.151444
85.24400330 -49.54700089 351.01800537 -0.606855 -0.769707 0.198188
85.01799774 -49.31700134 351.01800537 -0.620255 -0.731869 0.282224
84.71800232 -49.10300064 351.01800537 -0.494129 -0.817274 0.296478
73.01799774 -43.46699905 344.11801147 -0.450407 -0.816462 0.361280
73.01799774 -43.34000015 344.41799927 -0.459523 -0.815694 0.351400
89.98699951 -51.94699860 344.11801147 0.836949 -0.520669 0.168583
89.94000244 -51.94699860 344.41799927 0.834949 -0.530525 0.146301
91.91799927 -47.74700165 336.91699219 0.278082 0.006072 -0.960538
92.21800232 -47.44699860 337.08401489 0.281989 0.106238 -0.953517
91.91799927 -47.44699860 336.97500610 0.344221 0.145154 -0.927600
92.21800232 -47.74700165 337.03100586 0.305476 0.090463 -0.947893
92.21800232 -46.84700012 337.11499023 0.290879 0.044073 -0.955744
91.91799927 -46.84700012 337.01699829 0.287286 0.078585 -0.954616
92.21800232 -47.14699936 337.10900879 0.266027 0.061779 -0.961984
91.91799927 -47.14699936 337.01998901 0.319521 0.060800 -0.945627
91.31800079 -46.84700012 336.84799194 0.248036 0.076803 -0.965702
91.61799622 -47.14699936 336.90499878 0.295700 0.098567 -0.950182
91.31800079 -47.14699936 336.82299805 0.261246 0.066889 -0.962952
91.61799622 -46.84700012 336.92199707 0.296099 0.090004 -0.950907
91.61799622 -46.24700165 337.03201294 0.276364 0.080981 -0.957635
91.61799622 -46.54700089 336.96600342 0.308777 0.145547 -0.939932
91.31800079 -46.24700165 336.90399170 0.347417 0.115806 -0.930532
91.31800079 -46.54700089 336.87298584 0.256722 0.101915 -0.961097
91.01799774 -46.24700165 336.78100586 0.298307 0.046968 -0.953314
90.71800232 -46.24700165 336.71200562 0.257096 0.050922 -0.965043
91.01799774 -46.54700089 336.80200195 0.260028 0.035738 -0.964939
90.71800232 -46.54700089 336.72299194 0.267198 -0.008463 -0.963605
91.01799774 -45.64699936 336.84600830 0.252869 0.112818 -0.960900
90.71800232 -45.64699936 336.75299072 0.252647 0.146826 -0.956353
91.01799774 -45.94699860 336.83599854 0.302048 0.076484 -0.950220
90.71800232 -45.94699860 336.73901367 0.277368 0.062060 -0.958757
77.21800232 -44.54199982 348.91799927 -0.530986 -0.773077 0.346997
76.91799927 -44.35300064 348.91799927 -0.498888 -0.790841 0.354515
76.91799927 -44.22499847 349.21798706 -0.571984 -0.761043 0.306019
77.21800232 -44.44599915 349.21798706 -0.557931 -0.794157 0.240889
90.41799927 -44.44699860 336.74200439 0.291731 0.011078 -0.956436
90.11799622 -44.44699860 336.66299438 0.265739 0.023267 -0.963764
90.41799927 -44.74700165 336.77200317 0.249025 0.025510 -0.968161
90.11799622 -44.74700165 336.67001343 0.306368 0.023759 -0.951617
84.41799927 -49.05799866 350.71798706 -0.606432 -0.762327 0.226048
84.41799927 -48.95899963 351.01800537 -0.536980 -0.799991 0.267707
89.81800079 -44.44699860 336.58401489 0.275311 0.041110 -0.960476
89.51799774 -44.44699860 336.50299072 0.257472 0.090948 -0.961996
89.81800079 -44.74700165 336.56298828 0.313502 0.085262 -0.945752
89.51799774 -44.74700165 336.47799683 0.259002 0.113232 -0.959217
96.11799622 -37.46900177 345.91799927 0.491943 0.774446 -0.397776
96.11799622 -37.28300095 346.21798706 0.450018 0.767485 -0.456564
96.41799927 -37.41099930 346.21798706 0.549219 0.724045 -0.417274
96.11799622 -37.24700165 346.27301025 0.471497 0.757352 -0.451783
89.81800079 -43.84700012 336.59600830 0.219229 0.062462 -0.973672
89.51799774 -43.84700012 336.56600952 0.218740 0.059879 -0.973944
89.81800079 -44.14699936 336.59298706 0.216306 0.047128 -0.975188
89.51799774 -44.14699936 336.55599976 0.235969 0.087069 -0.967852
84.11799622 -48.74700165 350.71798706 -0.577820 -0.778256 0.245848
88.91799927 -44.14699936 336.30398560 0.337508 0.117924 -0.933907
84.11799622 -48.72999954 351.01800537 -0.581943 -0.780579 0.228121
89.21800232 -43.84700012 336.48001099 0.269042 0.088822 -0.959024
88.91799927 -43.84700012 336.39599609 0.337727 0.141983 -0.930473
89.21800232 -44.14699936 336.43499756 0.351144 0.133572 -0.926745
76.91799927 -44.66699982 348.31799316 -0.549724 -0.779173 0.301153
76.91799927 -44.52399826 348.61801147 -0.521950 -0.762600 0.382113
77.21800232 -44.70500183 348.61801147 -0.515893 -0.763262 0.388954
89.21800232 -43.24700165 336.49499512 0.301270 -0.016117 -0.953403
88.91799927 -43.24700165 336.39999390 0.248036 0.076803 -0.965702
89.21800232 -43.54700089 336.49798584 0.288215 0.033687 -0.956973
88.91799927 -43.54700089 336.40499878 0.284535 0.008548 -0.958627
88.31800079 -43.24700165 336.23001099 0.280038 0.100293 -0.954736
88.61799622 -43.54700089 336.31600952 0.303481 0.079452 -0.949519
88.31800079 -43.54700089 336.21798706 0.280527 0.075576 -0.956866
88.61799622 -43.24700165 336.32299805 0.267674 0.110987 -0.957096
89.21800232 -42.64699936 336.51300049 0.211129 0.080254 -0.974158
88.91799927 -42.64699936 336.45498657 0.229169 0.055148 -0.971823
89.21800232 -42.94699860 336.50399780 0.214013 0.064815 -0.974678
88.91799927 -42.94699860 336.45999146 0.218370 0.086100 -0.972060
84.41799927 -48.83499908 351.31799316 -0.560185 -0.765640 0.316208
88.61799622 -42.64699936 336.39001465 0.239459 0.060795 -0.969001
88.61799622 -42.94699860 336.36801147 0.248640 0.076990 -0.965531
