39.11800003 -35.76900101 270.61801147 -0.379236 0.855989 -0.351373
39.41799927 -35.81399918 270.31799316 -0.053593 0.934607 -0.351621
39.11800003 -35.88499832 270.31799316 -0.403474 0.849010 -0.341162
49.83300018 -42.04700089 271.51800537 0.883644 0.412959 -0.220541
49.90599823 -42.04700089 271.81799316 0.895058 0.403140 -0.190655
49.96900177 -42.34700012 271.51800537 0.896019 0.406755 -0.178046
50.03699875 -42.34700012 271.81799316 0.900315 0.385434 -0.202171
50.10800171 -42.34700012 272.11801147 0.890412 0.398846 -0.219292
49.97000122 -42.04700089 272.11801147 0.882068 0.421088 -0.211283
50.17399979 -42.34700012 272.41799927 0.899366 0.392477 -0.192618
50.04800034 -42.04700089 272.41799927 0.889022 0.411557 -0.200652
50.34600067 -42.94699860 272.11801147 0.949966 0.274673 -0.148725
50.24700165 -42.64699936 272.11801147 0.910375 0.363862 -0.197032
50.39699936 -42.94699860 272.41799927 0.982218 0.173897 -0.070758
50.30199814 -42.64699936 272.41799927 0.931976 0.327227 -0.156020
50.22700119 -42.94699860 271.51800537 0.925909 0.337586 -0.169493
50.09700012 -42.64699936 271.51800537 0.914940 0.376905 -0.144317
50.29600143 -42.94699860 271.81799316 0.923388 0.327654 -0.199996
50.15800095 -42.64699936 271.81799316 0.894711 0.389324 -0.218903
39.41799927 -35.73899841 270.61801147 -0.064143 0.938582 -0.339042
39.71799850 -35.61299896 270.91799927 -0.030570 0.905147 -0.423997
40.01800156 -35.57500076 270.91799927 0.003880 0.914390 -0.404815
39.71799850 -35.46699905 271.21798706 0.019901 0.898195 -0.439147
40.01800156 -35.47999954 271.21798706 0.051618 0.922511 -0.382504
40.31800079 -35.60300064 270.91799927 0.060311 0.915379 -0.398049
40.61800003 -35.63000107 270.91799927 0.051745 0.922115 -0.383441
40.31800079 -35.48799896 271.21798706 0.056845 0.926702 -0.371474
40.61800003 -35.49800110 271.21798706 0.042674 0.937532 -0.345271
34.91799927 -42.39899826 270.61801147 -0.878344 0.473168 -0.067992
35.08800125 -42.04700089 270.61801147 -0.837144 0.494328 -0.234156
34.93799973 -42.34700012 270.61801147 -0.882098 0.430041 -0.192271
34.76599884 -42.34700012 271.21798706 -0.919327 0.354456 -0.170873
34.83800125 -42.34700012 270.91799927 -0.884477 0.398238 -0.243119
34.93299866 -42.04700089 271.21798706 -0.844601 0.495318 -0.203246
35.01499939 -42.04700089 270.91799927 -0.851527 0.473407 -0.225360
35.27099991 -41.44699860 271.21798706 -0.853455 0.481475 -0.199490
35.11199951 -41.74700165 271.21798706 -0.859112 0.479263 -0.179538
35.36100006 -41.44699860 270.91799927 -0.823245 0.519702 -0.228424
35.17300034 -41.74700165 270.91799927 -0.852830 0.479811 -0.206063
35.13399887 -41.44699860 271.81799316 -0.815230 0.531672 -0.229621
34.98199844 -41.74700165 271.81799316 -0.869233 0.453190 -0.197620
35.22100067 -41.44699860 271.51800537 -0.851834 0.497518 -0.163871
35.05199814 -41.74700165 271.51800537 -0.849417 0.489875 -0.196250
35.48300171 -40.84700012 271.81799316 -0.894133 0.432282 -0.116871
35.37500000 -41.14699936 271.81799316 -0.862323 0.480374 -0.160125
35.37799835 -41.14699936 271.51800537 -0.889097 0.442428 -0.117321
35.36000061 -40.84700012 272.41799927 -0.838007 0.504623 -0.207607
35.17599869 -41.14699936 272.41799927 -0.829280 0.520006 -0.204667
35.43600082 -40.84700012 272.11801147 -0.860291 0.469656 -0.198299
35.27399826 -41.14699936 272.11801147 -0.806318 0.535992 -0.250129
47.72299957 -38.74700165 268.81799316 0.854009 0.284670 -0.435468
47.58599854 -38.44699860 268.81799316 0.838307 0.310657 -0.448034
47.41899872 -38.44699860 268.51800537 0.878511 0.297877 -0.373481
38.10100174 -36.64699936 271.81799316 -0.832406 0.522323 -0.185146
38.16500092 -36.64699936 271.51800537 -0.831938 0.522030 -0.188051
37.97999954 -36.94699860 271.51800537 -0.853031 0.489786 -0.180134
47.31499863 -38.14699936 268.51800537 0.888502 0.117617 -0.443543
47.33599854 -37.84700012 268.51800537 0.930458 0.195073 -0.310153
47.48600006 -38.14699936 268.81799316 0.869519 0.284764 -0.403542
47.41199875 -37.84700012 268.81799316 0.907954 0.331893 -0.255865
37.94400024 -36.64699936 272.41799927 -0.816941 0.540063 -0.202334
38.03900146 -36.64699936 272.11801147 -0.825534 0.524511 -0.208284
37.74300003 -36.94699860 272.41799927 -0.829791 0.520326 -0.201759
37.83300018 -36.94699860 272.11801147 -0.827079 0.515204 -0.224733
47.47800064 -37.84700012 269.11801147 0.877044 0.445133 -0.180697
47.49900055 -37.84700012 269.41799927 0.873225 0.464851 -0.146261
47.62099838 -38.14699936 269.11801147 0.881890 0.352453 -0.313124
47.67900085 -38.14699936 269.41799927 0.903911 0.403153 -0.142872
47.28900146 -37.54700089 269.11801147 0.814067 0.551270 -0.182750
47.06000137 -37.24700165 269.11801147 0.704014 0.652929 -0.279371
47.35100174 -37.54700089 269.41799927 0.849354 0.498307 -0.174036
47.15000153 -37.24700165 269.41799927 0.826433 0.505129 -0.248702
47.41600037 -37.54700089 269.71798706 0.869994 0.447638 -0.206716
47.24599838 -37.24700165 269.71798706 0.842910 0.471354 -0.259475
47.47800064 -37.54700089 270.01800537 0.897736 0.398833 -0.187089
47.34799957 -37.24700165 270.01800537 0.868986 0.436744 -0.232630
45.11800003 -35.15999985 272.71798706 0.029073 0.823734 -0.566231
45.41799927 -35.15499878 272.71798706 0.043198 0.831916 -0.553217
47.09099960 -36.94699860 269.71798706 0.798183 0.537872 -0.271288
46.91799927 -36.76699829 269.71798706 0.567041 0.765106 -0.305084
47.19200134 -36.94699860 270.01800537 0.792405 0.558887 -0.244416
46.91799927 -36.65399933 270.01800537 0.583136 0.744670 -0.324683
37.69800186 -46.84700012 277.21798706 -0.874523 -0.426050 0.231711
37.85400009 -47.14699936 277.21798706 -0.876437 -0.414997 0.244204
37.63600159 -46.84700012 276.91799927 -0.896438 -0.408522 0.171781
37.76399994 -47.14699936 276.91799927 -0.898122 -0.386996 0.208832
37.84700012 -46.84700012 277.81799316 -0.865446 -0.455891 0.207767
37.77799988 -46.84700012 277.51800537 -0.887245 -0.410517 0.210408
38.02099991 -47.14699936 277.81799316 -0.788731 -0.534814 0.303114
37.91899872 -47.14699936 277.51800537 -0.839650 -0.480458 0.253276
38.21799850 -47.42100143 277.81799316 -0.603786 -0.702497 0.376749
38.13499832 -47.44699860 277.51800537 -0.682135 -0.642876 0.348429
37.99300003 -47.44699860 277.21798706 -0.809173 -0.506325 0.298117
38.21799850 -47.73699951 277.21798706 -0.645722 -0.655631 0.391397
38.06900024 -47.74700165 276.91799927 -0.768115 -0.604292 0.211734
49.03599930 -44.14699936 276.31799316 0.839877 -0.521049 0.152034
49.22499847 -43.84700012 276.31799316 0.839925 -0.528410 0.123732
48.99599838 -44.14699936 276.61801147 0.815507 -0.576891 0.046320
49.21099854 -43.84700012 276.61801147 0.792125 -0.602482 -0.097739
37.36500168 -48.04700089 273.01800537 -0.896059 -0.433397 0.096156
44.81800079 -35.13499832 272.71798706 0.109510 0.807456 -0.579674
44.51800156 -35.05199814 272.71798706 0.132746 0.774104 -0.618985
43.61800003 -35.17900085 272.41799927 0.082908 0.914710 -0.395514
43.31800079 -35.14699936 272.41799927 0.071151 0.922279 -0.379920
43.61800003 -35.28799820 272.11801147 0.075840 0.932700 -0.352590
43.31800079 -35.27000046 272.11801147 0.038511 0.912310 -0.407685
43.01800156 -35.25299835 272.11801147 0.019727 0.908743 -0.416891
42.71799850 -35.26399994 272.11801147 0.003906 0.904841 -0.425731
42.41799927 -35.36500168 271.81799316 0.102617 0.920814 -0.376261
42.11800003 -35.33200073 271.81799316 0.085790 0.916459 -0.390823
42.41799927 -35.50799942 271.51800537 0.083059 0.868602 -0.488500
42.11800003 -35.47900009 271.51800537 0.150708 0.861816 -0.484314
43.01800156 -35.40999985 271.81799316 0.036280 0.896244 -0.442075
42.71799850 -35.39599991 271.81799316 0.063223 0.913365 -0.402203
43.01800156 -35.56299973 271.51800537 0.112266 0.817938 -0.564246
42.71799850 -35.53300095 271.51800537 0.081249 0.833876 -0.545939
41.21799850 -35.52299881 271.21798706 0.037887 0.926270 -0.374950
40.91799927 -35.51300049 271.21798706 0.024305 0.937672 -0.346670
41.21799850 -35.64699936 270.91799927 0.051838 0.918458 -0.392106
40.91799927 -35.64099884 270.91799927 0.027450 0.918934 -0.393455
36.20800018 -40.24700165 270.31799316 -0.865117 0.434831 -0.249990
36.13800049 -40.24700165 270.61801147 -0.864066 0.452320 -0.220900
41.21799850 -35.77399826 270.61801147 0.062936 0.919934 -0.386988
40.91799927 -35.76800156 270.61801147 0.035328 0.925073 -0.378142
41.21799850 -35.89899826 270.31799316 0.054698 0.916522 -0.396226
40.91799927 -35.88700104 270.31799316 0.058262 0.903742 -0.424095
40.61800003 -35.75099945 270.61801147 0.040594 0.925803 -0.375821
40.31800079 -35.75400162 270.61801147 0.027023 0.932938 -0.359020
40.61800003 -35.86199951 270.31799316 0.048997 0.920354 -0.388005
40.31800079 -35.84700012 270.31799316 0.048504 0.929449 -0.365749
40.61800003 -36.01399994 270.01800537 0.088392 0.879713 -0.467216
40.31800079 -35.97299957 270.01800537 0.070264 0.891388 -0.447761
40.61800003 -36.18000031 269.71798706 0.057256 0.920098 -0.387480
40.31800079 -36.16099930 269.71798706 0.073095 0.892310 -0.445466
40.01800156 -35.84199905 270.31799316 0.034863 0.936131 -0.349919
39.71799850 -35.82799911 270.31799316 0.027103 0.930519 -0.365239
39.41799927 -35.95800018 270.01800537 -0.060641 0.909612 -0.411010
39.11800003 -36.00400162 270.01800537 -0.392308 0.833457 -0.389157
39.41799927 -36.10100174 269.71798706 -0.093399 0.893563 -0.439114
39.11800003 -36.16999817 269.71798706 -0.320148 0.868534 -0.378356
40.01800156 -35.96699905 270.01800537 0.001297 0.906778 -0.421606
39.71799850 -35.98199844 270.01800537 0.019755 0.904791 -0.425397
40.01800156 -36.11299896 269.71798706 0.055917 0.893300 -0.445968
39.71799850 -36.10599899 269.71798706 0.033177 0.909045 -0.415374
39.41799927 -36.24499893 269.41799927 -0.045295 0.938261 -0.342950
39.11800003 -36.25099945 269.41799927 -0.238953 0.922904 -0.301911
39.41799927 -36.34099960 269.11801147 -0.001233 0.950879 -0.309560
40.01800156 -35.73600006 270.61801147 0.024804 0.920341 -0.390329
39.71799850 -35.73400116 270.61801147 0.006254 0.944326 -0.328951
38.46200180 -36.94699860 269.41799927 -0.824294 0.534962 -0.185353
38.14300156 -37.24700165 270.01800537 -0.831841 0.520844 -0.191731
37.94400024 -37.54700089 270.01800537 -0.830067 0.517464 -0.207896
38.20800018 -37.24700165 269.71798706 -0.847896 0.494980 -0.189917
38.04499817 -37.54700089 269.71798706 -0.836569 0.501332 -0.220952
38.00899887 -37.24700165 270.61801147 -0.826893 0.518146 -0.218569
38.08499908 -37.24700165 270.31799316 -0.835998 0.517808 -0.181608
37.31399918 -38.14699936 271.21798706 -0.823715 0.533526 -0.191948
35.45399857 -39.94699860 274.21798706 -0.804726 0.561331 -0.193195
35.51200104 -39.94699860 273.91799927 -0.813484 0.549897 -0.189359
35.67300034 -39.64699936 274.21798706 -0.807171 0.552920 -0.206771
35.73600006 -39.64699936 273.91799927 -0.821145 0.544928 -0.169633
35.50099945 -39.64699936 274.81799316 -0.831167 0.490652 -0.261578
35.31100082 -39.94699860 274.81799316 -0.792213 0.561864 -0.238131
35.37099838 -39.94699860 274.51800537 -0.808741 0.551901 -0.203332
35.58300018 -39.64699936 274.51800537 -0.803345 0.546398 -0.236824
35.17200089 -39.94699860 275.11801147 -0.759066 0.424618 -0.493475
45.11800003 -35.42300034 272.11801147 0.076871 0.921102 -0.381657
45.41799927 -35.42599869 272.11801147 0.030207 0.918045 -0.395324
45.11800003 -35.28400040 272.41799927 0.032965 0.913804 -0.404816
45.41799927 -35.29000092 272.41799927 0.024939 0.914875 -0.402965
36.07300186 -43.54700089 276.61801147 -0.888920 -0.457197 0.028156
35.86600113 -43.24700165 276.31799316 -0.871538 -0.462777 0.162045
36.04800034 -43.54700089 276.31799316 -0.871766 -0.447021 0.200491
36.20100021 -43.84700012 276.61801147 -0.899841 -0.421232 0.113355
36.36899948 -44.14699936 276.61801147 -0.907977 -0.389538 0.154399
36.18199921 -43.84700012 276.31799316 -0.905594 -0.398235 0.145972
36.30599976 -44.14699936 276.31799316 -0.921061 -0.352956 0.164525
35.95800018 -43.84700012 275.41799927 -0.910832 -0.376553 0.169094
36.08100128 -44.14699936 275.41799927 -0.888740 -0.423279 0.176002
35.90000153 -43.84700012 275.11801147 -0.900198 -0.400567 0.170851
36.03200150 -44.14699936 275.11801147 -0.859603 -0.505070 0.077378
36.41799927 -44.51900101 274.81799316 -0.638472 -0.764121 0.092045
36.11800003 -44.32400131 274.51800537 -0.704976 -0.683379 0.189742
36.41799927 -44.61899948 274.51800537 -0.542870 -0.816586 0.196163
36.67800140 -44.74700165 274.51800537 -0.434823 -0.888302 0.147811
35.96400070 -44.44699860 273.91799927 -0.817955 -0.419341 0.393830
36.09000015 -44.74700165 273.91799927 -0.857934 -0.360178 0.366361
36.13700104 -44.44699860 274.21798706 -0.778152 -0.531069 0.335328
36.23899841 -45.64699936 273.01800537 -0.908078 -0.387958 0.157741
36.36600113 -45.94699860 273.01800537 -0.901936 -0.363990 0.232428
36.20700073 -45.64699936 272.71798706 -0.922520 -0.355889 0.149334
36.30099869 -45.94699860 272.71798706 -0.934373 -0.311458 0.173032
38.76300049 -36.04700089 270.61801147 -0.705002 0.643977 -0.297096
38.56800079 -36.34700012 270.61801147 -0.817745 0.525143 -0.235621
38.81800079 -36.10900116 270.31799316 -0.673095 0.685886 -0.276593
38.64799881 -36.34700012 270.31799316 -0.812840 0.543424 -0.209716
38.23300171 -36.64699936 271.21798706 -0.830163 0.525820 -0.185318
38.04399872 -36.94699860 271.21798706 -0.843390 0.506034 -0.180620
38.30400085 -36.64699936 270.91799927 -0.836592 0.511000 -0.197466
38.10900116 -36.94699860 270.91799927 -0.830067 0.517464 -0.207896
37.90599823 -36.94699860 271.81799316 -0.852985 0.476889 -0.212118
38.21799850 -47.90700150 276.91799927 -0.547412 -0.772156 0.322668
48.54800034 -38.44699860 273.01800537 0.897317 0.382055 -0.221036
48.68099976 -38.74700165 273.01800537 0.891936 0.321217 -0.318229
48.48699951 -38.44699860 272.71798706 0.886893 0.283626 -0.364661
48.58900070 -38.74700165 272.71798706 0.863684 0.147103 -0.482090
49.40999985 -41.14699936 271.21798706 0.906102 0.397215 -0.145598
49.36100006 -41.14699936 270.91799927 0.902845 0.411405 -0.124966
49.22200012 -40.84700012 271.21798706 0.899614 0.409175 -0.152549
49.19699860 -40.84700012 270.91799927 0.914209 0.388643 -0.114795
49.30799866 -41.44699860 270.31799316 0.874245 0.343290 -0.343290
49.44100189 -41.44699860 270.61801147 0.913032 0.352272 -0.205612
49.54499817 -41.74700165 270.61801147 0.929586 0.305174 -0.206731
49.44800186 -41.74700165 270.31799316 0.880146 0.310551 -0.359027
48.73500061 -46.24700165 272.11801147 0.784189 -0.611227 0.107001
48.72000122 -46.24700165 272.41799927 0.826124 -0.552207 0.112190
48.50799942 -46.54700089 272.11801147 0.775730 -0.624368 0.091690
48.45999908 -46.54700089 272.41799927 0.772967 -0.626848 0.097899
48.44400024 -46.54700089 272.71798706 0.794526 -0.582652 0.171012
48.65700150 -46.24700165 272.71798706 0.810313 -0.534528 0.240150
48.32600021 -46.54700089 273.01800537 0.851643 -0.502777 0.148048
48.53099823 -46.24700165 273.01800537 0.818414 -0.529743 0.222645
48.22600174 -46.84700012 272.71798706 0.837276 -0.536493 0.105563
48.18299866 -46.84700012 273.01800537 0.875882 -0.473792 0.091384
48.31600189 -46.54700089 273.31799316 0.869043 -0.477037 0.131149
48.48899841 -46.24700165 273.31799316 0.843448 -0.510234 0.168095
48.25299835 -46.54700089 273.61801147 0.840916 -0.494209 0.220493
48.40999985 -46.24700165 273.61801147 0.855678 -0.475044 0.205303
48.14099884 -46.84700012 273.31799316 0.845989 -0.504025 0.173956
47.95500183 -47.14699936 273.31799316 0.827079 -0.515204 0.224733
47.86600113 -47.14699936 273.61801147 0.839271 -0.507782 0.194373
48.05699921 -46.84700012 273.61801147 0.825535 -0.516151 0.228209
47.80699921 -47.14699936 273.91799927 0.839969 -0.488069 0.237150
47.98600006 -46.84700012 273.91799927 0.846769 -0.487533 0.212824
47.67499924 -47.14699936 274.21798706 0.817496 -0.512298 0.263156
47.90700150 -46.84700012 274.21798706 0.838472 -0.510309 0.191178
47.65200043 -47.44699860 273.91799927 0.844489 -0.463007 0.269190
47.52999878 -47.44699860 274.21798706 0.830252 -0.470633 0.298641
47.73099899 -36.64699936 273.01800537 0.907366 0.367851 -0.203400
47.85499954 -36.94699860 273.01800537 0.905522 0.381500 -0.185711
47.67200089 -36.64699936 272.71798706 0.906929 0.370558 -0.200418
47.80099869 -36.94699860 272.71798706 0.898778 0.398010 -0.183808
47.45100021 -47.74700165 273.91799927 0.819573 -0.490490 0.296175
47.35499954 -47.74700165 274.21798706 0.817508 -0.497409 0.290286
47.50299835 -36.64699936 271.81799316 0.872697 0.429612 -0.232021
47.42399979 -36.64699936 271.51800537 0.881860 0.399757 -0.250035
46.91799927 -36.04199982 271.21798706 0.454235 0.811247 -0.368169
47.20500183 -36.34700012 271.21798706 0.798544 0.545385 -0.254721
46.91799927 -36.19800186 270.91799927 0.448572 0.799069 -0.400339
47.08599854 -36.34700012 270.91799927 0.733795 0.594487 -0.328831
45.41799927 -36.35800171 270.01800537 0.083930 0.901220 -0.425156
45.41799927 -36.48500061 269.71798706 0.065032 0.927696 -0.367628
45.11800003 -36.45500183 269.71798706 0.076982 0.919737 -0.384912
44.81800079 -36.31499863 270.01800537 0.014579 0.894597 -0.446636
44.51800156 -36.30300140 270.01800537 0.029882 0.926350 -0.375477
39.11800003 -34.88999939 272.71798706 -0.387920 0.777463 -0.495044
39.41799927 -34.81499863 272.71798706 -0.106478 0.812445 -0.573233
39.71799850 -34.80300140 272.71798706 -0.012277 0.833454 -0.552453
40.01800156 -34.78799820 272.71798706 0.023700 0.790480 -0.612029
39.71799850 -35.05899811 272.11801147 0.032965 0.913804 -0.404816
40.01800156 -35.06000137 272.11801147 0.054288 0.925547 -0.374721
39.71799850 -34.91999817 272.41799927 0.071684 0.912960 -0.401703
40.01800156 -34.96400070 272.41799927 0.069382 0.904693 -0.420376
41.72600174 -36.94699860 268.21798706 -0.061643 -0.652265 0.755480
41.51800156 -36.94699860 268.20098877 0.089586 0.851778 -0.516186
46.98600006 -36.94699860 269.41799927 0.617768 0.699700 -0.358863
47.81000137 -45.94699860 276.91799927 0.825535 -0.516151 0.228209
47.98500061 -45.64699936 276.91799927 0.825352 -0.523283 0.212059
47.69200134 -45.94699860 277.21798706 0.839253 -0.524717 0.142570
47.89899826 -45.64699936 277.21798706 0.827824 -0.545511 0.130864
47.61899948 -46.24700165 276.91799927 0.834506 -0.501924 0.227315
47.54000092 -46.24700165 277.21798706 0.855130 -0.491810 0.163937
40.31800079 -35.07699966 272.11801147 0.045888 0.929564 -0.365794
40.61800003 -35.09299850 272.11801147 0.077204 0.916961 -0.391435
40.31800079 -34.97299957 272.41799927 0.038715 0.906456 -0.420521
40.61800003 -34.98600006 272.41799927 0.036013 0.902989 -0.428153
46.61800003 -36.75500107 269.41799927 0.314641 0.886715 -0.338728
46.31800079 -36.69300079 269.41799927 0.173627 0.932028 -0.318084
46.61800003 -36.88899994 269.11801147 0.377974 0.830278 -0.409604
46.31800079 -36.79800034 269.11801147 0.180865 0.912869 -0.366002
47.43700027 -46.54700089 276.91799927 0.833585 -0.517034 0.194453
47.35699844 -46.54700089 277.21798706 0.816095 -0.542544 0.199085
44.81800079 -49.27700043 275.11801147 -0.055362 -0.903339 0.425339
44.51800156 -49.24100113 275.11801147 -0.058195 -0.902702 0.426313
44.51800156 -49.08499908 275.41799927 -0.038562 -0.910870 0.410889
44.81800079 -49.12500000 275.41799927 -0.077658 -0.908734 0.410088
43.31800079 -48.96699905 275.71798706 -0.048707 -0.844717 0.532993
46.61800003 -36.49499893 270.01800537 0.311510 0.847742 -0.429295
46.31800079 -36.44400024 270.01800537 0.146604 0.869462 -0.471745
40.31800079 -35.36399841 271.51800537 0.095156 0.906047 -0.412341
40.61800003 -35.40100098 271.51800537 0.077093 0.918357 -0.388172
40.31800079 -35.21599960 271.81799316 0.072728 0.898814 -0.432254
40.61800003 -35.24200058 271.81799316 0.096403 0.889982 -0.445689
46.31800079 -36.60400009 269.71798706 0.154339 0.910459 -0.383724
46.61800003 -36.66400146 269.71798706 0.292968 0.884912 -0.362078
47.08000183 -47.14699936 276.91799927 0.840887 -0.478091 0.253650
47.24300003 -46.84700012 276.91799927 0.827370 -0.506899 0.241894
46.97600174 -47.14699936 277.21798706 0.846220 -0.465344 0.259549
47.12300110 -46.84700012 277.21798706 0.824556 -0.517459 0.228787
40.91799927 -35.42300034 271.51800537 0.035072 0.931358 -0.362411
41.21799850 -35.40900040 271.51800537 0.008861 0.935510 -0.353190
40.91799927 -35.27999878 271.81799316 0.066333 0.908361 -0.412892
46.01800156 -36.40200043 270.01800537 0.106118 0.878660 -0.465506
45.71799850 -36.37699890 270.01800537 0.078675 0.893031 -0.443065
46.01800156 -36.54800034 269.71798706 0.144317 0.914940 -0.376905
41.21799850 -35.29800034 271.81799316 0.035141 0.927993 -0.370937
45.71799850 -36.49800110 269.71798706 0.093399 0.924511 -0.369534
41.21799850 -35.16299820 272.11801147 0.047050 0.904698 -0.423447
41.51800156 -35.41500092 271.51800537 0.040238 0.933257 -0.356948
41.81800079 -35.43799973 271.51800537 0.079667 0.919543 -0.384831
41.51800156 -35.30400085 271.81799316 0.032649 0.923317 -0.382648
41.81800079 -35.31399918 271.81799316 0.048858 0.923026 -0.381623
45.11800003 -36.31900024 270.01800537 0.067191 0.892680 -0.445654
46.68000031 -47.74700165 276.91799927 0.817326 -0.545388 0.185825
46.89799881 -47.44699860 276.91799927 0.813685 -0.536817 0.223033
46.64699936 -47.74700165 277.21798706 0.840012 -0.515901 0.168002
46.81299973 -47.44699860 277.21798706 0.843001 -0.483239 0.236284
41.51800156 -35.66999817 270.91799927 0.112738 0.906082 -0.407806
41.81800079 -35.73099899 270.91799927 0.212135 0.876724 -0.431687
41.51800156 -35.53499985 271.21798706 0.080233 0.912484 -0.401167
41.81800079 -35.56299973 271.21798706 0.171042 0.878600 -0.445878
46.31800079 -48.25699997 276.91799927 0.610433 -0.754803 0.240093
46.47200012 -48.04700089 276.91799927 0.793530 -0.584945 0.167775
46.44300079 -48.04700089 277.21798706 0.671993 -0.700320 0.240784
42.11800003 -35.66199875 271.21798706 0.254481 0.834389 -0.488912
42.41799927 -35.73699951 271.21798706 0.178345 0.775876 -0.605153
42.11800003 -35.83700180 270.91799927 0.356478 0.800877 -0.481165
48.17499924 -45.64699936 276.01800537 0.829927 -0.521539 0.198034
48.26499939 -45.64699936 275.71798706 0.819067 -0.522907 0.236002
48.70500183 -45.34700012 274.81799316 0.840349 -0.493876 0.223384
48.86600113 -45.04700089 274.81799316 0.841470 -0.487167 0.233657
48.94300079 -45.04700089 274.51800537 0.844418 -0.485350 0.226700
48.77099991 -45.34700012 274.51800537 0.832139 -0.512670 0.211458
45.11800003 -36.02399826 270.61801147 0.057011 0.924105 -0.377862
45.41799927 -36.04800034 270.61801147 0.066044 0.915175 -0.397609
45.41799927 -36.18500137 270.31799316 0.073535 0.883813 -0.462025
45.11800003 -36.16299820 270.31799316 0.075644 0.898101 -0.433234
49.81800079 -44.74700165 271.81799316 0.760427 -0.614847 0.209079
45.41799927 -35.79100037 271.21798706 0.103258 0.912802 -0.395134
45.11800003 -35.74800110 271.21798706 0.081311 0.897179 -0.434119
45.41799927 -35.93600082 270.91799927 0.071561 0.916789 -0.392909
45.11800003 -35.90900040 270.91799927 0.054998 0.910817 -0.409130
44.81800079 -36.02099991 270.61801147 -0.067942 0.925871 -0.371681
44.51800156 -36.06499863 270.61801147 -0.161282 0.935987 -0.312915
44.81800079 -36.13299942 270.31799316 0.006499 0.911147 -0.412031
44.51800156 -36.14099884 270.31799316 -0.126972 0.911127 -0.392078
42.71799850 -35.74700165 271.27499390 0.238499 0.581438 -0.777849
43.01800156 -35.74700165 271.31500244 0.131282 0.559056 -0.818670
42.71799850 -36.22499847 270.91799927 0.418167 0.712371 -0.563616
43.01800156 -36.34700012 270.96301270 0.416514 0.732603 -0.538340
42.71799850 -36.04700089 271.11300659 0.415384 0.580875 -0.700029
43.01800156 -36.04700089 271.24700928 0.204793 0.514258 -0.832825
43.61800003 -47.87200165 278.11801147 -0.003772 -0.939235 0.343255
43.31800079 -47.84199905 278.11801147 -0.045194 -0.941333 0.334438
44.21799850 -47.90200043 278.11801147 -0.085046 -0.948593 0.304858
43.91799927 -47.83900070 278.11801147 -0.047661 -0.944203 0.325898
44.81800079 -35.90200043 270.91799927 -0.009190 0.899323 -0.437189
44.51800156 -35.92599869 270.91799927 -0.166117 0.865867 -0.471890
44.81800079 -35.72600174 271.21798706 0.025006 0.912055 -0.409306
44.51800156 -35.71400070 271.21798706 -0.086125 0.862661 -0.498395
46.01800156 -48.61000061 276.61801147 0.316653 -0.854190 0.412421
45.71799850 -48.63000107 276.61801147 0.021995 -0.925096 0.379095
44.21799850 -35.75699997 271.21798706 -0.097458 0.795668 -0.597842
46.01800156 -48.72299957 276.31799316 0.333574 -0.875821 0.348805
45.71799850 -48.76200104 276.31799316 0.086748 -0.904657 0.417216
44.21799850 -36.04700089 270.94000244 -0.358909 0.758418 -0.544047
43.91799927 -36.04700089 271.10400391 -0.422412 0.481126 -0.768170
43.91799927 -36.31100082 270.91799927 -0.499955 0.651457 -0.570656
43.61800003 -36.34299850 270.01800537 -0.145143 0.989410 0.001108
36.95700073 -39.64699936 269.41799927 -0.827346 0.387571 -0.406554
36.71799850 -39.94699860 269.51199341 -0.801771 0.419363 -0.425790
43.91799927 -36.31100082 270.01800537 -0.073177 0.971148 -0.226973
44.21799850 -36.27299881 270.01800537 -0.015566 0.971072 -0.238278
43.01800156 -36.64699936 270.61801147 0.999991 0.002944 -0.002944
43.01900101 -36.64699936 270.61801147 -0.168868 0.743932 -0.646567
42.71799850 -36.41799927 270.61801147 0.467990 0.870374 -0.153081
43.01800156 -36.64699936 270.61700439 0.633196 0.766034 0.110699
43.01800156 -36.44100189 270.31799316 0.209787 0.920494 0.329665
42.71799850 -36.37200165 270.31799316 0.253843 0.945392 0.204446
43.31800079 -36.57899857 270.61801147 0.062079 0.996525 -0.055544
43.61800003 -36.46500015 270.31799316 -0.145547 0.939932 0.308777
43.31800079 -36.50999832 270.31799316 0.036145 0.958460 0.282926
43.91799927 -36.38800049 269.71798706 -0.001225 0.954632 -0.297786
44.21799850 -36.38800049 269.71798706 0.056561 0.932595 -0.356465
45.41799927 -37.21500015 268.21798706 0.012392 0.802739 -0.596202
45.11800003 -37.20600128 268.21798706 0.103817 0.796904 -0.595119
43.91799927 -35.74700165 271.29299927 -0.206261 0.640493 -0.739747
44.51800156 -36.43600082 269.71798706 0.071283 0.918606 -0.388693
44.81800079 -36.44200134 269.71798706 0.024744 0.920739 -0.389393
43.91799927 -36.60100174 269.11801147 0.092547 0.904749 -0.415770
44.21799850 -36.64199829 269.11801147 0.060205 0.919130 -0.389326
43.91799927 -36.48899841 269.41799927 0.045085 0.941626 -0.333627
44.21799850 -36.51599884 269.41799927 0.085167 0.923321 -0.374466
44.51800156 -36.65000153 269.11801147 0.035072 0.931358 -0.362411
44.81800079 -36.67399979 269.11801147 0.049828 0.949278 -0.310464
44.51800156 -36.55500031 269.41799927 0.084057 0.932631 -0.350904
44.81800079 -36.56700134 269.41799927 0.029709 0.931326 -0.362972
44.21799850 -35.44300079 271.81799316 0.085667 0.917863 -0.387542
43.91799927 -35.41600037 271.81799316 0.036054 0.904019 -0.425970
44.21799850 -35.59199905 271.51800537 0.033177 0.909045 -0.415374
43.91799927 -35.59000015 271.51800537 -0.017584 0.861627 -0.507237
37.38199997 -47.74700165 273.91799927 -0.904000 -0.384957 0.185990
37.43999863 -47.74700165 274.21798706 -0.888009 -0.400417 0.226066
37.25099945 -47.44699860 273.91799927 -0.886085 -0.414293 0.207883
37.31399918 -47.44699860 274.21798706 -0.899227 -0.386216 0.205496
37.54399872 -47.74700165 274.51800537 -0.871454 -0.433477 0.229488
37.38800049 -47.44699860 274.51800537 -0.880491 -0.415663 0.227944
37.59899902 -47.74700165 274.81799316 -0.897378 -0.409205 0.165118
37.46300125 -47.44699860 274.81799316 -0.885041 -0.421238 0.198143
37.31900024 -47.14699936 274.81799316 -0.895018 -0.395677 0.205869
37.38800049 -47.14699936 275.11801147 -0.895041 -0.398607 0.200034
37.45500183 -47.14699936 275.41799927 -0.902140 -0.398886 0.164415
37.26300049 -46.84700012 275.11801147 -0.919722 -0.344364 0.188479
37.31600189 -46.84700012 275.41799927 -0.923966 -0.349797 0.154691
37.49599838 -47.14699936 275.71798706 -0.896093 -0.414354 0.159146
37.37099838 -46.84700012 275.71798706 -0.918060 -0.365822 0.152776
37.56000137 -47.14699936 276.01800537 -0.880946 -0.426455 0.205111
37.41999817 -46.84700012 276.01800537 -0.905004 -0.384159 0.182727
37.64300156 -47.14699936 276.31799316 -0.887065 -0.405895 0.219921
37.49599838 -46.84700012 276.31799316 -0.878722 -0.419220 0.228259
37.70899963 -47.14699936 276.61801147 -0.906517 -0.380708 0.182453
37.57699966 -46.84700012 276.61801147 -0.886172 -0.415898 0.204275
37.35800171 -46.54700089 276.31799316 -0.900387 -0.390023 0.192836
37.42900085 -46.54700089 276.61801147 -0.886617 -0.411591 0.210959
37.22999954 -46.24700165 276.31799316 -0.901231 -0.398152 0.171047
37.29399872 -46.24700165 276.61801147 -0.889480 -0.407249 0.207300
37.49700165 -46.54700089 276.91799927 -0.899333 -0.396977 0.183331
37.36700058 -46.24700165 276.91799927 -0.888825 -0.405351 0.213731
37.54600143 -46.54700089 277.21798706 -0.893786 -0.394792 0.212806
37.43999863 -46.24700165 277.21798706 -0.903486 -0.383078 0.192262
43.61800003 -35.41299820 271.81799316 -0.022920 0.877716 -0.478632
43.31800079 -35.42100143 271.81799316 0.054085 0.863970 -0.500631
37.65100098 -46.54700089 277.51800537 -0.878722 -0.419220 0.228259
37.50400162 -46.24700165 277.51800537 -0.886576 -0.425030 0.182573
37.71400070 -46.54700089 277.81799316 -0.895598 -0.422882 0.138113
37.55899811 -46.24700165 277.81799316 -0.866412 -0.497257 0.045456
43.61800003 -35.60400009 271.51800537 -0.069679 0.820501 -0.567383
45.11800003 -36.69100189 269.11801147 0.080567 0.939068 -0.334155
45.41799927 -36.72299957 269.11801147 0.095738 0.929058 -0.357330
45.11800003 -36.57199860 269.41799927 0.048695 0.927828 -0.369815
45.41799927 -36.59799957 269.41799927 0.076229 0.926786 -0.367772
45.11800003 -36.93000031 268.51800537 0.028913 0.843988 -0.535582
45.11800003 -36.77299881 268.81799316 0.067942 0.925871 -0.371681
45.41799927 -36.82199860 268.81799316 0.096853 0.920782 -0.377862
40.01800156 -49.51399994 273.61801147 -0.077248 -0.944000 0.320777
40.15900040 -49.54700089 273.61801147 -0.207887 -0.902781 0.376522
39.71799850 -49.50899887 273.61801147 0.029630 -0.977805 0.207413
40.61800003 -49.57799911 273.61801147 -0.045844 -0.928670 0.368062
45.71799850 -36.84500122 268.81799316 0.134860 0.935850 -0.325572
46.01800156 -36.90599823 268.81799316 0.122749 0.922687 -0.365489
43.01800156 -35.12599945 272.41799927 0.040882 0.919193 -0.391679
42.71799850 -35.11299896 272.41799927 0.050413 0.889719 -0.453716
37.18299866 -38.74700165 270.31799316 -0.865424 0.475910 -0.156684
37.30799866 -38.44699860 270.31799316 -0.881961 0.432909 -0.186371
37.11299896 -38.74700165 270.61801147 -0.848145 0.482279 -0.219218
37.25600052 -38.44699860 270.61801147 -0.887644 0.425662 -0.175785
45.71799850 -36.97100067 268.51800537 0.076482 0.883019 -0.463064
46.01800156 -37.01599884 268.51800537 0.111943 0.913511 -0.391110
45.71799850 -37.21699905 268.21798706 -0.076023 0.888777 -0.451991
46.01800156 -37.17800140 268.21798706 -0.017269 0.891352 -0.452982
36.95000076 -39.34700012 269.71798706 -0.829352 0.451658 -0.328908
37.12900162 -39.04700089 269.71798706 -0.833778 0.491636 -0.251212
36.85200119 -39.34700012 270.01800537 -0.838007 0.504623 -0.207607
37.02000046 -39.04700089 270.01800537 -0.833469 0.515813 -0.198157
37.33399963 -39.04700089 269.11801147 -0.724930 0.688753 -0.009740
37.31800079 -39.04700089 269.14498901 -0.784717 0.487010 -0.383460
37.06200027 -39.34700012 269.41799927 -0.863917 0.400501 -0.305363
37.19800186 -39.04700089 269.41799927 -0.843089 0.467013 -0.266644
46.31800079 -37.18000031 268.21798706 0.022232 0.916739 -0.398867
46.61800003 -37.16899872 268.21798706 0.238295 0.914187 -0.327837
41.51800156 -49.43600082 274.21798706 -0.124583 -0.908473 0.398944
41.81800079 -49.45600128 274.21798706 -0.101928 -0.895011 0.434241
41.51800156 -49.54700089 273.91799927 -0.218639 -0.967892 0.124023
41.81800079 -49.61199951 273.91799927 -0.232932 -0.921727 0.310100
41.53799820 -49.54700089 273.61801147 -0.303393 -0.952629 -0.021225
41.51800156 -49.54000092 273.61801147 -0.061620 -0.993758 0.092990
40.91799927 -49.50400162 273.91799927 -0.042344 -0.943112 0.329768
41.21799850 -49.50799942 273.91799927 -0.043850 -0.958443 0.281895
40.91799927 -49.36999893 274.21798706 -0.003763 -0.939530 0.342446
41.21799850 -49.38499832 274.21798706 -0.076419 -0.926407 0.368686
40.91799927 -49.27099991 274.51800537 0.021890 -0.930982 0.364409
41.21799850 -49.25600052 274.51800537 -0.045752 -0.932031 0.359479
40.91799927 -49.15900040 274.81799316 -0.022179 -0.917155 0.397912
41.21799850 -49.16299820 274.81799316 -0.035020 -0.932572 0.359280
40.61800003 -49.29499817 274.51800537 -0.032107 -0.938820 0.342907
40.31800079 -49.24200058 274.51800537 -0.134079 -0.901856 0.410704
40.31800079 -49.09099960 274.81799316 -0.139709 -0.877144 0.459456
40.61800003 -49.14099884 274.81799316 -0.075744 -0.893777 0.442069
40.31800079 -49.44900131 273.91799927 -0.072443 -0.939118 0.335870
40.61800003 -49.45999908 273.91799927 -0.082657 -0.945960 0.313571
40.31800079 -49.35300064 274.21798706 -0.073906 -0.950405 0.302107
40.61800003 -49.37300110 274.21798706 -0.051935 -0.956359 0.287541
49.26699829 -39.64699936 273.91799927 0.892650 0.427044 -0.144252
49.37400055 -39.94699860 273.61801147 0.893929 0.399415 -0.203365
49.21699905 -39.64699936 273.61801147 0.883236 0.423186 -0.202009
49.14199829 -39.64699936 273.31799316 0.891128 0.384030 -0.241687
49.27899933 -39.94699860 273.31799316 0.881274 0.407086 -0.240076
47.59899902 -47.14699936 274.51800537 0.828470 -0.536944 0.159150
47.85599899 -46.84700012 274.51800537 0.814215 -0.546361 0.196325
47.59299850 -47.14699936 274.81799316 0.818718 -0.553269 0.153603
47.77000046 -46.84700012 274.81799316 0.839271 -0.507782 0.194373
47.25099945 -47.74700165 274.51800537 0.846609 -0.486157 0.216574
47.40900040 -47.44699860 274.51800537 0.833824 -0.508800 0.214151
47.19800186 -47.74700165 274.81799316 0.863346 -0.469435 0.185108
47.33900070 -47.44699860 274.81799316 0.827902 -0.529314 0.185486
47.50299835 -47.14699936 275.11801147 0.792405 -0.558887 0.244416
47.39699936 -47.14699936 275.41799927 0.824562 -0.525830 0.208808
46.01800156 -48.32099915 277.21798706 0.329113 -0.867940 0.371974
45.71799850 -48.22200012 277.51800537 0.065973 -0.914192 0.399875
46.01800156 -48.18700027 277.51800537 0.286659 -0.895622 0.340129
45.71799850 -48.11500168 277.81799316 0.058912 -0.936041 0.346924
46.01800156 -48.06900024 277.81799316 0.360230 -0.846774 0.391418
43.31800079 -36.39300156 270.01800537 0.036990 0.977255 0.208815
43.61800003 -36.40000153 269.71798706 -0.010458 0.979532 -0.201019
43.31800079 -36.35699844 269.71798706 0.117055 0.987280 -0.107596
43.61800003 -36.48400116 269.41799927 0.076673 0.949967 -0.302794
43.31800079 -36.44499969 269.41799927 0.091814 0.938095 -0.333988
43.61800003 -36.58599854 269.11801147 0.059772 0.925806 -0.373244
43.31800079 -36.57500076 269.11801147 0.059972 0.920902 -0.385153
43.01800156 -36.34400177 270.01800537 0.144710 0.975218 0.167360
42.71799850 -36.30599976 270.01800537 0.249941 0.959198 0.132168
43.01800156 -36.33200073 269.71798706 0.102583 0.983586 -0.148443
42.71799850 -36.28599930 269.71798706 0.136149 0.970858 -0.197225
43.01800156 -36.41799927 269.41799927 0.069367 0.941033 -0.331128
42.71799850 -36.40399933 269.41799927 0.061823 0.935239 -0.348577
43.01800156 -36.54899979 269.11801147 0.084785 0.927253 -0.364710
42.71799850 -36.51900101 269.11801147 0.077745 0.909747 -0.407818
49.28300095 -43.84700012 276.01800537 0.852681 -0.493814 0.170536
49.11600113 -44.14699936 276.01800537 0.849530 -0.485660 0.205992
49.19100189 -44.14699936 275.71798706 0.843937 -0.489392 0.219696
43.61800003 -49.10200119 275.41799927 0.075263 -0.901787 0.425578
43.31800079 -49.16600037 275.41799927 -0.009050 -0.916683 0.399513
43.61800003 -49.19400024 275.11801147 0.068582 -0.948500 0.309265
43.31800079 -49.24300003 275.11801147 -0.148186 -0.951860 0.268336
44.21799850 -49.09799957 275.41799927 -0.006509 -0.907291 0.420452
43.91799927 -49.08700180 275.41799927 -0.025006 -0.912055 0.409306
44.21799850 -49.22900009 275.11801147 -0.052037 -0.916653 0.396282
43.91799927 -49.20600128 275.11801147 -0.037869 -0.928440 0.369548
44.21799850 -49.36100006 274.81799316 -0.030570 -0.905147 0.423997
43.91799927 -49.34099960 274.81799316 -0.066598 -0.903824 0.422691
44.21799850 -49.51599884 274.51800537 -0.050916 -0.871069 0.488514
43.91799927 -49.48500061 274.51800537 -0.064617 -0.889513 0.452318
44.81800079 -49.40999985 274.81799316 -0.062755 -0.922634 0.380537
44.51800156 -49.37599945 274.81799316 -0.077122 -0.915987 0.393726
44.81800079 -49.52099991 274.51800537 -0.033754 -0.887065 0.460409
44.51800156 -49.50500107 274.51800537 -0.025937 -0.858646 0.511912
45.41799927 -49.45899963 274.81799316 -0.014285 -0.918108 0.396072
45.11800003 -49.41699982 274.81799316 -0.063309 -0.911923 0.405449
45.11800003 -49.54199982 274.51800537 -0.052265 -0.909947 0.411419
45.41799927 -49.55400085 274.51800537 0.017016 -0.909696 0.414926
46.31399918 -49.54700089 273.91799927 0.669254 -0.672495 0.315991
45.41799927 -49.71099854 274.21798706 0.055917 -0.893300 0.445968
45.11800003 -49.70399857 274.21798706 0.003996 -0.872386 0.488802
45.41799927 -49.86399841 273.91799927 0.081102 -0.900369 0.427503
45.11800003 -49.89099884 273.91799927 0.068364 -0.869201 0.489710
46.01800156 -49.58599854 274.21798706 0.470904 -0.788076 0.396466
45.71799850 -49.68299866 274.21798706 0.150791 -0.891819 0.426522
46.01800156 -49.75899887 273.91799927 0.346526 -0.853107 0.390036
45.71799850 -49.80699921 273.91799927 0.138527 -0.913721 0.382000
46.07799911 -49.84700012 273.61801147 0.516349 -0.812743 0.269874
46.55500031 -49.24700165 273.61801147 0.859777 -0.499271 0.107293
46.37300110 -49.54700089 273.61801147 0.813853 -0.573889 0.091071
47.72299957 -39.04700089 272.11801147 0.557921 0.128072 -0.819952
47.83399963 -39.34700012 272.11801147 0.627478 0.499627 -0.597197
47.92599869 -38.44699860 270.01800537 0.892288 0.402921 -0.203658
48.04199982 -38.74700165 270.01800537 0.902932 0.369050 -0.220263
47.86899948 -38.44699860 269.71798706 0.899782 0.385206 -0.204959
47.96699905 -38.74700165 269.71798706 0.916983 0.349395 -0.192524
47.60900116 -37.84700012 270.01800537 0.890184 0.424104 -0.166457
47.76200104 -38.14699936 270.01800537 0.876058 0.451923 -0.168191
47.56600189 -37.84700012 269.71798706 0.878171 0.451424 -0.158216
47.72499847 -38.14699936 269.71798706 0.893101 0.422897 -0.153390
49.47700119 -45.04700089 272.41799927 0.825479 -0.549830 0.127561
49.47999954 -45.04700089 272.11801147 0.814592 -0.577415 0.055059
49.36199951 -45.04700089 273.01800537 0.834271 -0.500563 0.231147
49.41299820 -45.04700089 272.71798706 0.843023 -0.509977 0.170984
49.95700073 -44.44699860 272.11801147 0.828521 -0.509977 0.231251
49.88899994 -44.44699860 272.41799927 0.861504 -0.458567 0.218007
49.70399857 -44.74700165 272.41799927 0.807941 -0.564205 0.170014
49.74100113 -44.74700165 272.11801147 0.782199 -0.605040 0.148633
49.70199966 -44.44699860 273.01800537 0.848420 -0.470668 0.242188
49.54299927 -44.74700165 273.01800537 0.839317 -0.490748 0.233908
49.78499985 -44.44699860 272.71798706 0.853089 -0.460759 0.244826
49.61600113 -44.74700165 272.71798706 0.817059 -0.536052 0.212283
46.91799927 -37.30699921 268.21798706 0.541751 0.773241 -0.329552
47.11500168 -37.54700089 268.21798706 0.805895 0.551078 -0.216440
38.06600189 -36.04700089 273.31799316 -0.806385 0.450485 -0.383153
36.74700165 -44.74700165 274.81799316 -0.547877 -0.836233 0.023343
36.71799850 -44.74700165 274.63598633 -0.429413 -0.894257 0.126131
37.01800156 -44.93799973 274.81799316 -0.584781 -0.805344 -0.097222
37.30899811 -45.94699860 275.11801147 -0.788893 0.575846 0.214591
40.91799927 -49.59899902 273.61801147 0.006166 -0.953247 0.302129
41.21799850 -49.57500076 273.61801147 0.076010 -0.970683 0.228029
39.11800003 -49.14899826 274.51800537 -0.063974 -0.902440 0.426039
39.41799927 -49.15999985 274.51800537 -0.025506 -0.887323 0.460442
39.11800003 -49.00000000 274.81799316 -0.046865 -0.909183 0.413752
39.41799927 -49.02600098 274.81799316 -0.068897 -0.914568 0.398520
38.51800156 -49.07500076 274.51800537 -0.290210 -0.873667 0.390491
38.81800079 -49.11199951 274.51800537 -0.121552 -0.906747 0.403775
38.81800079 -48.99100113 274.81799316 -0.125110 -0.903886 0.409068
38.51800156 -48.90499878 274.81799316 -0.355021 -0.854221 0.379826
38.21799850 -48.93500137 274.51800537 -0.592518 -0.732125 0.336031
37.97200012 -48.64699936 274.51800537 -0.818468 -0.522524 0.238912
38.08599854 -48.64699936 274.81799316 -0.681532 -0.665421 0.304514
38.21799850 -48.66699982 275.11801147 -0.573367 -0.772387 0.273257
38.21799850 -48.53900146 275.41799927 -0.522958 -0.780414 0.342738
38.51800156 -48.80599976 275.11801147 -0.278565 -0.903494 0.325730
38.81800079 -48.85699844 275.11801147 -0.127830 -0.927798 0.350501
38.51800156 -48.69200134 275.41799927 -0.282277 -0.880039 0.381904
38.81800079 -48.76300049 275.41799927 -0.086276 -0.910686 0.403989
37.96400070 -48.34700012 275.11801147 -0.824734 -0.527040 0.205044
38.04000092 -48.34700012 275.41799927 -0.773449 -0.578118 0.259917
43.01800156 -48.39199829 276.61801147 -0.270193 -0.924948 0.267334
43.01800156 -48.49100113 276.31799316 -0.438478 -0.857094 0.270420
48.02000046 -47.14699936 273.01800537 0.873436 -0.475774 0.103676
48.02899933 -47.14699936 272.71798706 0.867000 -0.498291 -0.004008
41.81800079 -49.06200027 275.11801147 0.036862 -0.872401 0.487398
41.51800156 -49.08200073 275.11801147 -0.046023 -0.927039 0.372130
41.81800079 -48.64699936 275.50399780 0.184257 -0.580182 0.793372
41.81800079 -48.76900101 275.41799927 0.081023 -0.527362 0.845769
41.81800079 -48.94699860 275.29000854 0.018145 -0.738364 0.674158
43.01800156 -48.59400177 276.01800537 -0.493836 -0.753059 0.434773
42.71799850 -48.38499832 276.01800537 -0.563983 -0.760011 0.322965
46.91799927 -35.48300171 272.41799927 0.514483 0.811601 -0.276789
47.17499924 -35.74700165 272.41799927 0.782107 0.572921 -0.245091
46.91799927 -35.61399841 272.11801147 0.515255 0.768819 -0.378721
46.91799927 -35.77399826 271.81799316 0.532913 0.757813 -0.376462
47.16799927 -36.04700089 271.81799316 0.760211 0.588807 -0.274565
47.35400009 -36.34700012 271.81799316 0.860874 0.461236 -0.214843
46.91799927 -35.93000031 271.51800537 0.615642 0.722289 -0.315093
47.28499985 -36.34700012 271.51800537 0.831860 0.499731 -0.241408
46.61800003 -35.80599976 271.51800537 0.242696 0.869786 -0.429617
46.31800079 -35.76399994 271.51800537 0.148934 0.877700 -0.455479
46.61800003 -35.66199875 271.81799316 0.237263 0.881902 -0.407376
46.31800079 -35.60400009 271.81799316 0.127876 0.903565 -0.408923
44.21799850 -36.11100006 270.61801147 -0.348622 0.905834 -0.240681
44.21799850 -36.23799896 270.31799316 -0.153620 0.952444 -0.263158
43.61800003 -36.04700089 271.23599243 -0.210242 0.366837 -0.906217
43.31800079 -36.04700089 271.24499512 0.025386 0.447604 -0.893872
43.61800003 -36.34700012 271.14599609 -0.214069 0.574445 -0.790055
43.86000061 -36.34700012 270.91799927 -0.488121 0.571991 -0.659215
43.61800003 -36.53499985 270.91799927 -0.065799 0.855388 -0.513793
43.31800079 -36.49100113 270.91799927 0.197499 0.794590 -0.574126
48.71799850 -39.94699860 272.46398926 0.583862 0.594016 -0.553399
49.01800156 -39.94699860 272.71499634 0.660331 0.522552 -0.539354
36.86899948 -37.84700012 273.91799927 -0.854839 0.434326 -0.283923
36.74800110 -37.84700012 274.21798706 -0.799472 0.343087 -0.493088
48.41799927 -39.92699814 272.11801147 0.648656 0.706315 -0.283487
48.16899872 -39.64699936 272.11801147 0.684334 0.648573 -0.333227
48.41799927 -39.64699936 272.39300537 0.609211 0.445642 -0.655945
49.21200180 -40.54700089 272.11801147 0.788033 0.595903 -0.154605
49.01800156 -40.30799866 272.11801147 0.657486 0.751616 -0.052770
48.71799850 -40.12900162 272.11801147 0.520531 0.845319 -0.120346
49.28699875 -40.54700089 272.41799927 0.769771 0.544786 -0.332657
49.01800156 -40.23199844 272.41799927 0.647895 0.657787 -0.384121
48.76499939 -39.94699860 271.51800537 0.663351 0.698348 0.268840
49.18500137 -40.54700089 271.51800537 0.911363 0.403077 -0.083348
49.00600052 -40.24700165 271.51800537 0.811391 0.578744 0.081857
49.15599823 -40.54700089 271.81799316 0.834513 0.550365 -0.026208
48.93000031 -40.24700165 271.81799316 0.762897 0.640367 0.088980
48.71799850 -40.03300095 271.81799316 0.464696 0.851688 0.242251
49.56399918 -41.14699936 272.11801147 0.882653 0.425854 -0.198928
49.42399979 -40.84700012 272.11801147 0.876347 0.454887 -0.158411
49.62599945 -41.14699936 272.41799927 0.884833 0.430026 -0.179299
49.48099899 -40.84700012 272.41799927 0.861649 0.460046 -0.214288
36.71099854 -38.14699936 273.91799927 -0.852837 0.475476 -0.215851
36.63800049 -38.14699936 274.21798706 -0.828359 0.384878 -0.407052
49.67900085 -41.14699936 272.71798706 0.891187 0.412776 -0.188156
49.54800034 -40.84700012 272.71798706 0.898582 0.384272 -0.211861
49.75099945 -41.14699936 273.01800537 0.896533 0.390497 -0.209142
49.62799835 -40.84700012 273.01800537 0.902781 0.376522 -0.207887
36.79800034 -38.14699936 273.31799316 -0.844701 0.510371 -0.161248
36.96099854 -37.84700012 273.31799316 -0.841707 0.515119 -0.161810
36.77199936 -38.14699936 273.61801147 -0.855790 0.502469 -0.123083
36.92900085 -37.84700012 273.61801147 -0.845101 0.510613 -0.158364
49.82799911 -41.44699860 272.71798706 0.894356 0.411780 -0.174826
49.88100052 -41.44699860 273.01800537 0.898297 0.397797 -0.186603
49.96699905 -41.74700165 272.71798706 0.892115 0.416320 -0.175522
50.01699829 -41.74700165 273.01800537 0.897442 0.407666 -0.168540
50.07600021 -41.74700165 273.31799316 0.894979 0.407600 -0.181317
49.95199966 -41.44699860 273.31799316 0.907496 0.379916 -0.179205
50.14300156 -41.74700165 273.61801147 0.894356 0.411780 -0.174826
50.00299835 -41.44699860 273.61801147 0.907477 0.390542 -0.154797
50.34799957 -42.34700012 273.31799316 0.930308 0.333142 -0.153439
50.22499847 -42.04700089 273.31799316 0.902561 0.399072 -0.161631
50.41299820 -42.34700012 273.61801147 0.953355 0.260006 -0.153337
50.26800156 -42.04700089 273.61801147 0.898778 0.398010 -0.183808
34.95000076 -40.84700012 274.21798706 -0.887804 0.419769 -0.188677
35.01399994 -40.84700012 273.91799927 -0.881057 0.441257 -0.170386
35.25799942 -40.24700165 274.21798706 -0.838906 0.503343 -0.207081
35.09899902 -40.54700089 274.21798706 -0.867892 0.442190 -0.226342
35.31700134 -40.24700165 273.91799927 -0.841068 0.499809 -0.206870
35.15200043 -40.54700089 273.91799927 -0.871673 0.451376 -0.190910
50.44499969 -42.34700012 273.91799927 0.982579 0.156292 -0.100560
50.34799957 -42.04700089 273.91799927 0.911524 0.380155 -0.156867
50.47900009 -42.34700012 274.21798706 0.997199 0.057014 -0.048408
50.38700104 -42.04700089 274.21798706 0.929605 0.340167 -0.141851
35.40299988 -40.24700165 273.61801147 -0.843001 0.483239 -0.236284
35.24399948 -40.54700089 273.61801147 -0.845994 0.469657 -0.252421
35.48899841 -40.24700165 273.31799316 -0.853526 0.477192 -0.209242
35.32899857 -40.54700089 273.31799316 -0.862179 0.464710 -0.201723
50.36399841 -42.94699860 273.91799927 0.903392 -0.404186 0.143238
50.44400024 -42.64699936 273.91799927 0.989041 -0.147635 0.001110
50.26399994 -42.94699860 274.21798706 0.863882 -0.447771 0.230670
50.42100143 -42.64699936 274.21798706 0.933571 -0.324061 0.153067
35.38499832 -40.54700089 273.01800537 -0.849530 0.485660 -0.205992
35.48400116 -40.54700089 272.71798706 -0.858302 0.473185 -0.198529
35.56000137 -40.24700165 273.01800537 -0.866651 0.459340 -0.194736
35.61299896 -40.24700165 272.71798706 -0.857034 0.469793 -0.211632
50.47499847 -42.34700012 274.51800537 0.987592 -0.145405 0.059325
50.42699814 -42.04700089 274.51800537 0.962250 0.238284 -0.131512
50.43399811 -42.34700012 274.81799316 0.942892 -0.297113 0.150591
50.46599960 -42.04700089 274.81799316 0.998739 0.050193 0.001024
35.71500015 -40.24700165 272.41799927 -0.826964 0.510907 -0.234741
35.53400040 -40.54700089 272.41799927 -0.851598 0.482122 -0.205765
35.78200150 -40.24700165 272.11801147 -0.842872 0.504525 -0.187139
35.61399841 -40.54700089 272.11801147 -0.849209 0.494004 -0.186557
36.74700165 -38.44699860 272.71798706 -0.815497 0.532914 -0.225759
50.19699860 -42.94699860 274.51800537 0.884977 -0.419665 0.201734
50.33399963 -42.64699936 274.51800537 0.880885 -0.429376 0.199195
50.11899948 -42.94699860 274.81799316 0.866193 -0.454714 0.207230
50.26900101 -42.64699936 274.81799316 0.877161 -0.450986 0.164924
35.85900116 -40.24700165 271.81799316 -0.837971 0.496066 -0.227427
