9.41800022 -39.31000137 381.31799316 -0.548058 -0.774951 0.314774
9.11800003 -39.08399963 381.31799316 -0.540406 -0.774529 0.328734
9.71800041 -39.47999954 381.31799316 -0.548510 -0.758853 0.351111
9.89599991 -39.64699936 381.31799316 -0.607304 -0.729732 0.314123
9.71800041 -39.62799835 381.01800537 -0.559209 -0.753716 0.345251
10.01799965 -39.86100006 381.01800537 -0.567715 -0.771266 0.287833
9.71800041 -39.75799942 380.71798706 -0.522217 -0.782522 0.339040
10.31799984 -39.97700119 381.31799316 -0.568024 -0.778869 0.265917
10.01799965 -39.97100067 380.71798706 -0.551802 -0.767374 0.326576
10.31799984 -40.06700134 381.01800537 -0.555196 -0.777910 0.294301
10.61800003 -40.28400040 381.01800537 -0.564031 -0.768552 0.301988
10.31799984 -40.19499969 380.71798706 -0.552006 -0.759211 0.344802
10.61800003 -40.39799881 380.71798706 -0.531639 -0.778987 0.332475
10.91800022 -40.52299881 381.01800537 -0.551968 -0.810466 0.196154
11.21800041 -40.72399902 381.01800537 -0.571408 -0.786270 0.235102
11.21800041 -40.83000183 380.71798706 -0.582692 -0.738509 0.339227
10.91800022 -40.57600021 380.71798706 -0.533643 -0.785332 0.313814
10.91800022 -40.74800110 380.41799927 -0.536561 -0.755099 0.376734
11.21800041 -40.97499847 380.41799927 -0.545366 -0.770592 0.329794
11.21800041 -41.08900070 380.11801147 -0.544786 -0.769771 0.332657
10.91800022 -40.91099930 380.11801147 -0.541751 -0.773241 0.329552
31.22500038 -35.14699936 367.81799316 -0.346678 -0.717770 -0.603838
31.01799965 -35.04299927 367.81799316 -0.245020 -0.791242 -0.560268
11.81799984 -41.42800140 380.41799927 -0.531157 -0.750157 0.393873
11.51799965 -41.18099976 380.41799927 -0.564123 -0.754858 0.334595
11.51799965 -41.33900070 380.11801147 -0.592705 -0.720063 0.360848
11.81799984 -41.57899857 380.11801147 -0.534626 -0.770443 0.347265
11.81799984 -41.67900085 379.81799316 -0.542837 -0.781622 0.307236
11.51799965 -41.48400116 379.81799316 -0.559768 -0.759801 0.330699
11.51799965 -41.60400009 379.51800537 -0.544191 -0.780379 0.308002
11.81799984 -41.81499863 379.51800537 -0.562167 -0.750096 0.348317
12.11800003 -41.90399933 379.81799316 -0.546897 -0.766301 0.337173
12.41800022 -42.11100006 379.81799316 -0.511248 -0.790110 0.338161
12.11800003 -42.04399872 379.51800537 -0.525290 -0.779100 0.342161
12.41800022 -42.21400070 379.51800537 -0.525290 -0.779100 0.342161
12.71800041 -42.31200027 379.81799316 -0.560672 -0.749188 0.352654
12.11800003 -42.17399979 379.21798706 -0.508301 -0.779394 0.366299
12.11800003 -42.31299973 378.91799927 -0.510327 -0.799672 0.316371
13.01799965 -42.55099869 379.81799316 -0.579146 -0.741372 0.339052
12.71800041 -42.45199966 379.51800537 -0.577088 -0.739648 0.346253
13.01799965 -42.68700027 379.51800537 -0.557619 -0.763312 0.326215
12.41800022 -42.36999893 379.21798706 -0.530389 -0.772208 0.349831
12.41800022 -42.48500061 378.91799927 -0.508246 -0.802743 0.311914
12.71800041 -42.58800125 379.21798706 -0.557909 -0.777258 0.290875
13.01799965 -42.80199814 379.21798706 -0.594998 -0.736895 0.320880
12.71800041 -42.67300034 378.91799927 -0.566752 -0.759415 0.319500
13.01799965 -42.94800186 378.91799927 -0.617243 -0.717687 0.322392
30.11800003 -34.49399948 367.51800537 -0.251788 -0.701523 -0.666684
13.31799984 -43.07500076 379.21798706 -0.582821 -0.726485 0.364059
13.61800003 -43.29100037 379.21798706 -0.522956 -0.769053 0.367526
13.31799984 -43.18700027 378.91799927 -0.578328 -0.763139 0.288368
13.61800003 -43.41299820 378.91799927 -0.524415 -0.806190 0.273948
13.61800003 -43.49599838 378.61801147 -0.535271 -0.776384 0.332736
13.31799984 -43.28699875 378.61801147 -0.551383 -0.775133 0.308455
13.31799984 -43.43600082 378.31799316 -0.555716 -0.753376 0.351575
13.61800003 -43.66699982 378.31799316 -0.549082 -0.747860 0.373115
13.91800022 -43.70899963 378.61801147 -0.551052 -0.740731 0.384265
14.21800041 -43.95999908 378.61801147 -0.569086 -0.729807 0.378844
14.21800041 -44.09999847 378.31799316 -0.550838 -0.774366 0.311343
13.91800022 -43.86999893 378.31799316 -0.550642 -0.752057 0.362222
13.91800022 -44.00400162 378.01800537 -0.524360 -0.784134 0.331934
13.91800022 -44.14400101 377.71798706 -0.526249 -0.757603 0.386133
14.21800041 -44.18099976 378.01800537 -0.518403 -0.792758 0.320612
14.21800041 -44.36800003 377.71798706 -0.509612 -0.752129 0.417849
14.51799965 -44.37599945 378.01800537 -0.539397 -0.779485 0.318517
14.81799984 -44.61899948 378.01800537 -0.579597 -0.747503 0.324510
14.51799965 -44.53799820 377.71798706 -0.512257 -0.757748 0.404241
14.51799965 -44.70000076 377.41799927 -0.507239 -0.776254 0.374352
14.81799984 -44.77299881 377.71798706 -0.535454 -0.765165 0.357508
14.81799984 -44.90100098 377.41799927 -0.519222 -0.774790 0.360706
14.81799984 -45.04000092 377.11801147 -0.528176 -0.770459 0.356963
14.51799965 -44.84799957 377.11801147 -0.513564 -0.780810 0.355792
15.11800003 -44.84199905 378.01800537 -0.533643 -0.785332 0.313814
15.41800022 -45.04800034 378.01800537 -0.545007 -0.778354 0.311661
15.11800003 -44.95899963 377.71798706 -0.530986 -0.773077 0.346997
15.41800022 -45.18500137 377.71798706 -0.541164 -0.755680 0.368902
9.41800022 -42.64699936 371.53100586 -0.713410 0.046991 -0.699170
9.51900005 -42.94699860 371.41799927 -0.784520 -0.208075 -0.584152
15.41800022 -45.32600021 377.41799927 -0.539707 -0.763369 0.354942
9.71800041 -42.64699936 371.22900391 -0.627218 0.205975 -0.751113
15.11800003 -45.11800003 377.41799927 -0.541812 -0.756584 0.366089
9.90400028 -42.64699936 371.11801147 -0.574007 0.224342 -0.787519
15.11800003 -45.25600052 377.11801147 -0.539707 -0.763369 0.354942
15.41800022 -45.46900177 377.11801147 -0.551288 -0.752939 0.359394
15.71800041 -45.53699875 377.41799927 -0.560575 -0.740351 0.370993
16.01799965 -45.78200150 377.41799927 -0.543804 -0.774800 0.322432
16.01799965 -45.88499832 377.11801147 -0.480357 -0.824587 0.298854
15.71800041 -45.70500183 377.11801147 -0.547045 -0.763282 0.343719
15.41800022 -45.60100174 376.81799316 -0.568462 -0.749852 0.338486
15.11800003 -45.39400101 376.81799316 -0.539630 -0.776619 0.325059
15.11800003 -45.50400162 376.51800537 -0.563511 -0.754039 0.337461
15.41800022 -45.75799942 376.51800537 -0.575702 -0.735528 0.357163
15.71800041 -45.83200073 376.81799316 -0.520171 -0.777840 0.352685
16.01799965 -46.00400162 376.81799316 -0.501178 -0.773663 0.387642
16.01799965 -46.17399979 376.51800537 -0.525756 -0.751782 0.398002
15.71800041 -45.97399902 376.51800537 -0.523632 -0.766804 0.371243
29.21800041 -33.94699860 367.17001343 -0.094158 -0.575088 -0.812655
16.61800003 -46.61700058 376.51800537 -0.546057 -0.773448 0.321870
16.34199905 -46.24700165 376.81799316 -0.596792 -0.708587 0.376488
16.61800003 -46.49100113 376.81799316 -0.552835 -0.753866 0.355047
16.31800079 -46.37799835 376.51800537 -0.551989 -0.750640 0.363108
16.31800079 -46.52000046 376.21798706 -0.524896 -0.789737 0.317490
16.61800003 -46.71200180 376.21798706 -0.552202 -0.773083 0.312114
16.31800079 -46.64599991 375.91799927 -0.537534 -0.758394 0.368641
16.61800003 -46.85499954 375.91799927 -0.538860 -0.757009 0.369551
16.91799927 -46.95199966 376.21798706 -0.564566 -0.760797 0.320082
16.91799927 -47.07099915 375.91799927 -0.565712 -0.738523 0.366816
33.11800003 -42.96699905 386.11801147 0.787294 -0.611055 -0.082341
32.73600006 -43.54700089 386.11801147 0.771419 -0.605786 -0.194772
32.92200089 -43.24700165 386.11801147 0.811880 -0.570232 -0.125245
17.21800041 -47.16999817 376.21798706 -0.562167 -0.750096 0.348317
17.21800041 -47.31600189 375.91799927 -0.567064 -0.733751 0.374229
16.91799927 -47.24900055 375.61801147 -0.563613 -0.745528 0.355709
17.21800041 -47.46400070 375.61801147 -0.547621 -0.769239 0.329215
16.91799927 -47.36000061 375.31799316 -0.571984 -0.761043 0.306019
17.21800041 -47.58800125 375.31799316 -0.551015 -0.769493 0.322898
25.61800003 -46.54700089 373.22100830 0.625431 -0.598459 -0.500682
25.69499969 -46.24700165 372.91799927 0.605402 -0.638943 -0.474595
25.61800003 -46.31100082 372.91799927 0.587773 -0.658105 -0.470553
17.51799965 -47.66199875 375.61801147 -0.523596 -0.786194 0.328248
27.17200089 -48.94699860 383.71798706 0.809391 -0.563120 -0.166683
27.35499954 -48.64699936 383.71798706 0.759705 -0.625190 -0.178844
27.20800018 -48.94699860 384.01800537 0.775564 -0.613551 -0.148512
27.41799927 -48.63499832 384.01800537 0.737525 -0.648221 -0.189385
17.51799965 -47.93700027 375.01800537 -0.549131 -0.759713 0.348269
17.81800079 -48.15599823 375.01800537 -0.546125 -0.751533 0.370061
17.81800079 -48.30500031 374.71798706 -0.561300 -0.769189 0.305437
17.51799965 -48.06200027 374.71798706 -0.559373 -0.767736 0.312544
17.81800079 -47.86999893 375.61801147 -0.567548 -0.757267 0.323165
17.81800079 -48.00999832 375.31799316 -0.534024 -0.769576 0.350101
17.51799965 -47.79700089 375.31799316 -0.544169 -0.763775 0.347170
17.12800026 -24.64699936 368.71798706 -0.769348 -0.632640 0.088715
18.41799927 -48.32099915 375.61801147 -0.560952 -0.773891 0.293983
18.11800003 -48.09299850 375.61801147 -0.563676 -0.778410 0.276312
18.11800003 -48.20199966 375.31799316 -0.548395 -0.761929 0.344567
17.09900093 -24.64699936 369.01800537 -0.857931 -0.507409 -0.080564
16.91799927 -24.34000015 369.01800537 -0.752966 -0.657262 0.032371
27.71800041 -45.77600098 377.11801147 0.726771 -0.624544 -0.285917
27.98200035 -45.64699936 377.41799927 0.765451 -0.603977 -0.222027
16.77199936 -24.94700050 369.01800537 -0.891228 -0.359776 -0.276176
29.51799965 -42.00500107 372.61801147 0.713280 -0.666457 -0.216950
10.01799965 -43.36600113 372.91799927 -0.529193 -0.797739 0.289081
9.71800041 -43.16600037 372.91799927 -0.566839 -0.773251 0.284213
29.94899940 -40.54700089 370.51800537 0.728713 -0.637031 -0.251335
10.01799965 -43.27099991 373.21798706 -0.577706 -0.796051 0.180438
31.91799927 -44.80099869 387.01800537 0.690358 -0.628045 -0.359117
9.71800041 -43.02299881 373.21798706 -0.577784 -0.767741 0.277020
32.03599930 -44.44699860 386.71798706 0.769145 -0.575669 -0.277527
9.41800022 -42.95600128 372.91799927 -0.598575 -0.769596 0.222328
20.21800041 -39.34700012 398.07998657 -0.311924 -0.848868 0.426762
20.21800041 -39.47999954 397.81799316 -0.386441 -0.787433 0.480221
19.91799927 -39.36899948 397.81799316 -0.354891 -0.842670 0.404919
20.21800041 -39.64699936 397.67599487 -0.538831 -0.666405 0.515331
19.91799927 -39.51100159 397.51800537 -0.487442 -0.767844 0.415712
20.21800041 -39.75400162 397.51800537 -0.554660 -0.737911 0.384499
20.81800079 -40.03499985 397.81799316 -0.545718 -0.663257 0.512135
20.51799965 -39.97800064 397.51800537 -0.559309 -0.750608 0.351797
20.51799965 -39.75199890 397.81799316 -0.551676 -0.669054 0.498017
20.81800079 -39.69100189 398.41799927 -0.372994 -0.823761 0.426959
20.81800079 -39.80099869 398.11801147 -0.509058 -0.727936 0.459313
21.41799927 -40.02799988 398.41799927 -0.487442 -0.767844 0.415712
21.41799927 -40.17900085 398.11801147 -0.427099 -0.784369 0.449835
21.11800003 -40.01599884 398.11801147 -0.474628 -0.732614 0.487858
21.11800003 -39.64699936 398.68200684 -0.349555 -0.774820 0.526749
21.11800003 -39.82699966 398.41799927 -0.440008 -0.780973 0.443255
21.29500008 -39.94699860 398.41799927 -0.493971 -0.735174 0.464233
8.21800041 -41.53799820 374.11801147 -0.682976 -0.704560 0.192713
8.21800041 -41.45000076 374.41799927 -0.635843 -0.749222 0.185390
7.91800022 -41.22200012 374.41799927 -0.685763 -0.727663 0.015363
6.77400017 -34.24700165 377.11801147 -0.707304 0.307734 -0.636413
27.25499916 -45.34700012 374.71798706 0.803819 -0.563737 -0.189938
27.41799927 -45.14099884 374.71798706 0.759300 -0.628439 -0.168902
27.36300087 -45.34700012 375.01800537 0.782107 -0.572921 -0.245091
27.60600090 -45.04700089 375.01800537 0.714758 -0.661582 -0.226783
26.51799965 -46.86999893 376.51800537 0.683214 -0.572964 -0.452692
26.76300049 -46.84700012 376.81799316 0.711573 -0.620803 -0.329042
5.21799994 -35.09600067 384.01800537 -0.472424 -0.856363 0.208467
4.91800022 -34.93000031 384.01800537 -0.490388 -0.859998 0.141150
26.51799965 -47.14899826 376.81799316 0.680673 -0.634748 -0.365759
5.21799994 -35.13899994 383.71798706 -0.509480 -0.806019 0.301271
4.91800022 -34.98199844 383.71798706 -0.459695 -0.850665 0.255047
26.51799965 -47.20500183 377.11801147 0.703271 -0.687949 -0.179265
26.21800041 -47.50699997 377.11801147 0.682668 -0.713077 -0.159644
26.03899956 -47.74700165 377.41799927 0.683424 -0.637534 -0.355643
26.29899979 -47.44699860 377.41799927 0.744881 -0.622564 -0.239930
26.22200012 -47.74700165 377.71798706 0.763262 -0.515893 -0.388954
26.40699959 -47.44699860 377.71798706 0.813897 -0.503393 -0.290117
26.35899925 -47.74700165 378.01800537 0.865163 -0.416560 -0.279233
26.51300049 -47.44699860 378.01800537 0.802743 -0.508246 -0.311914
25.91799927 -48.08700180 377.71798706 0.641556 -0.654819 -0.399522
25.91799927 -48.20800018 378.01800537 0.577401 -0.782837 -0.231894
26.21800041 -48.05300140 378.01800537 0.703346 -0.662066 -0.258793
25.91799927 -48.47800064 378.61801147 0.724417 -0.662896 -0.189179
25.59000015 -48.94699860 378.91799927 0.739005 -0.615043 -0.274942
25.75799942 -48.64699936 378.91799927 0.760474 -0.607443 -0.229548
25.70400047 -48.94699860 379.21798706 0.790055 -0.574445 -0.214069
4.91800022 -35.74700165 381.83200073 -0.640274 -0.698628 0.319326
9.11800003 -33.63100052 393.61801147 -0.470298 -0.787063 0.399188
9.41800022 -33.75899887 393.61801147 -0.429129 -0.841093 0.329259
34.91799927 -35.59000015 372.61801147 -0.239940 -0.966107 0.095214
9.41800022 -33.91299820 393.31799316 -0.482668 -0.789380 0.379355
9.11800003 -33.69599915 393.31799316 -0.429309 -0.854001 0.293899
34.61800003 -35.64500046 372.31799316 -0.089922 -0.995637 0.024918
9.41800022 -33.61500168 393.91799927 -0.535430 -0.736423 0.413517
6.41800022 -36.47900009 382.81799316 -0.507619 -0.781572 0.362585
6.41800022 -36.59000015 382.51800537 -0.492577 -0.775444 0.395037
6.11800003 -36.44900131 382.51800537 -0.511885 -0.779939 0.360096
7.01800013 -37.04399872 382.51800537 -0.523887 -0.758902 0.386795
7.01800013 -36.88499832 382.81799316 -0.539640 -0.731072 0.417520
6.71799994 -36.66400146 382.81799316 -0.510255 -0.775911 0.370947
6.71799994 -36.82400131 382.51800537 -0.528685 -0.739501 0.416690
7.01800013 -37.19499969 382.21798706 -0.528187 -0.778634 0.338746
6.71799994 -36.98699951 382.21798706 -0.499582 -0.788730 0.358221
6.71799994 -37.09400177 381.91799927 -0.518534 -0.809916 0.274150
7.01800013 -37.29700089 381.91799927 -0.545817 -0.776308 0.315325
7.31799984 -37.39699936 382.21798706 -0.551990 -0.764418 0.333125
7.31799984 -37.50699997 381.91799927 -0.531820 -0.776039 0.339015
7.61800003 -37.61600113 382.21798706 -0.557043 -0.779225 0.287250
7.61800003 -37.68999863 381.91799927 -0.541175 -0.772419 0.332413
7.93300009 -37.84700012 382.21798706 -0.591465 -0.748548 0.299740
8.21800041 -38.10400009 382.21798706 -0.538274 -0.793993 0.282554
8.21800041 -38.13000107 381.91799927 -0.551837 -0.797443 0.244052
7.91800022 -37.93600082 381.91799927 -0.569844 -0.775051 0.273083
7.31799984 -37.68399811 381.61801147 -0.492223 -0.793649 0.357543
7.61800003 -37.86600113 381.61801147 -0.528001 -0.781571 0.332208
7.31799984 -37.75299835 381.31799316 -0.475096 -0.837222 0.270820
7.61800003 -37.97100067 381.31799316 -0.562382 -0.764263 0.315639
13.31799984 -41.93000031 381.61801147 -0.589963 -0.760784 0.270466
7.91800022 -38.06299973 381.61801147 -0.539071 -0.770791 0.339534
13.61800003 -42.19499969 381.61801147 -0.597421 -0.755888 0.267809
13.31799984 -42.03200150 381.31799316 -0.565021 -0.740878 0.363112
13.61800003 -42.29999924 381.31799316 -0.588804 -0.749242 0.303226
8.21800041 -38.28400040 381.61801147 -0.550405 -0.743128 0.380547
8.21800041 -38.43999863 381.31799316 -0.580640 -0.736778 0.346432
7.91800022 -38.20700073 381.31799316 -0.571270 -0.749286 0.334994
8.81799984 -38.89400101 381.31799316 -0.533891 -0.772610 0.343561
8.81799984 -38.72800064 381.61801147 -0.542496 -0.711715 0.446273
8.51799965 -38.50400162 381.61801147 -0.525922 -0.733653 0.430300
8.51799965 -38.68399811 381.31799316 -0.564262 -0.746387 0.352867
8.81799984 -39.00899887 381.01800537 -0.544589 -0.772706 0.326111
8.51799965 -38.78799820 381.01800537 -0.571596 -0.765843 0.294555
14.21800041 -42.60699844 381.61801147 -0.515533 -0.793251 0.324004
8.51799965 -38.91600037 380.71798706 -0.573539 -0.733673 0.364385
8.81799984 -39.15000153 380.71798706 -0.520760 -0.778721 0.349860
13.91800022 -42.41500092 381.61801147 -0.541863 -0.791467 0.282780
13.91800022 -42.52799988 381.31799316 -0.548034 -0.783133 0.293873
14.21800041 -42.72600174 381.31799316 -0.553013 -0.771013 0.315779
9.11800003 -39.20500183 381.01800537 -0.535232 -0.781279 0.321139
9.11800003 -39.32500076 380.71798706 -0.541812 -0.756584 0.366089
9.41800022 -39.42699814 381.01800537 -0.540410 -0.769480 0.340378
9.41800022 -39.57600021 380.71798706 -0.535894 -0.757418 0.373008
13.91800022 -42.16999817 382.21798706 -0.520851 -0.759234 0.390230
13.91800022 -42.31499863 381.91799927 -0.535232 -0.781279 0.321139
9.11800003 -39.50699997 380.41799927 -0.552018 -0.747423 0.369641
9.41800022 -39.71599960 380.41799927 -0.500959 -0.807539 0.311321
9.11800003 -39.63299942 380.11801147 -0.526679 -0.807991 0.264121
9.41800022 -39.79000092 380.11801147 -0.514056 -0.814052 0.270309
14.21800041 -42.35599899 382.21798706 -0.491343 -0.779986 0.387561
14.21800041 -42.49200058 381.91799927 -0.484996 -0.813592 0.320698
9.71800041 -39.89599991 380.41799927 -0.536570 -0.780029 0.321942
10.01799965 -40.11500168 380.41799927 -0.562167 -0.750096 0.348317
9.71800041 -40.02099991 380.11801147 -0.574964 -0.757543 0.309103
10.01799965 -40.24900055 380.11801147 -0.573861 -0.753896 0.319883
15.71800041 -42.88299942 383.41799927 -0.552116 -0.756124 0.351347
10.31799984 -40.34799957 380.41799927 -0.560027 -0.748326 0.355496
10.31799984 -40.46699905 380.11801147 -0.555399 -0.764679 0.326800
10.61800003 -40.57699966 380.41799927 -0.508211 -0.782483 0.359781
10.61800003 -40.66500092 380.11801147 -0.528001 -0.781571 0.332208
16.31800079 -43.04299927 384.01800537 -0.579984 -0.735945 0.349290
16.61800003 -43.26800156 384.01800537 -0.516247 -0.775179 0.364124
16.31800079 -43.21300125 383.71798706 -0.552835 -0.753866 0.355047
16.61800003 -43.38100052 383.71798706 -0.493861 -0.828262 0.264734
10.61800003 -40.80199814 379.81799316 -0.518641 -0.789930 0.327143
10.31799984 -40.62699890 379.81799316 -0.516930 -0.772964 0.367846
10.31799984 -40.74399948 379.51800537 -0.494339 -0.805885 0.325851
10.61800003 -40.92699814 379.51800537 -0.546125 -0.751533 0.370061
16.91799927 -43.47900009 384.01800537 -0.535218 -0.759717 0.369284
10.91800022 -41.01499939 379.81799316 -0.547650 -0.764126 0.340868
17.21800041 -43.68199921 384.01800537 -0.545441 -0.753849 0.366341
16.91799927 -43.59299850 383.71798706 -0.593544 -0.747129 0.299172
17.21800041 -43.86500168 383.71798706 -0.555611 -0.756473 0.345029
11.21800041 -41.23199844 379.81799316 -0.569086 -0.729807 0.378844
11.21800041 -41.40200043 379.51800537 -0.558811 -0.766964 0.315432
10.91800022 -41.17900085 379.51800537 -0.554940 -0.746972 0.366163
10.91800022 -41.28200150 379.21798706 -0.539501 -0.789475 0.292691
11.21800041 -41.49399948 379.21798706 -0.555516 -0.775176 0.300838
10.91800022 -41.42200089 378.91799927 -0.546897 -0.766301 0.337173
11.21800041 -41.62200165 378.91799927 -0.552451 -0.770229 0.318660
11.51799965 -41.72600174 379.21798706 -0.580384 -0.745285 0.328184
11.81799984 -41.96699905 379.21798706 -0.570760 -0.739875 0.356115
11.51799965 -41.86100006 378.91799927 -0.597877 -0.742137 0.302946
11.81799984 -42.11399841 378.91799927 -0.573636 -0.756813 0.313330
12.41800022 -42.61999893 378.61801147 -0.519020 -0.754790 0.401136
12.11800003 -42.42100143 378.61801147 -0.517100 -0.781288 0.349566
12.11800003 -42.57500076 378.31799316 -0.551087 -0.744049 0.377748
12.41800022 -42.81499863 378.31799316 -0.542144 -0.733295 0.410316
12.71800041 -42.82799911 378.61801147 -0.555309 -0.723384 0.410302
13.01799965 -43.07799911 378.61801147 -0.562167 -0.750096 0.348317
13.01799965 -43.22000122 378.31799316 -0.528929 -0.776512 0.342437
12.71800041 -43.02199936 378.31799316 -0.521950 -0.762600 0.382113
12.71800041 -43.14400101 378.01800537 -0.513975 -0.797218 0.316659
13.01799965 -43.33900070 378.01800537 -0.544786 -0.769771 0.332657
13.01799965 -43.48500061 377.71798706 -0.535353 -0.768255 0.350971
12.71800041 -43.26599884 377.71798706 -0.532430 -0.768706 0.354414
17.81800079 -31.24699974 366.25399780 -0.598207 0.106770 -0.794197
17.81800079 -31.54700089 366.22100830 -0.553915 0.169627 -0.815110
17.81800079 -31.84700012 366.15600586 -0.570091 0.173900 -0.802966
17.51799965 -31.24699974 366.51800537 -0.667485 0.220411 -0.711254
17.51799965 -31.54700089 366.42300415 -0.621871 0.178769 -0.762442
17.51799965 -31.84700012 366.37899780 -0.595680 0.135179 -0.791765
13.61800003 -44.08700180 377.41799927 -0.545617 -0.759330 0.354570
13.31799984 -43.86899948 377.41799927 -0.564840 -0.735111 0.374923
13.31799984 -43.98500061 377.11801147 -0.545818 -0.786295 0.289521
13.61800003 -43.80199814 378.01800537 -0.565550 -0.755678 0.330307
13.31799984 -43.56299973 378.01800537 -0.568932 -0.755890 0.323953
13.31799984 -43.68299866 377.71798706 -0.568562 -0.741248 0.356776
13.61800003 -43.93199921 377.71798706 -0.555623 -0.744633 0.369872
17.24300003 -31.84700012 366.61801147 -0.674606 0.149409 -0.722900
13.91800022 -44.29100037 377.41799927 -0.546241 -0.760200 0.351734
14.21800041 -44.52799988 377.41799927 -0.519299 -0.771668 0.367230
13.91800022 -44.41699982 377.11801147 -0.564164 -0.773938 0.287644
14.21800041 -44.64699936 377.11801147 -0.551015 -0.769493 0.322898
16.68499947 -31.84700012 367.21798706 -0.695271 0.111184 -0.710096
16.37100029 -31.84700012 367.51800537 -0.723183 0.230603 -0.651021
14.51799965 -44.97900009 376.81799316 -0.521646 -0.781667 0.341879
14.81799984 -45.18299866 376.81799316 -0.532563 -0.773905 0.342706
14.81799984 -45.30400085 376.51800537 -0.532838 -0.787328 0.310159
14.51799965 -45.10699844 376.51800537 -0.507702 -0.797363 0.326266
16.12000084 -31.84700012 367.81799316 -0.753083 0.222963 -0.618994
15.42500019 -32.44699860 368.41799927 -0.716388 0.156000 -0.680038
15.11800003 -32.74700165 368.66699219 -0.686841 0.175917 -0.705197
15.11800003 -32.44699860 368.74099731 -0.685067 0.152741 -0.712288
14.80500031 -32.44699860 369.01800537 -0.695389 0.192735 -0.692306
14.81799984 -32.74700165 368.94198608 -0.702947 0.156379 -0.693838
15.71800041 -46.11199951 376.21798706 -0.554988 -0.755625 0.347879
16.01799965 -46.33700180 376.21798706 -0.522958 -0.780414 0.342738
15.71800041 -46.24399948 375.91799927 -0.553824 -0.779162 0.293574
16.01799965 -46.43199921 375.91799927 -0.534175 -0.786114 0.310938
14.66899967 -33.04700089 369.01800537 -0.712222 0.203270 -0.671878
14.51799965 -33.34700012 369.09298706 -0.699659 0.244802 -0.671230
16.31800079 -46.81600189 375.61801147 -0.547045 -0.763282 0.343719
16.61800003 -47.01300049 375.61801147 -0.550578 -0.755217 0.355683
16.61800003 -47.13899994 375.31799316 -0.567041 -0.765106 0.305084
16.31800079 -46.91600037 375.31799316 -0.538598 -0.781526 0.314848
14.03100014 -33.34700012 369.61801147 -0.726084 0.199712 -0.657965
14.21800041 -33.04700089 369.47601318 -0.712545 0.189294 -0.675609
14.38199997 -33.04700089 369.31799316 -0.695507 0.213164 -0.686171
14.30000019 -33.34700012 369.31799316 -0.707216 0.217005 -0.672870
13.95300007 -33.64699936 369.61801147 -0.758664 0.175546 -0.627386
14.17199993 -33.64699936 369.31799316 -0.739793 0.253959 -0.623066
13.91800022 -33.94699860 369.57501221 -0.743518 0.257311 -0.617230
14.10700035 -33.94699860 369.31799316 -0.787195 0.218064 -0.576864
17.21800041 -47.70800018 375.01800537 -0.550578 -0.755217 0.355683
16.91799927 -47.49200058 375.01800537 -0.575702 -0.741115 0.345421
16.91799927 -47.65200043 374.71798706 -0.577821 -0.737332 0.349948
17.21800041 -47.86299896 374.71798706 -0.534504 -0.778481 0.329049
36.29399872 -36.34700012 378.61801147 0.680911 -0.699609 -0.216583
36.51200104 -36.04700089 378.31799316 0.721755 -0.659668 -0.209542
13.31999969 -33.64699936 370.21798706 -0.678229 0.203313 -0.706165
37.01800156 -35.42900085 378.01800537 0.678566 -0.684922 -0.265387
13.61800003 -33.64699936 369.95999146 -0.657467 0.159432 -0.736423
37.01800156 -35.27099991 377.71798706 0.618459 -0.736110 -0.275047
13.31799984 -33.94699860 370.13299561 -0.638374 0.179112 -0.748597
13.60799980 -33.94699860 369.91799927 -0.680330 0.210171 -0.702125
36.71799850 -35.52799988 377.71798706 0.708452 -0.651139 -0.272237
37.23199844 -35.14699936 378.01800537 0.741946 -0.667031 -0.067712
12.76500034 -33.64699936 370.81799316 -0.739590 0.196092 -0.643860
12.71899986 -33.94699860 370.81799316 -0.760970 0.165560 -0.627307
13.04300022 -33.64699936 370.51800537 -0.714022 0.241160 -0.657278
12.93500042 -33.94699860 370.51800537 -0.743217 0.162626 -0.648985
12.89299965 -34.24700165 370.51800537 -0.753311 0.159150 -0.638117
12.83199978 -34.54700089 370.51800537 -0.715310 0.251069 -0.652148
12.62899971 -34.24700165 370.81799316 -0.724237 0.213377 -0.655707
12.41800022 -34.54700089 370.94000244 -0.683535 0.272458 -0.677161
12.11800003 -34.24700165 371.35299683 -0.715229 0.203243 -0.668685
12.36299992 -34.24700165 371.11801147 -0.695314 0.251834 -0.673140
12.21800041 -34.54700089 371.11801147 -0.689852 0.272436 -0.670733
11.97099972 -34.54700089 371.41799927 -0.738360 0.254552 -0.624523
11.82199955 -34.24700165 371.71798706 -0.724974 0.143186 -0.673729
11.51799965 -34.24700165 371.99200439 -0.726240 0.107975 -0.678909
11.69799995 -34.54700089 371.71798706 -0.707135 0.287023 -0.646203
11.56999969 -34.84700012 371.71798706 -0.720041 0.241064 -0.650715
11.43700027 -34.54700089 372.01800537 -0.714276 0.220378 -0.664261
11.34200001 -34.84700012 372.01800537 -0.765451 0.222027 -0.603977
11.20300007 -35.14699936 372.01800537 -0.725193 0.227112 -0.650011
11.51099968 -35.14699936 371.71798706 -0.686910 0.162970 -0.708234
10.91800022 -34.84700012 372.45599365 -0.579901 0.310030 -0.753390
11.12199974 -34.84700012 372.31799316 -0.681407 0.258903 -0.684583
10.73400021 -34.84700012 372.61801147 -0.718076 0.193031 -0.668660
10.70699978 -35.14699936 372.61801147 -0.774823 0.116592 -0.621334
10.89000034 -35.14699936 372.31799316 -0.714775 0.206215 -0.668260
10.31799984 -35.44699860 372.93701172 -0.682503 0.082948 -0.726160
10.43700027 -34.84700012 372.91799927 -0.699022 0.220497 -0.680257
10.39299965 -35.14699936 372.91799927 -0.699300 0.133271 -0.702295
10.01799965 -34.84700012 373.35400391 -0.692695 0.230898 -0.683271
10.01799965 -35.14699936 373.29901123 -0.703337 0.166299 -0.691131
9.71800041 -35.44699860 373.50500488 -0.711137 0.149475 -0.686980
9.71800041 -35.74700165 373.49499512 -0.698788 0.055960 -0.713137
9.99100018 -35.74700165 373.21798706 -0.696378 0.044147 -0.716316
10.01799965 -35.44699860 373.21200562 -0.684142 0.133235 -0.717076
10.31700039 -35.74700165 372.91799927 -0.637467 0.052766 -0.768669
9.42800045 -35.44699860 373.81799316 -0.707716 0.202868 -0.676744
9.41800022 -35.74700165 373.75000000 -0.653246 0.117021 -0.748048
9.18799973 -35.44699860 374.11801147 -0.699823 0.269408 -0.661564
8.81799984 -35.44699860 374.46600342 -0.702918 0.269372 -0.658289
8.74600029 -35.74700165 374.41799927 -0.712128 0.234232 -0.661823
9.05000019 -35.74700165 374.11801147 -0.676427 0.233846 -0.698400
8.68599987 -36.04700089 374.41799927 -0.728395 0.243847 -0.640296
8.54300022 -36.34700012 374.41799927 -0.764298 0.198379 -0.613591
8.94900036 -36.04700089 374.11801147 -0.694645 0.237849 -0.678893
7.91800022 -36.04700089 375.23800659 -0.672936 0.206698 -0.710235
8.17700005 -36.04700089 375.01800537 -0.691807 0.217068 -0.688683
8.07199955 -36.34700012 375.01800537 -0.690550 0.234378 -0.684258
8.42199993 -36.04700089 374.71798706 -0.765902 0.208882 -0.608080
8.35499954 -36.34700012 374.71798706 -0.751200 0.226453 -0.620014
7.44799995 -36.34700012 375.61801147 -0.711227 0.162958 -0.683814
7.61800003 -36.04700089 375.53799438 -0.689291 0.202915 -0.695487
7.61800003 -36.34700012 375.45999146 -0.670158 0.159561 -0.724865
7.78599977 -36.34700012 375.31799316 -0.688657 0.196538 -0.697943
7.41599989 -36.64699936 375.61801147 -0.719757 0.067793 -0.690909
7.40299988 -36.94699860 375.61801147 -0.717549 0.172885 -0.674710
7.69099998 -36.64699936 375.31799316 -0.723688 0.123848 -0.678924
7.61800003 -36.94699860 375.39199829 -0.728948 0.130223 -0.672069
20.21800041 -42.30899811 391.81799316 -0.480147 -0.794893 0.370950
19.91799927 -42.17399979 391.81799316 -0.510920 -0.773679 0.374675
19.91799927 -42.30699921 391.51800537 -0.527437 -0.780734 0.335059
9.73900032 -34.24700165 373.81799316 -0.737391 0.222932 -0.637617
10.01799965 -34.24700165 373.57998657 -0.686630 0.123623 -0.716419
9.99899960 -34.54700089 373.51800537 -0.683103 0.258343 -0.683103
9.11800003 -34.24700165 374.58999634 -0.727349 0.189141 -0.659689
9.29100037 -34.24700165 374.41799927 -0.729550 0.156224 -0.665847
9.16699982 -34.54700089 374.41799927 -0.731255 0.300538 -0.612326
9.53299999 -34.24700165 374.11801147 -0.755722 0.202453 -0.622814
9.41800022 -34.54700089 374.11898804 -0.736609 0.247639 -0.629351
9.68400002 -34.54700089 373.81799316 -0.707401 0.244203 -0.663287
6.71799994 -36.64699936 376.29901123 -0.704281 0.089316 -0.704281
6.71799994 -36.94699860 376.33099365 -0.709924 0.092217 -0.698214
7.01800013 -36.64699936 376.03399658 -0.714785 0.082979 -0.694404
7.12300014 -36.94699860 375.91799927 -0.710095 0.159657 -0.685766
6.71799994 -37.24700165 376.18899536 -0.710370 0.262217 -0.653159
6.71799994 -37.54700089 376.07400513 -0.740898 0.264946 -0.617150
6.88899994 -37.54700089 375.91799927 -0.693833 0.251297 -0.674867
22.61800003 -43.69400024 392.71798706 -0.526929 -0.791190 0.310427
6.27099991 -36.64699936 376.81799316 -0.760893 0.129545 -0.635815
6.11800003 -36.94699860 376.99899292 -0.704363 0.182613 -0.685948
6.27299976 -36.94699860 376.81799316 -0.752866 0.064778 -0.654979
6.51700020 -36.64699936 376.51800537 -0.745926 0.073868 -0.661919
6.54699993 -36.94699860 376.51800537 -0.742234 0.098475 -0.662866
24.41799927 -44.11100006 394.81799316 -0.588930 -0.782678 0.201436
24.41799927 -44.14699936 394.60101318 -0.545446 -0.826299 0.140426
24.11800003 -43.96200180 394.51800537 -0.570623 -0.778122 0.262518
6.11800003 -37.24700165 376.87500000 -0.694117 0.179275 -0.697182
6.11800003 -37.54700089 376.82400513 -0.729436 0.123810 -0.672752
6.46999979 -37.24700165 376.51800537 -0.755819 0.188572 -0.627039
6.40600014 -37.54700089 376.51800537 -0.754375 0.232716 -0.613809
5.81799984 -37.54700089 377.10400391 -0.616226 0.064339 -0.784937
7.88500023 -27.94700050 378.01800537 -0.710139 0.279268 -0.646306
5.59700012 -37.24700165 377.41799927 -0.728312 0.300650 -0.615769
5.83400011 -37.24700165 377.11801147 -0.660178 0.251723 -0.707673
5.51800013 -37.54700089 377.29598999 -0.623917 0.064543 -0.778821
5.51800013 -37.84700012 377.35501099 -0.823227 -0.043328 -0.566056
5.79600000 -37.84700012 377.11801147 -0.680816 0.149447 -0.717046
5.66400003 -38.14699936 377.11801147 -0.812174 -0.049265 -0.581331
5.51800013 -37.96900177 378.01800537 -0.564497 -0.781490 0.265738
5.62799978 -38.14699936 377.71798706 -0.641746 -0.720974 0.261452
5.49499989 -38.14699936 377.41799927 -0.850866 -0.519580 -0.077866
25.31800079 -46.77000046 390.01800537 -0.558502 -0.747384 0.359851
25.61800003 -47.01699829 390.01800537 -0.584915 -0.731551 0.350297
25.61800003 -47.14099884 389.71798706 -0.525756 -0.751782 0.398002
25.31800079 -46.94200134 389.71798706 -0.562676 -0.721084 0.404269
8.02600002 -28.24699974 377.71798706 -0.743465 0.199391 -0.638360
7.91800022 -28.54700089 377.79800415 -0.723386 0.247433 -0.644585
24.41799927 -45.76399994 390.91799927 -0.562167 -0.750096 0.348317
24.11800003 -45.56999969 390.91799927 -0.566383 -0.748145 0.345672
24.11800003 -45.39300156 391.21798706 -0.588591 -0.743398 0.317678
24.41799927 -45.64500046 391.21798706 -0.560539 -0.757616 0.334385
16.91799927 -37.52799988 397.21798706 -0.538274 -0.793993 0.282554
25.61800003 -46.73899841 390.61801147 -0.546316 -0.787012 0.286618
25.31800079 -46.56499863 390.61801147 -0.498744 -0.825025 0.265686
25.31800079 -46.64400101 390.31799316 -0.529193 -0.797739 0.289081
25.61800003 -46.86399841 390.31799316 -0.578507 -0.740554 0.341919
26.21800041 -47.23699951 390.61801147 -0.472933 -0.810515 0.345544
26.21800041 -47.31499863 390.31799316 -0.492908 -0.791542 0.361252
25.91799927 -46.96400070 390.61801147 -0.593980 -0.742072 0.310672
25.91799927 -47.10699844 390.31799316 -0.582790 -0.735387 0.345778
7.61800003 -28.24699974 378.17098999 -0.666150 0.254751 -0.700961
7.61800003 -28.54700089 378.08801270 -0.682102 0.176274 -0.709693
26.81800079 -47.21599960 391.21798706 -0.445345 -0.774867 0.448607
26.81800079 -47.40499878 390.91799927 -0.508211 -0.782483 0.359781
26.51799965 -47.20000076 390.91799927 -0.411435 -0.811663 0.414637
26.81800079 -47.14699936 391.32901001 -0.392805 -0.819006 0.418250
26.51799965 -47.06000137 391.21798706 -0.404123 -0.838122 0.366383
25.31800079 -45.94100189 391.81799316 -0.552006 -0.759211 0.344802
25.61800003 -46.09899902 392.11801147 -0.514162 -0.789664 0.334766
25.61800003 -45.98300171 392.41799927 -0.501868 -0.813373 0.294199
24.71800041 -45.71900177 391.51800537 -0.501858 -0.790467 0.351141
25.01799965 -45.90499878 391.51800537 -0.512158 -0.754329 0.410708
25.01799965 -45.76100159 391.81799316 -0.475973 -0.817536 0.324168
24.71800041 -45.59899902 391.81799316 -0.546241 -0.760200 0.351734
7.44199991 -28.24699974 378.31799316 -0.727321 0.275331 -0.628647
7.33599997 -28.54700089 378.31799316 -0.719404 0.169541 -0.673582
24.41799927 -44.95899963 392.71798706 -0.476626 -0.808191 0.345912
24.41799927 -44.82400131 393.01800537 -0.489413 -0.809352 0.324691
22.91799927 -43.91899872 392.71798706 -0.523979 -0.796258 0.302356
23.21800041 -44.08599854 392.71798706 -0.529544 -0.782318 0.327966
23.21800041 -43.93500137 393.01800537 -0.528878 -0.768247 0.360672
22.91799927 -43.73300171 393.01800537 -0.517106 -0.750214 0.412043
38.12200165 -35.14699936 380.71798706 0.853369 -0.448899 -0.265050
38.23300171 -34.84700012 380.71798706 0.941765 -0.094309 -0.322777
38.18999863 -35.14699936 381.01800537 0.849913 -0.490161 -0.193366
38.21799850 -34.95000076 381.01800537 0.956945 -0.252106 -0.143872
38.25699997 -35.14699936 381.31799316 0.795130 -0.567510 -0.213778
38.32799911 -35.14699936 381.61801147 0.808647 -0.523978 -0.267464
22.61800003 -43.09199905 393.91799927 -0.548963 -0.802568 0.233503
22.61800003 -43.02399826 394.21798706 -0.560672 -0.749188 0.352654
36.78799820 -37.24700165 382.51800537 0.740535 -0.592106 -0.317833
37.01800156 -36.99100113 382.51800537 0.650248 -0.673178 -0.352149
36.99800110 -37.24700165 382.81799316 0.670806 -0.664309 -0.329718
7.22599983 -28.24699974 378.61801147 -0.791478 0.224588 -0.568439
7.01800013 -28.54700089 378.78298950 -0.605263 0.271654 -0.748239
36.71799850 -37.89099884 383.71798706 0.718366 -0.614584 -0.325940
7.15799999 -28.54700089 378.61801147 -0.810194 0.186269 -0.555778
20.81800079 -41.54600143 394.51800537 -0.523575 -0.790933 0.316692
36.75099945 -37.84700012 383.71798706 0.773949 -0.586325 -0.239221
20.51799965 -41.32500076 394.51800537 -0.536570 -0.780029 0.321942
20.51799965 -41.18099976 394.81799316 -0.548198 -0.770050 0.326347
20.81800079 -41.43399811 394.81799316 -0.538274 -0.793993 0.282554
19.31800079 -40.25600052 395.11801147 -0.477127 -0.787664 0.389789
19.80100060 -40.54700089 395.11801147 -0.614183 -0.711931 0.340489
19.61800003 -40.37099838 395.11801147 -0.545818 -0.786295 0.289521
19.61800003 -40.30300140 395.41799927 -0.542454 -0.776077 0.321632
19.31800079 -40.07899857 395.41799927 -0.551989 -0.750640 0.363108
19.01799965 -39.72299957 395.71798706 -0.534271 -0.741404 0.406046
18.71800041 -39.52399826 395.71798706 -0.514067 -0.758861 0.399830
18.71800041 -39.39300156 396.01800537 -0.496573 -0.799945 0.336903
19.01799965 -39.53900146 396.01800537 -0.530194 -0.766917 0.361570
3.63499999 -35.14699936 380.41799927 -0.793529 -0.073183 -0.604115
3.56999993 -34.84700012 380.41799927 -0.746399 0.035274 -0.664563
3.71499991 -35.14699936 381.01800537 -0.821180 -0.514977 0.245890
3.54200006 -34.84700012 381.01800537 -0.828330 -0.521316 0.205183
3.41799998 -34.66600037 381.01800537 -0.782789 -0.601798 0.158368
3.71799994 -35.14699936 381.02600098 -0.786295 -0.545818 0.289521
36.11100006 -38.44699860 383.41799927 0.748426 -0.584255 -0.313856
35.80400085 -38.74700165 383.41799927 0.734031 -0.643640 -0.216625
36.04800034 -38.44699860 383.11801147 0.721553 -0.649240 -0.240518
35.81800079 -38.67900085 383.11801147 0.728713 -0.637031 -0.251335
36.45600128 -37.84700012 382.81799316 0.743136 -0.630964 -0.222785
36.20999908 -38.14699936 382.81799316 0.770552 -0.611864 -0.178524
36.41799927 -37.76200104 382.51800537 0.751947 -0.596153 -0.281384
36.35800171 -37.84700012 382.51800537 0.814067 -0.551270 -0.182750
36.21300125 -38.14699936 382.51800537 0.900354 -0.435061 0.009201
36.71799850 -37.56999969 382.81799316 0.726771 -0.624544 -0.285917
36.60100174 -37.54700089 382.51800537 0.750644 -0.587391 -0.302498
36.71099854 -37.24700165 382.21798706 0.772402 -0.611548 -0.171476
36.46599960 -37.54700089 382.21798706 0.746117 -0.616769 -0.250809
17.81800079 -38.57500076 396.31799316 -0.531595 -0.720385 0.445480
36.66299820 -37.24700165 381.91799927 0.787639 -0.604398 -0.119697
36.44699860 -37.54700089 381.91799927 0.738924 -0.646751 -0.188956
36.62900162 -37.24700165 381.61801147 0.682103 -0.675713 -0.279550
17.51799965 -38.34500122 396.31799316 -0.512257 -0.757748 0.404241
36.41799927 -37.54700089 381.88198853 0.522460 -0.740015 -0.423572
36.41799927 -37.39500046 381.61801147 0.539815 -0.768632 -0.343226
36.47200012 -37.24700165 381.31799316 0.660379 -0.695557 -0.283020
37.09000015 -36.64699936 381.61801147 0.742529 -0.612149 -0.271890
18.11700058 -38.74700165 396.61801147 -0.598491 -0.733998 0.321023
36.84700012 -36.94699860 381.61801147 0.768614 -0.604685 -0.208779
36.98600006 -36.64699936 381.31799316 0.765737 -0.627874 -0.139361
36.74100113 -36.94699860 381.31799316 0.743600 -0.634932 -0.209574
36.65399933 -36.94699860 381.01800537 0.707763 -0.673541 -0.213107
36.58800125 -36.94699860 380.71798706 0.730267 -0.625261 -0.275242
17.51799965 -38.22700119 396.61801147 -0.496481 -0.807376 0.318826
37.01800156 -36.59899902 381.01800537 0.728909 -0.661672 -0.175733
37.01800156 -36.47700119 380.71798706 0.736902 -0.626446 -0.254050
17.81800079 -38.42100143 396.61801147 -0.592909 -0.738309 0.321496
36.84500122 -36.64699936 380.71798706 0.688549 -0.659524 -0.301543
37.22499847 -36.34700012 381.01800537 0.798144 -0.587089 -0.135253
37.30699921 -36.04700089 380.41799927 0.768122 -0.596736 -0.232151
37.01800156 -36.31100082 380.41799927 0.666223 -0.679129 -0.308108
37.17900085 -36.04700089 380.11801147 0.720927 -0.624590 -0.300253
36.87500000 -36.34700012 380.11801147 0.727627 -0.646258 -0.230024
37.03699875 -36.04700089 379.81799316 0.757075 -0.599022 -0.260788
36.96200180 -36.04700089 379.51800537 0.759488 -0.606024 -0.236459
36.71799850 -36.30899811 379.51800537 0.679001 -0.669324 -0.301599
6.71799994 -28.84600067 378.91799927 -0.603414 0.264489 -0.752288
12.71800041 -20.30999947 375.31799316 -0.772156 0.322668 -0.547412
13.01799965 -20.74699974 374.76400757 -0.699504 0.172963 -0.693381
13.01799965 -20.44700050 374.83999634 -0.698711 0.241316 -0.673476
12.78800011 -20.74699974 375.01800537 -0.757664 0.209171 -0.618217
12.87399960 -20.44700050 375.01800537 -0.771154 0.280276 -0.571636
12.60499954 -21.34700012 375.01800537 -0.743143 0.267785 -0.613212
12.71700001 -21.04700089 375.01800537 -0.732429 0.236824 -0.638327
12.82699966 -21.34700012 374.71798706 -0.714151 0.296894 -0.633910
12.73700047 -21.64699936 374.71798706 -0.725621 0.233515 -0.647260
13.01799965 -21.34700012 374.54598999 -0.661945 0.312360 -0.681366
13.01799965 -21.04700089 374.71600342 -0.677409 0.237329 -0.696270
13.29599953 -21.94700050 374.11801147 -0.737156 0.243623 -0.630276
13.01799965 -21.94700050 374.35699463 -0.679606 0.233860 -0.695302
13.01799965 -21.64699936 374.44299316 -0.689751 0.210195 -0.692865
13.06400013 -22.54700089 374.11801147 -0.710562 0.123641 -0.692686
13.09399986 -22.24699974 374.11801147 -0.682726 0.251864 -0.685894
12.71800041 -22.54700089 374.47500610 -0.735006 0.185670 -0.652145
12.85400009 -22.24699974 374.41799927 -0.738352 0.216065 -0.638868
13.14200020 -23.14699936 373.81799316 -0.736902 0.254050 -0.626446
13.31799984 -23.14699936 373.64001465 -0.710643 0.268677 -0.650230
13.58800030 -22.84700012 373.51800537 -0.731071 0.254217 -0.633174
13.31799984 -22.84700012 373.77499390 -0.705716 0.206286 -0.677798
12.99800014 -23.74699974 373.81799316 -0.758719 0.249765 -0.601634
13.06999969 -23.44700050 373.81799316 -0.748668 0.202218 -0.631351
13.33399963 -23.44700050 373.51800537 -0.724132 0.234047 -0.648734
13.79599953 -23.74699974 372.91799927 -0.717444 0.185890 -0.671356
13.61800003 -23.74699974 373.14498901 -0.698592 0.213156 -0.683033
13.89500046 -23.44700050 372.91799927 -0.670813 0.199850 -0.714192
13.31799984 -23.74699974 373.38800049 -0.687573 0.275987 -0.671620
13.58600044 -23.44700050 373.21798706 -0.736693 0.155810 -0.658032
13.71399975 -24.04700089 372.91799927 -0.700043 0.251257 -0.668438
13.31799984 -24.04700089 373.29800415 -0.667801 0.237266 -0.705512
13.31099987 -24.34700012 373.21798706 -0.717766 0.206183 -0.665057
13.39200020 -24.94700050 372.91799927 -0.728202 0.169456 -0.664083
13.51200008 -24.64699936 372.91799927 -0.687575 0.223971 -0.690708
13.37199974 -25.24699974 372.91799927 -0.689664 0.123633 -0.713497
13.61800003 -24.94700050 372.71200562 -0.696700 0.183018 -0.693624
21.71800041 -42.66400146 393.31799316 -0.532050 -0.801998 0.271518
22.04999924 -42.94699860 393.31799316 -0.573859 -0.773050 0.270330
13.90999985 -25.24699974 372.31799316 -0.726648 0.206064 -0.655378
22.01799965 -42.85599899 393.61801147 -0.529637 -0.813757 0.239340
13.58100033 -25.54700089 372.61801147 -0.735002 0.220033 -0.641371
13.31799984 -25.54700089 372.90701294 -0.670708 0.247768 -0.699115
21.71800041 -42.61000061 393.61801147 -0.597226 -0.763384 0.246101
13.65200043 -25.24699974 372.61801147 -0.738915 0.162349 -0.653947
13.67099953 -26.14699936 372.31799316 -0.703491 0.189342 -0.685018
13.61800003 -25.84700012 372.45599365 -0.711474 0.185936 -0.677667
13.31799984 -26.14699936 372.70498657 -0.707779 0.179632 -0.683214
13.46500015 -25.84700012 372.61801147 -0.713223 0.227291 -0.663062
13.31799984 -25.84700012 372.77600098 -0.667590 0.210081 -0.714275
8.21800041 -37.04199982 384.31799316 -0.503960 -0.738591 0.447781
14.21800041 -26.14699936 371.72900391 -0.709693 0.176274 -0.682102
14.29100037 -25.84700012 371.71798706 -0.738415 0.152515 -0.656873
13.96199989 -26.14699936 372.01800537 -0.732056 0.209825 -0.648126
14.05000019 -25.84700012 372.01800537 -0.757624 0.139523 -0.637604
13.91800022 -25.84700012 372.17599487 -0.718647 0.162569 -0.676105
8.21800041 -37.37099838 383.71798706 -0.477153 -0.827586 0.295678
7.91800022 -37.17900085 383.71798706 -0.564979 -0.744080 0.356572
8.21800041 -37.27299881 384.01800537 -0.568047 -0.722819 0.393517
14.04599953 -26.74699974 371.71798706 -0.705273 0.247713 -0.664250
7.91800022 -37.01200104 384.01800537 -0.554142 -0.728442 0.402863
13.77299976 -26.74699974 372.01800537 -0.729866 0.261232 -0.631706
13.87199974 -26.44700050 372.01800537 -0.731085 0.226997 -0.643418
13.61800003 -26.44700050 372.31298828 -0.717766 0.206183 -0.665057
7.01800013 -36.69100189 383.11801147 -0.526119 -0.793152 0.306770
6.71799994 -36.54600143 383.11801147 -0.500170 -0.809423 0.307675
6.71799994 -36.42300034 383.41799927 -0.521469 -0.784611 0.335345
7.01800013 -36.62799835 383.41799927 -0.516302 -0.791237 0.327684
10.91800022 -34.25799942 395.11801147 -0.549554 -0.805089 0.223208
11.21800041 -34.40900040 395.11801147 -0.476710 -0.826818 0.298530
11.21800041 -34.32899857 395.41799927 -0.459388 -0.846564 0.268872
11.09799957 -34.24700165 395.41799927 -0.529663 -0.774370 0.346132
5.81799984 -36.22600174 382.51800537 -0.561437 -0.743701 0.362900
5.51800013 -35.94699860 382.51800537 -0.556270 -0.709037 0.433393
5.81799984 -36.05799866 382.81799316 -0.569065 -0.705110 0.423066
5.51800013 -35.75500107 382.81799316 -0.546788 -0.745917 0.380303
4.95100021 -35.74700165 381.91799927 -0.647807 -0.734388 0.202536
4.91800022 -35.69300079 382.21798706 -0.617444 -0.723844 0.307916
14.34899998 -26.74699974 371.41799927 -0.695809 0.230889 -0.680103
14.45199966 -26.44700050 371.41799927 -0.735447 0.226411 -0.638636
14.21800041 -26.44700050 371.62500000 -0.685547 0.217064 -0.694916
14.51500034 -27.04700089 371.11801147 -0.736388 0.229828 -0.636327
14.17000008 -27.34700012 371.41799927 -0.718884 0.248054 -0.649365
13.91800022 -27.34700012 371.65301514 -0.708007 0.189727 -0.680242
14.21800041 -27.04700089 371.44500732 -0.698565 0.202909 -0.686174
14.22999954 -27.94700050 371.11801147 -0.707216 0.217005 -0.672870
14.28299999 -27.64699936 371.11801147 -0.716290 0.216916 -0.663232
13.91800022 -27.94700050 371.49200439 -0.734952 0.230358 -0.637794
14.05000019 -27.64699936 371.41799927 -0.718266 0.223773 -0.658802
13.91800022 -28.54700089 371.19799805 -0.695302 0.233860 -0.679606
14.11699963 -28.24699974 371.11801147 -0.693856 0.275947 -0.665145
14.28999996 -28.54700089 370.81799316 -0.713280 0.216950 -0.666457
14.51799965 -28.54700089 370.55599976 -0.675012 0.258887 -0.690895
14.51799965 -28.24699974 370.70498657 -0.685469 0.293773 -0.666205
14.16399956 -29.14699936 370.81799316 -0.738157 0.139814 -0.659982
13.91800022 -29.14699936 371.09100342 -0.704808 0.153087 -0.692683
14.22500038 -28.84700012 370.81799316 -0.730168 0.149662 -0.666675
15.05599976 -29.14699936 369.91799927 -0.761139 0.145622 -0.632030
14.81799984 -29.14699936 370.11999512 -0.660119 0.196335 -0.725049
15.03999996 -28.84700012 369.91799927 -0.828565 0.099775 -0.550931
14.81799984 -28.84700012 370.20001221 -0.702580 0.196105 -0.684050
14.51799965 -29.14699936 370.39498901 -0.724373 0.149714 -0.672956
14.51799965 -28.84700012 370.48901367 -0.695922 0.199942 -0.689722
14.81799984 -29.44700050 370.03601074 -0.690722 0.275970 -0.668389
9.96800041 -36.04700089 373.21798706 -0.726264 0.029615 -0.686778
14.64099979 -29.44700050 370.21798706 -0.715229 0.203243 -0.668685
14.50300026 -29.74699974 370.21798706 -0.713241 0.286899 -0.639513
14.58300018 -30.34700012 369.91799927 -0.747110 0.192554 -0.636199
14.88700008 -30.34700012 369.61801147 -0.719285 0.216878 -0.659995
14.96700001 -30.04700089 369.61801147 -0.727185 0.223629 -0.648993
14.81799984 -30.04700089 369.78601074 -0.708123 0.230807 -0.667300
14.72900009 -30.94700050 369.61801147 -0.713607 0.192658 -0.673534
14.51799965 -30.94700050 369.83898926 -0.732435 0.156192 -0.662679
14.79500008 -30.64699936 369.61801147 -0.720873 0.169169 -0.672104
14.78400040 -31.54700089 369.31799316 -0.731484 0.202589 -0.651067
14.81799984 -31.24699974 369.41101074 -0.701523 0.251788 -0.666684
14.56599998 -31.54700089 369.61801147 -0.763691 0.165492 -0.624010
14.64299965 -31.24699974 369.61801147 -0.768735 0.194869 -0.609157
14.51799965 -31.24699974 369.78900146 -0.732883 0.179013 -0.656382
15.40900040 -31.54700089 368.71798706 -0.691826 0.206770 -0.691826
15.41800022 -31.24699974 368.78399658 -0.714398 0.247595 -0.654471
15.22500038 -31.24699974 369.01800537 -0.685276 0.279542 -0.672497
15.09599972 -31.54700089 369.01800537 -0.695446 0.223480 -0.682943
15.11800003 -32.14699936 368.79501343 -0.696526 0.216593 -0.684060
15.29899979 -31.84700012 368.71798706 -0.696270 0.237329 -0.677409
14.91100025 -32.14699936 369.01800537 -0.703346 0.258793 -0.662066
15.02700043 -31.84700012 369.01800537 -0.710738 0.202847 -0.673576
15.48499966 -32.14699936 368.41799927 -0.696932 0.223958 -0.681270
26.37000084 -45.34700012 372.61801147 0.634647 -0.627949 -0.450449
26.21800041 -45.48400116 372.61801147 0.580888 -0.644870 -0.496701
25.99500084 -45.94699860 372.91799927 0.589088 -0.622846 -0.514819
26.21800041 -45.71500015 372.91799927 0.631142 -0.604214 -0.486400
26.24099922 -45.94699860 373.21798706 0.679129 -0.666223 -0.308108
26.52300072 -45.64699936 373.21798706 0.723844 -0.617444 -0.307916
