50.64300156 -44.44699860 263.11801147 0.992276 0.116010 -0.043926
50.68600082 -44.74700165 263.41799927 0.996742 0.074352 -0.031249
50.63299942 -44.44699860 263.41799927 0.994344 0.052334 -0.092419
33.99000168 -45.34700012 267.91799927 -0.995656 -0.075912 0.053908
33.96699905 -45.04700089 267.91799927 -0.995231 -0.082660 0.051800
34.00199890 -45.34700012 268.21798706 -0.996241 -0.062333 0.060146
33.99100113 -45.04700089 268.21798706 -0.992687 -0.091894 0.078280
50.68600082 -44.74700165 263.71798706 0.998267 0.053648 -0.024194
50.71500015 -44.44699860 263.71798706 0.999904 0.012908 0.004965
50.73400116 -44.74700165 264.01800537 0.980875 0.131356 -0.143632
50.65999985 -44.44699860 264.01800537 0.995404 0.074020 -0.060763
50.61999893 -44.14699936 263.11801147 0.992849 0.064383 -0.100527
50.61299896 -43.84700012 263.11801147 0.996163 0.070921 -0.051281
50.67300034 -44.14699936 263.41799927 0.993589 0.034415 -0.107685
50.63399887 -43.84700012 263.41799927 0.986447 0.129390 -0.100900
50.30300140 -48.04700089 253.81799316 0.982662 0.155921 -0.100321
50.70700073 -44.14699936 263.71798706 0.999198 0.017494 -0.036016
50.66099930 -43.84700012 263.71798706 0.985220 0.128091 -0.113725
50.65599823 -44.14699936 264.01800537 0.999411 -0.031646 0.013271
50.68899918 -43.84700012 264.01800537 0.998536 0.011406 -0.052882
34.09000015 -45.94699860 268.51800537 -0.988563 -0.090296 0.120785
34.07400131 -45.64699936 268.51800537 -0.988357 -0.095193 0.118697
34.10699844 -45.94699860 268.81799316 -0.999690 -0.023202 -0.009079
34.09500122 -45.64699936 268.81799316 -0.995443 -0.065184 0.069604
50.70199966 -44.14699936 264.31799316 0.988375 0.028500 -0.149339
50.71400070 -43.84700012 264.31799316 0.993424 -0.048051 -0.103924
50.73400116 -44.14699936 264.61801147 0.998978 0.044239 0.009259
50.39300156 -48.34700012 253.81799316 0.944894 0.279514 -0.170435
50.61600113 -43.54700089 263.71798706 0.987103 0.100725 -0.124425
50.62200165 -43.24700165 263.71798706 0.999471 0.027508 -0.017320
50.67699814 -43.54700089 264.01800537 0.985898 0.120698 -0.115918
50.63000107 -43.24700165 264.01800537 0.991098 0.119753 -0.058166
34.02500153 -45.34700012 268.51800537 -0.992572 -0.096642 0.073903
34.00899887 -45.04700089 268.51800537 -0.996691 -0.057481 0.057481
50.34299850 -48.04700089 253.51800537 0.996275 0.016086 0.084721
34.04399872 -45.34700012 268.81799316 -0.981764 -0.125617 0.142691
34.02099991 -45.04700089 268.81799316 -0.991504 -0.088466 0.095359
50.39300156 -48.34700012 253.51800537 0.974342 0.218282 -0.054875
50.70399857 -43.54700089 264.31799316 0.985554 0.118554 -0.120949
50.64199829 -43.24700165 264.31799316 0.976113 0.171226 -0.133731
50.70600128 -43.24700165 264.61801147 0.974564 0.177308 -0.137068
45.52899933 -43.24700165 253.21800232 0.976753 0.123183 -0.175442
45.59400177 -43.54700089 253.21800232 0.863495 0.383262 -0.327851
44.51800156 -42.56399918 252.01800537 0.391792 0.823238 -0.410826
44.81800079 -42.73099899 252.01800537 0.463452 0.789644 -0.402089
44.81800079 -42.90000153 251.71800232 0.418336 0.806219 -0.418336
44.51800156 -42.73699951 251.71800232 0.440766 0.795962 -0.414934
50.59600067 -42.94699860 264.31799316 0.984844 0.130753 -0.113959
50.56700134 -42.64699936 264.31799316 0.997236 -0.001046 -0.074296
34.11500168 -45.34700012 269.11801147 -0.997385 -0.035277 0.063072
50.65599823 -42.94699860 264.61801147 0.981682 0.154874 -0.110973
34.08100128 -45.04700089 269.11801147 -0.977298 -0.138191 0.160600
50.61600113 -42.64699936 264.61801147 0.994756 0.036273 -0.095628
34.09199905 -45.34700012 269.41799927 -0.999702 -0.015132 0.019167
34.10300064 -45.04700089 269.41799927 -0.998563 -0.052774 -0.009313
34.08900070 -45.94699860 269.11801147 -0.994620 -0.061259 0.083535
34.09199905 -45.64699936 269.11801147 -0.999876 0.012960 -0.008972
34.16799927 -45.94699860 269.41799927 -0.986245 -0.115678 0.118063
34.10800171 -45.64699936 269.41799927 -0.991175 -0.081545 0.104516
50.74800110 -43.54700089 264.91799927 0.999916 -0.006951 0.010923
50.72999954 -43.24700165 264.91799927 0.989903 0.140452 -0.019101
50.74399948 -43.54700089 265.21798706 0.999371 -0.001013 0.035439
50.72800064 -43.24700165 265.21798706 0.996164 0.085078 0.020462
50.67399979 -42.94699860 264.91799927 0.982106 0.183185 -0.043728
50.61399841 -42.64699936 264.91799927 0.998158 0.059576 0.011497
50.68099976 -42.94699860 265.21798706 0.986874 0.144679 -0.071751
50.62400055 -42.64699936 265.21798706 0.981370 0.142989 -0.128324
50.65000153 -42.34700012 264.91799927 0.999322 0.009168 0.035654
50.60800171 -42.04700089 264.91799927 0.986790 0.148662 -0.064381
50.60599899 -42.34700012 265.21798706 0.999072 0.040210 -0.015466
50.58800125 -42.04700089 265.21798706 0.999987 0.000983 0.004916
34.03200150 -51.64699936 260.41799927 -0.996984 -0.044286 -0.063729
34.05099869 -51.94699860 260.41799927 -0.998550 -0.049143 -0.021958
34.06000137 -51.64699936 260.11801147 -0.995083 -0.093050 0.033936
34.07300186 -51.94699860 260.11801147 -0.999442 -0.025574 -0.021482
34.06200027 -51.64699936 261.01800537 -0.997820 -0.026510 0.060442
34.06600189 -51.94699860 261.01800537 -0.995685 -0.079961 0.047101
34.02299881 -51.64699936 260.71798706 -0.997567 -0.050361 0.048218
34.05699921 -51.94699860 260.71798706 -0.995003 -0.085223 0.052019
33.97399902 -49.84700012 261.61801147 -0.998831 -0.003080 0.048248
33.95899963 -50.14699936 261.61801147 -0.996530 -0.013856 0.082067
33.95999908 -49.84700012 261.31799316 -0.998260 -0.001034 0.058965
33.94900131 -50.14699936 261.31799316 -0.999527 -0.009114 0.029368
34.13000107 -45.34700012 269.71798706 -0.995268 -0.074010 0.062964
34.09099960 -45.04700089 269.71798706 -0.996550 -0.080453 0.020382
34.13499832 -45.34700012 270.01800537 -0.997518 -0.068612 0.015834
34.09799957 -45.04700089 270.01800537 -0.993427 -0.111609 0.025416
50.64699936 -41.74700165 265.51800537 0.997507 -0.015867 -0.068757
50.61399841 -41.44699860 265.51800537 0.987738 0.095360 -0.123614
50.65999985 -41.74700165 265.81799316 0.999075 0.009222 -0.042012
50.62900162 -41.44699860 265.81799316 0.996222 0.079134 -0.035773
34.02000046 -49.84700012 262.21798706 -0.994733 -0.095838 0.036352
34.05599976 -50.14699936 262.21798706 -0.994996 -0.040679 0.091254
33.99800110 -49.84700012 261.91799927 -0.994673 -0.054336 0.087602
34.00899887 -50.14699936 261.91799927 -0.990610 -0.035016 0.132157
34.15399933 -45.94699860 269.71798706 -0.996469 -0.082415 0.016055
34.13000107 -45.64699936 269.71798706 -0.996793 -0.068037 0.042118
34.17300034 -45.94699860 270.01800537 -0.997461 -0.068900 0.018020
34.15200043 -45.64699936 270.01800537 -0.997448 -0.067064 0.024484
33.97000122 -49.24700165 262.81799316 -0.994620 -0.083535 0.061259
34.00999832 -49.54700089 262.81799316 -0.993487 -0.089087 0.071044
33.97299957 -49.24700165 262.51800537 -0.993777 -0.103495 0.041176
33.99800110 -49.54700089 262.51800537 -0.997167 -0.069470 0.028857
34.01399994 -49.24700165 263.41799927 -0.990629 -0.114170 0.074960
34.04600143 -49.54700089 263.41799927 -0.992360 -0.107742 0.060109
34.00500107 -49.24700165 263.11801147 -0.993570 -0.097673 0.057257
34.03499985 -49.54700089 263.11801147 -0.991049 -0.109096 0.076941
50.63800049 -41.74700165 266.11801147 0.999344 0.033686 0.013270
50.65800095 -41.44699860 266.11801147 0.997016 0.077018 0.005275
50.66500092 -41.74700165 266.41799927 0.990977 0.100367 -0.088830
50.63399887 -41.44699860 266.41799927 0.996315 0.068749 -0.051289
34.00500107 -48.64699936 263.41799927 -0.999198 -0.017494 0.036016
33.97999954 -48.94699860 263.41799927 -0.998710 -0.023952 0.044781
33.99900055 -48.64699936 263.11801147 -0.993072 -0.064397 0.098290
33.98600006 -48.94699860 263.11801147 -0.998940 -0.001022 0.046011
34.02899933 -48.64699936 264.01800537 -0.991049 -0.109096 0.076941
34.05199814 -48.94699860 264.01800537 -0.995488 -0.047195 0.082317
34.02999878 -48.64699936 263.71798706 -0.994826 -0.081142 0.061135
34.00799942 -48.94699860 263.71798706 -0.993778 -0.023111 0.108952
34.01699829 -48.04700089 264.61801147 -0.997674 -0.052284 0.043748
34.02199936 -48.34700012 264.61801147 -0.995797 -0.085976 0.031561
34.00400162 -48.04700089 264.31799316 -0.989344 -0.096949 0.108629
34.02799988 -48.34700012 264.31799316 -0.994023 -0.088532 0.063877
33.95500183 -48.04700089 264.01800537 -0.994428 -0.054565 0.090200
33.98699951 -48.34700012 264.01800537 -0.986747 -0.127054 0.100931
33.93299866 -48.04700089 263.71798706 -0.999880 -0.010966 0.010966
33.96699905 -48.34700012 263.71798706 -0.989873 -0.137514 0.035231
33.97200012 -47.44699860 264.61801147 -0.995199 -0.086874 0.045086
33.99499893 -47.74700165 264.61801147 -0.993590 -0.093184 0.063994
33.96200180 -47.44699860 264.31799316 -0.996717 -0.079780 0.013829
33.96799850 -47.74700165 264.31799316 -0.997331 -0.048310 0.054751
34.00000000 -47.44699860 265.21798706 -0.991904 -0.110465 0.062635
34.04499817 -47.74700165 265.21798706 -0.994962 -0.089447 0.045276
33.97299957 -47.44699860 264.91799927 -0.994076 -0.092602 0.056900
34.01699829 -47.74700165 264.91799927 -0.990851 -0.107275 0.081898
33.97900009 -46.84700012 265.21798706 -0.994594 -0.052114 0.089813
33.97800064 -47.14699936 265.21798706 -0.997390 -0.031001 0.065210
33.93700027 -46.84700012 264.91799927 -0.992763 -0.062118 0.102777
33.95999908 -47.14699936 264.91799927 -0.994865 -0.063360 0.078922
50.60100174 -41.14699936 266.11801147 0.994863 0.085401 0.054346
50.59999847 -40.84700012 266.11801147 0.993640 0.027570 0.109179
50.59799957 -41.14699936 266.41799927 0.984642 0.167823 -0.048117
50.54999924 -40.84700012 266.41799927 0.998687 0.042786 0.028176
34.01900101 -46.84700012 265.81799316 -0.998609 -0.024000 0.046957
34.01499939 -47.14699936 265.81799316 -0.998713 -0.040700 0.030264
33.99499893 -46.84700012 265.51800537 -0.997621 -0.028686 0.062683
33.99800110 -47.14699936 265.51800537 -0.997273 -0.044108 0.059169
50.64699936 -41.14699936 266.71798706 0.986576 0.148984 -0.066867
50.56299973 -40.84700012 266.71798706 0.990702 0.102885 -0.089013
50.62699890 -41.14699936 267.01800537 0.994569 0.104070 0.001073
50.59799957 -40.84700012 267.01800537 0.996276 0.081130 -0.029207
33.88600159 -44.44699860 267.01800537 -0.997701 -0.067764 0.001043
50.57699966 -40.54700089 266.71798706 0.997335 0.039722 -0.061193
33.89899826 -44.74700165 267.01800537 -0.998549 -0.042960 0.032482
33.87500000 -44.44699860 266.71798706 -0.994860 -0.043063 0.091646
50.54499817 -40.24700165 266.71798706 0.999371 0.029664 -0.019435
33.88000107 -44.74700165 266.71798706 -0.991534 -0.041737 0.122955
50.60200119 -40.54700089 267.01800537 0.996984 0.063729 -0.044286
50.54999924 -40.24700165 267.01800537 0.999189 0.037996 -0.013350
33.93500137 -44.44699860 267.61801147 -0.989640 -0.106075 0.096749
33.96500015 -44.74700165 267.61801147 -0.998102 -0.041367 0.045609
33.86999893 -44.44699860 267.31799316 -0.991009 -0.095755 0.093448
33.91199875 -44.74700165 267.31799316 -0.987793 -0.088301 0.128331
33.94300079 -44.44699860 268.21798706 -0.998439 -0.051336 0.022001
33.93899918 -44.74700165 268.21798706 -0.994551 -0.079074 0.067937
33.93399811 -44.44699860 267.91799927 -0.996990 -0.077179 0.007401
33.94499969 -44.74700165 267.91799927 -0.999411 -0.029605 -0.017354
50.60100174 -40.54700089 267.31799316 0.996525 0.055544 -0.062079
50.55300140 -40.24700165 267.31799316 0.993350 0.064123 -0.095623
50.62500000 -40.54700089 267.61801147 0.988244 0.068839 -0.136511
50.60800171 -40.24700165 267.61801147 0.991081 0.044174 -0.125726
33.92200089 -43.84700012 268.21798706 -0.999075 -0.042012 -0.009222
33.91899872 -44.14699936 268.21798706 -0.998794 -0.046576 0.015525
33.91199875 -43.84700012 267.91799927 -0.996657 -0.053256 0.061951
33.90100098 -44.14699936 267.91799927 -0.998948 -0.040372 0.021739
33.87900162 -43.24700165 268.21798706 -0.993752 -0.097251 0.054774
33.89699936 -43.54700089 268.21798706 -0.998366 -0.056902 -0.005173
33.85100174 -43.24700165 267.91799927 -0.992316 -0.099118 0.074053
33.88199997 -43.54700089 267.91799927 -0.992002 -0.088102 0.090390
34.12599945 -45.34700012 270.31799316 -0.998940 -0.046011 -0.001022
34.11199951 -45.04700089 270.31799316 -0.994399 -0.096447 0.043235
37.45000076 -43.54700089 252.91799927 -0.557919 0.826176 -0.078480
50.56900024 -39.94699860 267.31799316 0.993956 -0.081987 -0.073002
34.12699890 -45.34700012 270.61801147 -0.999034 -0.017563 0.040292
50.61800003 -39.94699860 267.61801147 0.997199 -0.048408 -0.057014
34.12900162 -45.04700089 270.61801147 -0.992660 -0.023291 0.118676
50.65900040 -39.64699936 267.61801147 0.989917 -0.131912 0.051618
33.92499924 -43.24700165 268.81799316 -0.997409 -0.044019 0.056903
33.89799881 -43.54700089 268.81799316 -0.992988 -0.055104 0.104584
33.88499832 -43.24700165 268.51800537 -0.997248 -0.061187 0.041865
33.86899948 -43.54700089 268.51800537 -0.999560 -0.025421 0.015253
33.86299896 -42.64699936 268.81799316 -0.997394 -0.067061 0.026611
33.86199951 -42.94699860 268.81799316 -0.993741 -0.086461 0.070741
33.86600113 -42.64699936 268.51800537 -0.993771 -0.084218 0.072989
33.85400009 -42.94699860 268.51800537 -0.998743 -0.042788 0.026090
33.90900040 -42.64699936 269.41799927 -0.988760 -0.028445 0.146778
33.91699982 -42.94699860 269.41799927 -0.995421 -0.024967 0.092269
33.88499832 -42.64699936 269.11801147 -0.992471 -0.087739 0.085460
33.88700104 -42.94699860 269.11801147 -0.995613 -0.067256 0.065051
33.83800125 -42.04700089 269.41799927 -0.967184 -0.124261 0.221620
33.86600113 -42.34700012 269.41799927 -0.960878 -0.126466 0.246413
33.80699921 -42.04700089 269.11801147 -0.995736 -0.083978 0.038172
33.82699966 -42.34700012 269.11801147 -0.989730 -0.121546 0.075243
33.95199966 -42.04700089 269.71798706 -0.923158 -0.131484 0.361236
33.99300003 -42.34700012 269.71798706 -0.953659 -0.028823 0.299507
34.31800079 -42.34700012 269.98400879 -0.579155 0.445632 0.682635
50.63299942 -39.94699860 267.91799927 0.998125 0.057847 -0.019984
50.59700012 -39.64699936 267.91799927 0.989214 0.089929 0.115622
34.14400101 -45.34700012 270.91799927 -0.987462 -0.023918 0.156035
34.16799927 -45.04700089 270.91799927 -0.986100 0.067154 0.151980
34.22100067 -45.34700012 271.21798706 -0.979109 0.005807 0.203255
50.80500031 -52.54700089 260.71798706 0.659894 -0.650020 0.376847
50.81800079 -52.52500153 260.71798706 0.894185 -0.381538 0.234226
50.91600037 -52.24700165 260.71798706 0.985297 -0.170815 0.003394
50.81800079 -52.32099915 261.01800537 0.727955 -0.629196 0.272386
50.51800156 -52.72499847 260.71798706 0.479969 -0.831015 0.281147
50.51800156 -52.60800171 261.01800537 0.578232 -0.757629 0.302731
50.24300003 -52.54700089 261.61801147 0.605974 -0.713775 0.351171
49.91799927 -52.95000076 261.31799316 0.547680 -0.792488 0.268347
50.21799850 -52.73799896 261.31799316 0.578328 -0.763139 0.288368
49.91799927 -52.83300018 261.61801147 0.577404 -0.751108 0.320065
49.31800079 -52.85900116 262.51800537 0.601937 -0.739981 0.300166
49.61800003 -52.62500000 262.51800537 0.564123 -0.754858 0.334595
49.31800079 -52.78300095 262.81799316 0.578283 -0.788007 0.211266
49.01800156 -53.14099884 262.51800537 0.581163 -0.743046 0.331862
49.01800156 -52.98699951 262.81799316 0.576531 -0.761787 0.295452
48.71799850 -53.08700180 263.11801147 0.549153 -0.764949 0.336578
49.01800156 -52.90399933 263.11801147 0.526463 -0.785695 0.324839
48.71799850 -52.95999908 263.41799927 0.527340 -0.775690 0.346722
49.01800156 -52.73500061 263.41799927 0.541998 -0.762033 0.354321
48.43600082 -53.14699936 263.41799927 0.567064 -0.733751 0.374229
48.11800003 -53.24300003 263.71798706 0.601571 -0.700459 0.384017
35.51800156 -45.18299866 252.31799316 -0.498092 0.808015 -0.314667
35.81800079 -44.93799973 252.31799316 -0.590561 0.718162 -0.368078
35.81800079 -44.83399963 252.61799622 -0.590642 0.778784 -0.211274
50.35300064 -48.04700089 253.21800232 0.998840 -0.025984 0.040536
50.34199905 -48.34700012 253.21800232 0.994789 0.101947 -0.001073
50.36800003 -48.04700089 252.91799927 0.999118 0.017528 -0.038150
50.38800049 -48.34700012 252.91799927 0.996789 0.076181 -0.024678
43.91799927 -54.44599915 268.51800537 0.565955 -0.775216 0.280599
43.91799927 -54.37400055 268.81799316 0.574477 -0.783095 0.238198
42.11800003 -59.14699936 256.81399536 -0.033053 -0.411185 -0.910953
42.41799927 -59.14699936 256.79000854 -0.014133 -0.376443 -0.926332
42.11800003 -58.84700012 256.66598511 -0.008989 -0.383961 -0.923305
42.41799927 -58.84700012 256.66799927 0.003849 -0.386161 -0.922424
43.31800079 -58.24700165 256.39099121 -0.006549 -0.436168 -0.899842
43.61800003 -58.24700165 256.38598633 -0.022662 -0.446565 -0.894464
43.31800079 -58.54700089 256.52301025 -0.006565 -0.442471 -0.896759
43.61800003 -58.54700089 256.54098511 -0.001319 -0.460355 -0.887734
34.91799927 -55.38399887 258.31799316 -0.395496 -0.854582 0.336560
35.21799850 -55.47999954 258.31799316 -0.341324 -0.870912 0.353569
35.21799850 -55.33200073 258.61801147 -0.321200 -0.835121 0.446547
34.91799927 -55.19800186 258.61801147 -0.410799 -0.777758 0.475748
33.44200134 -48.34700012 254.11799622 -0.998393 -0.056668 0.001030
33.42800140 -48.04700089 254.11799622 -0.992351 -0.098894 0.073886
33.44699860 -48.34700012 254.41799927 -0.999342 -0.033755 0.013297
33.44499969 -48.04700089 254.41799927 -0.998713 -0.040700 0.030264
39.71799850 -37.57099915 262.81799316 -0.572814 0.758938 -0.309672
39.71799850 -37.77000046 262.51800537 -0.580322 0.702669 -0.411682
33.57300186 -47.74700165 257.11801147 -0.998829 -0.013428 0.046481
33.57099915 -47.44699860 257.11801147 -0.998152 -0.024191 0.055745
33.58000183 -47.74700165 257.41799927 -0.998487 -0.028289 0.047148
40.01800156 -37.29199982 263.11801147 -0.540190 0.777424 -0.322190
39.71799850 -37.50099945 263.11801147 -0.578780 0.776413 -0.249393
33.56700134 -47.44699860 257.41799927 -0.999794 -0.007020 0.019053
40.10699844 -35.74700165 266.71798706 -0.611474 0.733447 -0.296910
39.71799850 -36.09400177 266.71798706 -0.563752 0.802086 -0.197084
39.77799988 -36.04700089 266.71798706 -0.637258 0.750345 -0.175743
40.01800156 -35.81700134 266.71798706 -0.616777 0.748607 -0.243258
40.31800079 -35.56200027 266.71798706 -0.582523 0.743886 -0.327568
33.67100143 -45.34700012 261.91799927 -0.993326 -0.075714 0.087015
33.64300156 -45.04700089 261.91799927 -0.995177 -0.087064 0.045185
33.71599960 -45.34700012 262.21798706 -0.988987 -0.082902 0.122602
33.66600037 -45.04700089 262.21798706 -0.982439 -0.142435 0.120522
33.69100189 -44.74700165 263.11801147 -0.998200 -0.055748 0.022089
33.69900131 -44.44699860 263.11801147 -0.998774 -0.028179 0.040702
33.70299911 -44.74700165 263.41799927 -0.991049 -0.109096 0.076941
33.68099976 -44.44699860 263.41799927 -0.999505 -0.031329 0.003032
42.41799927 -59.37900162 257.41799927 -0.205630 -0.969398 0.134106
42.11800003 -59.35499954 257.41799927 -0.301364 -0.950655 0.073724
42.41799927 -59.38700104 257.11801147 -0.199074 -0.975587 -0.092736
42.11800003 -59.29800034 257.11801147 -0.353394 -0.932160 -0.078680
33.73500061 -44.74700165 263.71798706 -0.990369 -0.109784 0.084360
33.73899841 -44.74700165 264.01800537 -0.997977 -0.049952 0.039324
33.74900055 -44.44699860 264.01800537 -0.992409 -0.078618 0.094569
33.70000076 -44.44699860 263.71798706 -0.988781 -0.102045 0.109083
33.76499939 -44.14699936 264.91799927 -0.996375 -0.074973 0.040203
33.73899841 -43.84700012 264.91799927 -0.997954 -0.056089 0.030690
33.77799988 -44.14699936 265.21798706 -0.993590 -0.093184 0.063994
33.72900009 -43.84700012 265.21798706 -0.995895 -0.071214 0.055875
33.76800156 -43.54700089 266.11801147 -0.996372 -0.064388 0.055657
33.74100113 -43.24700165 266.11801147 -0.995835 -0.083803 0.035915
33.78799820 -43.54700089 266.41799927 -0.996522 -0.070483 0.044459
33.76499939 -43.24700165 266.41799927 -0.994304 -0.090189 0.056786
50.32400131 -46.54700089 255.31799316 0.968721 -0.171558 -0.179297
50.36000061 -46.24700165 255.31799316 0.987609 -0.093215 -0.126253
49.90700150 -40.84700012 262.51800537 0.658594 0.618578 -0.428503
50.45700073 -46.54700089 255.61799622 0.910634 -0.380965 -0.160034
49.31800079 -40.15000153 262.81799316 0.429812 0.839305 -0.332909
49.61800003 -40.35200119 262.81799316 0.535353 0.768255 -0.350971
49.61800003 -40.49399948 262.51800537 0.592909 0.738309 -0.321496
49.31800079 -40.31100082 262.51800537 0.452288 0.799955 -0.394344
49.01800156 -40.03799820 262.81799316 0.318770 0.890460 -0.324756
48.71799850 -39.94800186 262.81799316 0.413969 0.823180 -0.388592
49.01800156 -40.17800140 262.51800537 0.335686 0.869106 -0.363277
48.71799850 -40.06100082 262.51800537 0.406078 0.847940 -0.340732
49.31800079 -40.47499847 262.21798706 0.431084 0.809283 -0.399033
48.71799850 -40.18199921 262.21798706 0.376169 0.856055 -0.354496
49.01800156 -40.28300095 262.21798706 0.387544 0.830452 -0.400199
49.01800156 -40.46500015 261.91799927 0.411908 0.806186 -0.424730
48.71799850 -40.32600021 261.91799927 0.412486 0.817008 -0.402930
48.11800003 -39.88899994 262.21798706 0.448563 0.802268 -0.393899
47.51800156 -39.81600189 261.61801147 0.424612 0.828704 -0.364630
38.81800079 -43.54700089 250.47999573 -0.495207 0.511881 -0.701960
47.21799850 -39.92499924 261.01800537 0.444246 0.806700 -0.389718
46.91799927 -39.76699829 261.01800537 0.370724 0.843124 -0.389495
46.91799927 -39.94400024 260.71798706 0.418193 0.796020 -0.437569
40.61800003 -40.65100098 253.81799316 -0.616579 0.669761 -0.413823
40.40499878 -40.84700012 253.81799316 -0.626454 0.656364 -0.420406
40.31800079 -40.93199921 253.81799316 -0.619788 0.692124 -0.369900
40.60599899 -40.84700012 253.51800537 -0.600184 0.702133 -0.383131
40.31800079 -41.06000137 253.51800537 -0.584701 0.740189 -0.332032
40.91799927 -39.94499969 255.01800537 -0.569259 0.761685 -0.309484
40.91799927 -39.94699860 255.01300049 -0.639407 0.727819 -0.247869
46.31800079 -39.54399872 261.01800537 0.424452 0.821879 -0.379940
46.61800003 -39.66400146 261.01800537 0.358025 0.857090 -0.370424
46.61800003 -39.77500153 260.71798706 0.391667 0.838387 -0.379083
46.31800079 -39.66600037 260.71798706 0.403908 0.828408 -0.388069
46.01800156 -39.36999893 261.01800537 0.431382 0.826420 -0.361855
46.01800156 -39.47000122 260.71798706 0.455823 0.817940 -0.350999
46.61800003 -39.93399811 260.41799927 0.402770 0.832392 -0.380657
46.31800079 -39.82199860 260.41799927 0.407152 0.847062 -0.341633
46.31800079 -39.90999985 260.11801147 0.391224 0.863762 -0.317582
46.01800156 -39.64300156 260.41799927 0.463452 0.789644 -0.402089
45.71799850 -39.46400070 260.41799927 0.419923 0.812702 -0.403956
45.71799850 -39.62599945 260.11801147 0.452281 0.817280 -0.357064
46.01800156 -39.77099991 260.11801147 0.417545 0.842909 -0.339353
45.41799927 -39.46300125 260.11801147 0.448209 0.828794 -0.334977
45.41799927 -39.55099869 259.81799316 0.434282 0.829084 -0.352163
45.11800003 -39.40700150 259.81799316 0.399211 0.822278 -0.405573
45.11800003 -39.59400177 259.51800537 0.367505 0.865712 -0.339827
45.41799927 -39.68600082 259.51800537 0.374785 0.875511 -0.304987
44.81800079 -39.28099823 259.81799316 0.430672 0.821614 -0.373461
44.51800156 -39.11299896 259.81799316 0.447460 0.813708 -0.371025
44.51800156 -39.20600128 259.51800537 0.438753 0.838470 -0.323209
44.81800079 -39.43899918 259.51800537 0.472648 0.802700 -0.363698
44.81800079 -39.52799988 259.21798706 0.441691 0.860615 -0.253479
44.51800156 -39.34899902 259.21798706 0.460459 0.800590 -0.383449
44.81800079 -39.62799835 258.91799927 0.391418 0.846774 -0.360230
44.51800156 -39.54199982 258.91799927 0.407348 0.835142 -0.369601
50.41600037 -48.64699936 253.21800232 0.973381 0.208136 -0.095967
50.40700150 -48.64699936 252.91799927 0.994765 0.016272 -0.100887
50.45000076 -48.94699860 252.91799927 0.929860 0.064997 -0.362128
33.41799927 -48.04700089 253.24000549 -0.983927 -0.085090 -0.156997
33.41799927 -48.02799988 253.21800232 -0.970868 -0.182917 -0.154776
33.44599915 -48.34700012 253.21800232 -0.997687 0.003134 -0.067905
34.91799927 -55.45399857 258.01800537 -0.441303 -0.856646 0.267225
35.21799850 -55.84099960 257.41799927 -0.376466 -0.845095 0.379590
34.91799927 -55.82300186 257.11801147 -0.369792 -0.887801 0.273976
35.21799850 -55.87699890 257.11801147 -0.391267 -0.908247 0.148314
35.21799850 -55.56700134 258.01800537 -0.385169 -0.877580 0.285478
35.21799850 -55.65599823 257.71798706 -0.297421 -0.880184 0.369889
34.91799927 -55.60200119 257.71798706 -0.317120 -0.865568 0.387591
35.51800156 -56.05099869 257.41799927 -0.469848 -0.831989 0.295021
35.51800156 -56.07699966 257.11801147 -0.533870 -0.818396 0.212630
35.81800079 -56.15000153 257.41799927 -0.420292 -0.832714 0.360475
35.81800079 -56.32799911 257.11801147 -0.487167 -0.841470 0.233657
36.11800003 -56.34299850 257.41799927 -0.399423 -0.803658 0.441130
36.41799927 -56.46799850 257.41799927 -0.329611 -0.866187 0.375603
36.41799927 -56.52999878 257.11801147 -0.349723 -0.879606 0.322472
36.11800003 -56.45700073 257.11801147 -0.398238 -0.884477 0.243119
36.41799927 -56.71099854 256.81799316 -0.439927 -0.811065 0.385536
36.11800003 -56.70800018 256.51800537 -0.465719 -0.812226 0.351276
36.41799927 -56.78200150 256.51800537 -0.454519 -0.885116 0.099910
50.45700073 -51.04700089 253.51800537 0.928179 -0.127505 -0.349609
50.40399933 -50.44699860 253.21800232 0.959574 -0.115878 -0.256494
50.21799850 -50.63700104 252.91799927 -0.113665 -0.499263 -0.858963
49.91799927 -50.74700165 253.00999451 0.008701 -0.316961 -0.948398
50.21799850 -51.34700012 253.28100586 0.172982 -0.431728 -0.885261
49.91799927 -51.34700012 253.24899292 0.035528 -0.390810 -0.919785
50.21799850 -51.04700089 253.15100098 0.157974 -0.391376 -0.906570
49.91799927 -51.04700089 253.09800720 0.049255 -0.395368 -0.917201
49.61800003 -51.34700012 253.24400330 0.003850 -0.391437 -0.920197
49.31800079 -51.34700012 253.23300171 -0.011691 -0.401405 -0.915826
49.61800003 -51.04700089 253.10699463 -0.001273 -0.378186 -0.925729
49.31800079 -51.04700089 253.11000061 -0.001278 -0.382163 -0.924094
49.01800156 -51.34700012 253.25100708 -0.048718 -0.375259 -0.925639
48.71799850 -51.34700012 253.26300049 -0.064443 -0.348519 -0.935084
49.01800156 -51.04700089 253.11999512 -0.054756 -0.393973 -0.917490
48.71799850 -51.04700089 253.15299988 -0.046865 -0.413752 -0.909183
49.01800156 -51.64699936 253.37399292 0.003870 -0.398582 -0.917125
48.71799850 -51.64699936 253.37199402 -0.035039 -0.364665 -0.930479
49.01800156 -51.94699860 253.50999451 -0.014231 -0.392005 -0.919853
48.71799850 -51.94699860 253.49299622 0.011691 -0.401405 -0.915826
48.41799927 -51.64699936 253.39100647 -0.072492 -0.341373 -0.937128
48.41799927 -51.94699860 253.51300049 -0.059713 -0.375527 -0.924886
43.01800156 -35.30300140 266.41799927 0.235897 0.760808 -0.604585
42.71799850 -35.44300079 266.11801147 0.414455 0.849089 -0.327528
43.01800156 -35.55699921 266.11801147 0.249917 0.808738 -0.532432
34.19400024 -46.24700165 271.51800537 -0.999379 0.031710 -0.015344
34.28300095 -46.54700089 271.51800537 -0.985926 -0.157888 0.054969
34.08100128 -49.54700089 263.71798706 -0.994581 -0.072394 0.074621
34.04800034 -49.24700165 263.71798706 -0.989365 -0.106295 0.099287
34.09999847 -49.54700089 264.01800537 -0.997176 -0.046255 0.059164
34.06700134 -49.24700165 264.01800537 -0.994665 -0.081311 0.063489
34.18299866 -46.84700012 269.41799927 -0.991504 -0.095359 0.088466
34.22200012 -47.14699936 269.41799927 -0.993570 -0.097673 0.057257
34.15900040 -46.84700012 269.11801147 -0.996549 -0.059771 0.057598
34.19699860 -47.14699936 269.11801147 -0.985293 -0.144160 0.091738
34.17300034 -47.44699860 268.21798706 -0.991976 -0.097029 0.081048
34.20600128 -47.74700165 268.21798706 -0.989908 -0.094222 0.105854
34.15200043 -47.44699860 267.91799927 -0.996733 -0.070192 0.039956
34.17399979 -47.74700165 267.91799927 -0.996784 -0.061824 0.050978
46.31800079 -41.21300125 257.11801147 0.415494 0.860119 -0.295905
46.61800003 -41.38499832 257.11801147 0.497798 0.810700 -0.308161
46.61800003 -41.25000000 257.41799927 0.448680 0.829664 -0.332181
47.51800156 -41.58700180 257.71798706 0.363826 0.856153 -0.366923
47.81800079 -41.70899963 257.71798706 0.394323 0.849430 -0.350682
47.81800079 -41.61700058 258.01800537 0.408451 0.849515 -0.333904
47.51800156 -41.43899918 258.01800537 0.399966 0.839145 -0.368596
34.12599945 -48.04700089 267.01800537 -0.998267 -0.024194 0.053648
34.12900162 -48.34700012 267.01800537 -0.997829 -0.060314 0.026454
34.11199951 -48.04700089 266.71798706 -0.997577 -0.048115 0.050253
34.13000107 -48.34700012 266.71798706 -0.996311 -0.076973 0.037944
34.14500046 -48.64699936 266.41799927 -0.993774 -0.105249 0.036560
34.17599869 -48.94699860 266.41799927 -0.996802 -0.076018 0.024626
34.14400101 -48.64699936 266.11801147 -0.995480 -0.094960 -0.001067
34.16899872 -48.94699860 266.11801147 -0.997174 -0.074762 0.007371
46.91799927 -57.17800140 256.51800537 0.558805 -0.826122 -0.072517
47.21799850 -56.95999908 256.51800537 0.590518 -0.806995 -0.006851
46.91799927 -57.13800049 256.81799316 0.590466 -0.761432 0.267530
47.21799850 -56.87500000 256.81799316 0.646920 -0.713678 0.268623
34.14799881 -48.64699936 265.81799316 -0.989579 -0.136139 0.046905
34.16600037 -48.94699860 265.81799316 -0.997440 -0.070569 0.011586
34.11600113 -48.64699936 265.51800537 -0.985902 -0.145928 0.081862
34.16400146 -48.94699860 265.51800537 -0.990517 -0.100554 0.093619
47.51800156 -56.75099945 256.21798706 0.510738 -0.855946 -0.080643
46.65399933 -57.34700012 256.51800537 0.538290 -0.839391 -0.075275
34.09600067 -49.24700165 264.61801147 -0.994527 -0.079250 0.068088
34.14500046 -49.54700089 264.61801147 -0.994244 -0.086116 0.063748
46.61800003 -57.34299850 256.81799316 0.528771 -0.819979 0.219172
34.08800125 -49.24700165 264.31799316 -0.995700 -0.073715 0.056111
34.11800003 -49.54700089 264.31799316 -0.995906 -0.058195 0.069175
46.91799927 -56.97600174 257.11801147 0.576229 -0.723980 0.379228
46.91799927 -56.82699966 257.41799927 0.566150 -0.756480 0.327432
46.61800003 -57.21400070 257.11801147 0.555623 -0.744633 0.369872
46.31800079 -57.33900070 257.41799927 0.588291 -0.759546 0.277496
46.61800003 -57.04499817 257.41799927 0.607312 -0.714772 0.346803
46.31800079 -57.20700073 257.71798706 0.654240 -0.667358 0.355815
46.45100021 -57.04700089 257.71798706 0.659481 -0.666027 0.348559
46.61800003 -56.91600037 257.71798706 0.560990 -0.763525 0.319877
46.31800079 -57.02700043 258.01800537 0.640274 -0.698628 0.319326
46.61800003 -56.78699875 258.01800537 0.552103 -0.783068 0.286334
46.01800156 -57.34000015 258.01800537 0.592909 -0.738309 0.321496
45.71799850 -57.67800140 257.71798706 0.584717 -0.751322 0.305975
46.01800156 -57.44300079 257.71798706 0.589710 -0.758199 0.278165
45.71799850 -57.52299881 258.01800537 0.563646 -0.773227 0.290556
46.01800156 -57.17699814 258.31799316 0.631326 -0.693317 0.347474
45.71799850 -57.29199982 258.61801147 0.591950 -0.716572 0.368944
46.01800156 -57.01900101 258.61801147 0.595488 -0.722743 0.350767
45.71799850 -57.44599915 258.31799316 0.589643 -0.747095 0.306871
45.11800003 -57.84899902 258.31799316 0.499506 -0.799529 0.333536
45.41799927 -57.67100143 258.31799316 0.541751 -0.773241 0.329552
45.11800003 -57.70700073 258.61801147 0.541445 -0.795689 0.271507
45.41799927 -57.51599884 258.61801147 0.531712 -0.770902 0.350704
37.01800156 -40.98600006 259.81799316 -0.570734 0.767868 -0.290931
37.01800156 -41.06100082 259.51800537 -0.583600 0.761701 -0.281464
37.61800003 -40.00699997 261.01800537 -0.564164 0.773938 -0.287644
37.31800079 -40.18999863 261.01800537 -0.525302 0.795095 -0.303120
37.61800003 -40.11800003 260.71798706 -0.542454 0.776077 -0.321632
37.31800079 -40.33100128 260.71798706 -0.556948 0.760355 -0.334169
37.91799927 -39.54700089 261.61801147 -0.528594 0.762801 -0.372455
38.21799850 -39.41299820 261.31799316 -0.635056 0.746307 -0.199324
37.91799927 -39.66799927 261.31799316 -0.587663 0.767270 -0.256807
38.21799850 -39.07600021 262.21798706 -0.575254 0.752503 -0.320660
37.91799927 -39.27799988 262.21798706 -0.523979 0.796258 -0.302356
38.21799850 -39.18199921 261.91799927 -0.528528 0.787204 -0.317756
38.51800156 -38.32099915 263.41799927 -0.551802 0.767374 -0.326576
38.81800079 -38.23199844 263.11801147 -0.584830 0.737112 -0.338586
38.51800156 -38.40399933 263.11801147 -0.511352 0.794906 -0.326564
38.81800079 -38.09099960 263.41799927 -0.603774 0.720949 -0.340132
38.51800156 -38.14799881 263.71798706 -0.549748 0.745504 -0.376830
45.11800003 -57.68700027 258.91799927 0.540480 -0.757970 0.365189
45.41799927 -57.39899826 258.91799927 0.602596 -0.731839 0.318261
45.11800003 -57.46900177 259.21798706 0.536071 -0.766047 0.354682
38.81800079 -37.81499863 264.01800537 -0.543337 0.760671 -0.355196
38.51800156 -38.00299835 264.01800537 -0.548395 0.761929 -0.344567
38.81800079 -37.95600128 263.71798706 -0.600067 0.729461 -0.328338
38.81800079 -37.54700089 264.70300293 -0.999999 0.000978 0.000978
46.61800003 -40.57300186 258.91799927 0.358516 0.863209 -0.355439
39.11800003 -37.09299850 265.21798706 -0.593544 0.747129 -0.299172
39.41799927 -36.96500015 264.91799927 -0.586049 0.741037 -0.327735
39.11800003 -37.25400162 264.91799927 -0.610340 0.723666 -0.322169
39.41799927 -36.86899948 265.21798706 -0.588291 0.759546 -0.277496
39.41799927 -36.59799957 265.81799316 -0.583301 0.741648 -0.331237
39.11800003 -36.85300064 265.81799316 -0.608912 0.725203 -0.321415
46.31800079 -40.45000076 258.91799927 0.386369 0.854977 -0.346025
39.41799927 -36.75799942 265.51800537 -0.586049 0.741037 -0.327735
46.31800079 -40.29899979 259.21798706 0.417813 0.808412 -0.414611
46.61800003 -40.45600128 259.21798706 0.389420 0.854862 -0.342876
34.09199905 -50.44699860 258.01800537 -0.851189 -0.258260 -0.456922
34.01800156 -50.20299911 258.01800537 -0.868658 -0.242381 -0.432071
34.01800156 -50.44699860 258.15499878 -0.858731 -0.283182 -0.427070
44.54399872 -57.94699860 258.91799927 0.312751 -0.918074 0.243571
44.81800079 -57.85300064 258.91799927 0.449634 -0.845188 0.288940
44.51800156 -57.87400055 259.21798706 0.486494 -0.809767 0.328027
44.81800079 -57.66799927 259.21798706 0.501178 -0.773663 0.387642
34.00400162 -50.14699936 258.01800537 -0.902354 -0.143073 -0.406555
33.99800110 -49.84700012 258.01800537 -0.867308 -0.217201 -0.447884
45.41799927 -57.23099899 259.21798706 0.596206 -0.720347 0.354456
33.88100052 -50.14699936 258.31799316 -0.956990 -0.146924 -0.250167
33.84199905 -49.84700012 258.31799316 -0.963034 -0.131264 -0.235235
33.83000183 -50.14699936 258.61801147 -0.990998 -0.098062 -0.091140
33.80500031 -49.84700012 258.61801147 -0.995463 -0.069451 -0.065041
34.07300186 -49.54700089 257.71798706 -0.694290 -0.384250 -0.608534
34.01800156 -49.54700089 257.79598999 -0.803245 -0.356111 -0.477476
33.90800095 -49.24700165 257.71798706 -0.806004 -0.376562 -0.456682
33.89099884 -49.54700089 258.01800537 -0.869342 -0.293841 -0.397370
33.81000137 -49.24700165 258.01800537 -0.917237 -0.281671 -0.281671
43.31800079 -42.37699890 251.11799622 0.441111 0.806833 -0.392990
43.61800003 -42.51100159 251.11799622 0.414740 0.831058 -0.370585
43.61800003 -42.41299820 251.41799927 0.445218 0.829081 -0.338240
44.51800156 -57.76100159 259.51800537 0.524101 -0.791728 0.313824
44.81800079 -57.56999969 259.51800537 0.502685 -0.811545 0.297829
44.51800156 -57.62099838 259.81799316 0.508246 -0.802743 0.311914
44.81800079 -57.44599915 259.81799316 0.500654 -0.810206 0.304814
34.31800079 -44.86999893 255.31799316 -0.590842 0.771681 -0.235402
38.81800079 -43.37099838 250.81799316 -0.644789 0.680701 -0.347696
38.81800079 -43.07799911 251.41799927 -0.601978 0.753658 -0.263859
38.58700180 -43.24700165 251.41799927 -0.574403 0.788063 -0.221401
39.11800003 -42.37500000 252.61799622 -0.648473 0.655074 -0.387764
40.01800156 -40.90200043 254.41799927 -0.694645 0.678893 -0.237849
40.01800156 -41.01800156 254.11799622 -0.637350 0.692772 -0.337421
40.57600021 -40.24700165 255.01800537 -0.644133 0.720100 -0.257970
40.67800140 -40.24700165 254.71800232 -0.644675 0.732088 -0.220095
40.31800079 -40.19800186 255.61799622 -0.605974 0.713775 -0.351171
40.61800003 -40.09299850 255.31799316 -0.644580 0.699506 -0.308558
40.45600128 -40.24700165 255.31799316 -0.635912 0.694461 -0.336659
40.61800003 -39.94300079 255.61799622 -0.615810 0.719253 -0.321643
40.91799927 -39.68899918 255.61799622 -0.563646 0.773227 -0.290556
34.31800079 -44.93500137 255.01800537 -0.670407 0.692701 -0.265933
41.21799850 -39.68999863 255.31799316 -0.367898 0.855323 -0.364793
40.91799927 -39.81900024 255.31799316 -0.536782 0.772128 -0.340123
40.74499893 -39.64699936 256.21798706 -0.567510 0.795130 -0.213778
40.61800003 -39.72299957 256.21798706 -0.543519 0.802042 -0.247621
40.31800079 -39.92699814 256.21798706 -0.545007 0.778354 -0.311661
40.61800003 -39.83499908 255.91799927 -0.579191 0.766436 -0.277694
40.91799927 -39.49300003 256.21798706 -0.639342 0.721838 -0.264938
40.91799927 -39.60300064 255.91799927 -0.580879 0.780216 -0.232040
40.91799927 -39.23099899 256.81799316 -0.581297 0.739979 -0.338415
40.91799927 -39.34700012 256.55099487 -0.583136 0.744670 -0.324683
44.21799850 -57.82199860 259.81799316 0.560749 -0.768434 0.308332
34.47399902 -44.74700165 255.31799316 -0.611747 0.736332 -0.289102
34.61800003 -44.62699890 255.31799316 -0.579512 0.758315 -0.298537
34.61800003 -44.50899887 255.61799622 -0.551100 0.779798 -0.296990
44.21799850 -57.96099854 259.51800537 0.539071 -0.770791 0.339534
43.91799927 -58.05899811 259.81799316 0.593020 -0.760647 0.264091
34.91799927 -44.41699982 255.31799316 -0.565243 0.784451 -0.255221
35.21799850 -44.19499969 255.31799316 -0.601534 0.756259 -0.257349
34.91799927 -44.31399918 255.61799622 -0.562128 0.767121 -0.309091
44.21799850 -57.72000122 260.11801147 0.571544 -0.776230 0.266091
43.91799927 -57.87900162 260.41799927 0.592543 -0.710724 0.379162
44.21799850 -57.59600067 260.41799927 0.549943 -0.789460 0.272608
35.21799850 -44.06600189 255.61799622 -0.597610 0.715495 -0.361841
43.91799927 -57.99100113 260.11801147 0.598167 -0.766840 0.232707
35.51800156 -43.93700027 255.31799316 -0.600511 0.747055 -0.285123
35.81800079 -43.69400024 255.31799316 -0.583879 0.753444 -0.302337
35.51800156 -43.83200073 255.61799622 -0.572814 0.758938 -0.309672
35.81800079 -43.61600113 255.61799622 -0.598727 0.751188 -0.277924
35.51800156 -43.69499969 255.91799927 -0.517999 0.784215 -0.341591
36.71799850 -42.78400040 255.91799927 -0.570081 0.759572 -0.313143
43.31800079 -58.44599915 260.11801147 0.490714 -0.782227 0.383825
43.61800003 -58.17900085 260.11801147 0.569498 -0.772550 0.280783
43.31800079 -58.26900101 260.41799927 0.511089 -0.802236 0.308552
43.61800003 -58.10900116 260.41799927 0.507456 -0.800157 0.319745
37.01800156 -42.55500031 255.91799927 -0.572031 0.747044 -0.338682
43.31800079 -58.18000031 260.71798706 0.519892 -0.819176 0.242205
36.71799850 -42.63499832 256.21798706 -0.592312 0.746410 -0.303379
37.01800156 -42.40700150 256.21798706 -0.567041 0.765106 -0.305084
43.54700089 -57.94699860 260.71798706 0.556291 -0.745528 0.367054
43.61800003 -57.80699921 261.01800537 0.548034 -0.783133 0.293873
37.10800171 -42.34700012 256.21798706 -0.533643 0.785332 -0.313814
37.01800156 -42.34700012 256.43798828 -0.582741 0.785701 -0.207573
37.31800079 -42.32300186 255.91799927 -0.544589 0.772706 -0.326111
37.61800003 -42.13399887 255.91799927 -0.597351 0.730096 -0.331862
37.61800003 -41.97000122 256.21798706 -0.605677 0.694796 -0.387832
43.01800156 -58.28499985 260.71798706 0.316715 -0.909278 0.270010
42.71799850 -57.96699905 261.01800537 -0.292088 -0.919430 0.263311
43.01800156 -58.05899811 261.01800537 -0.287138 -0.934248 0.211501
37.91799927 -41.84700012 255.91799927 -0.626077 0.710201 -0.321936
38.21799850 -41.62599945 255.91799927 -0.514112 0.818541 -0.256279
43.01800156 -57.99100113 261.31799316 -0.264099 -0.945555 0.190206
37.91799927 -41.70899963 256.21798706 -0.560990 0.763525 -0.319877
42.71799850 -57.91799927 261.31799316 -0.347347 -0.924864 0.154842
38.21799850 -41.53400040 256.21798706 -0.523156 0.798169 -0.298721
43.12699890 -57.94699860 261.31799316 0.392597 -0.843066 0.367570
42.41799927 -57.78699875 261.31799316 -0.396977 -0.899333 0.183331
42.11800003 -57.64400101 261.31799316 -0.468265 -0.839168 0.276632
42.41799927 -57.74800110 261.61801147 -0.454158 -0.828171 0.328440
42.11800003 -57.53200150 261.61801147 -0.475295 -0.791085 0.385070
42.11800003 -57.86899948 260.71798706 -0.388613 -0.835440 0.388613
42.11800003 -57.73699951 261.01800537 -0.358694 -0.871551 0.334272
42.41799927 -57.85699844 261.01800537 -0.373578 -0.865532 0.333607
39.71799850 -56.03200150 262.21798706 -0.389637 -0.834486 0.389637
40.01800156 -56.11899948 262.21798706 -0.409680 -0.839765 0.356311
39.71799850 -56.15999985 261.91799927 -0.416599 -0.834771 0.360005
40.01800156 -56.27799988 261.91799927 -0.433297 -0.800553 0.413968
35.51800156 -48.34700012 252.27999878 -0.003906 -0.425731 -0.904841
35.81800079 -48.34700012 252.29200745 0.017187 -0.440259 -0.897706
35.51800156 -48.04700089 252.11700439 -0.025072 -0.415660 -0.909174
35.81800079 -48.04700089 252.13499451 0.006482 -0.405769 -0.913953
40.01800156 -56.00400162 262.51800537 -0.454873 -0.809195 0.371879
39.71799850 -55.83000183 262.51800537 -0.392817 -0.822212 0.411901
40.01800156 -55.88399887 262.81799316 -0.461512 -0.823792 0.329202
39.71799850 -55.71300125 262.81799316 -0.440233 -0.848027 0.295033
41.21799850 -42.64699936 249.86700439 -0.068043 -0.039962 -0.996882
41.21799850 -42.94699860 249.89199829 -0.023699 -0.141066 -0.989717
40.91799927 -42.64699936 249.91799927 -0.182373 0.038828 -0.982462
40.91799927 -42.94699860 249.93200684 -0.079101 -0.102029 -0.991632
39.11800003 -55.62300110 262.51800537 -0.402851 -0.829398 0.387053
39.41799927 -55.72900009 262.51800537 -0.318945 -0.858225 0.402149
39.41799927 -55.57099915 262.81799316 -0.371248 -0.841181 0.393178
39.41799927 -55.95899963 261.91799927 -0.444886 -0.821693 0.356225
39.11800003 -55.81900024 261.91799927 -0.399163 -0.852687 0.337037
39.41799927 -55.86999893 262.21798706 -0.401683 -0.845565 0.351668
39.11800003 -55.72399902 262.21798706 -0.413988 -0.857216 0.306259
34.01800156 -51.64699936 259.81799316 -0.987528 -0.105258 0.117084
40.61800003 -43.24700165 249.97900391 -0.127194 -0.190162 -0.973478
40.31800079 -43.24700165 250.04400635 -0.161815 -0.169459 -0.972162
34.05400085 -51.94699860 259.81799316 -0.991018 -0.088628 0.100138
40.61800003 -43.54700089 250.07000732 -0.113716 -0.363069 -0.924797
40.31800079 -43.54700089 250.12300110 -0.065455 -0.293906 -0.953590
33.97200012 -51.64699936 259.51800537 -0.982836 -0.095269 0.157977
34.01399994 -51.94699860 259.51800537 -0.982009 -0.120769 0.145167
39.11800003 -55.44100189 262.81799316 -0.393830 -0.817955 0.419341
38.81800079 -43.84700012 250.42500305 -0.215046 0.012926 -0.976518
38.51800156 -43.84700012 250.44099426 -0.342929 0.345977 -0.873326
38.81800079 -44.14699936 250.43200684 -0.132437 -0.127577 -0.982947
38.51800156 -44.14699936 250.47200012 -0.115622 -0.089929 -0.989214
38.51800156 -43.54999924 250.81799316 -0.550828 0.684767 -0.477161
38.51800156 -55.26200104 262.51800537 -0.445386 -0.822618 0.353456
38.81800079 -55.43199921 262.51800537 -0.462835 -0.805557 0.369948
38.81800079 -55.30099869 262.81799316 -0.428238 -0.816677 0.386847
38.51800156 -55.12400055 262.81799316 -0.417832 -0.830934 0.367377
37.91799927 -54.95600128 262.51800537 -0.408530 -0.831256 0.376983
38.21799850 -55.11600113 262.51800537 -0.420122 -0.841806 0.338909
38.21799850 -54.99300003 262.81799316 -0.411028 -0.842374 0.348514
38.51800156 -55.00099945 263.11801147 -0.390068 -0.841231 0.374403
38.81800079 -55.15100098 263.11801147 -0.415620 -0.820094 0.393327
38.81800079 -54.99800110 263.41799927 -0.443130 -0.834588 0.327259
48.41799927 -50.97900009 268.81799316 0.617393 -0.735447 0.279183
48.11800003 -51.24100113 268.81799316 0.584795 -0.772933 0.246147
48.41799927 -51.02999878 268.51800537 0.589851 -0.773499 0.231894
48.11800003 -51.31800079 268.51800537 0.602588 -0.764524 0.228890
37.01800156 -41.19900131 259.21798706 -0.551220 0.766565 -0.329446
36.71799850 -41.41199875 259.21798706 -0.559085 0.772525 -0.301046
37.01800156 -41.32699966 258.91799927 -0.557725 0.771866 -0.305231
36.71799850 -41.52999878 258.91799927 -0.567041 0.765106 -0.305084
49.31800079 -50.75400162 267.61801147 0.585288 -0.752056 0.303067
33.96200180 -52.24700165 258.61801147 -0.998360 -0.057020 0.005184
49.31800079 -50.88399887 267.31799316 0.555441 -0.808053 0.196307
34.01200104 -52.54700089 258.61801147 -0.994711 -0.099581 -0.025169
49.61800003 -50.52199936 267.61801147 0.547650 -0.764126 0.340868
33.99300003 -52.24700165 258.31799316 -0.997543 -0.069985 0.003134
49.61800003 -50.68999863 267.31799316 0.573398 -0.767178 0.287493
34.02000046 -52.54700089 258.31799316 -0.998809 -0.032354 0.036529
38.51800156 -54.86600113 263.41799927 -0.401880 -0.821232 0.405056
37.91799927 -54.70399857 263.11801147 -0.451056 -0.814451 0.364989
38.21799850 -54.86600113 263.11801147 -0.415934 -0.827123 0.377978
38.21799850 -54.71500015 263.41799927 -0.397019 -0.814766 0.422530
37.91799927 -54.58499908 263.41799927 -0.391857 -0.847723 0.357511
37.91799927 -54.83100128 262.81799316 -0.433798 -0.828159 0.354925
35.21799850 -46.84700012 251.64300537 -0.051765 -0.388901 -0.919824
34.91799927 -46.84700012 251.66099548 -0.035429 -0.384467 -0.922459
33.96599960 -52.24700165 258.01800537 -0.996830 -0.037718 0.070048
33.99399948 -52.54700089 258.01800537 -0.996817 -0.059528 0.053034
35.21799850 -47.14699936 251.76300049 -0.035589 -0.399389 -0.916090
34.91799927 -47.14699936 251.76800537 0.019381 -0.375994 -0.926419
33.93600082 -52.24700165 257.71798706 -0.995934 -0.038096 0.081634
33.97999954 -52.54700089 257.71798706 -0.993189 -0.100106 0.059614
33.98600006 -52.84700012 257.41799927 -0.991267 -0.055766 0.119498
33.99300003 -53.14699936 257.41799927 -0.995178 -0.025070 0.094831
33.92399979 -52.84700012 257.11801147 -0.997027 0.015927 0.075388
33.94300079 -53.14699936 257.11801147 -0.993015 -0.071334 0.093980
33.90499878 -52.84700012 256.81799316 -0.997164 0.059291 0.046355
33.94300079 -53.14699936 256.81799316 -0.993350 -0.099896 0.057244
33.90999985 -52.84700012 256.51800537 -0.994915 0.100246 -0.009701
33.90999985 -53.14699936 256.51800537 -0.996372 -0.064388 0.055657
40.31800079 -42.50699997 250.21800232 -0.314440 0.394200 -0.863559
40.61800003 -42.64699936 250.00100708 -0.352023 0.271815 -0.895654
40.61800003 -42.94699860 249.94599915 -0.151459 -0.010097 -0.988412
40.31800079 -42.94699860 249.99600220 -0.253902 0.121092 -0.959620
40.01800156 -42.64699936 250.18200684 -0.152674 0.323228 -0.933924
40.01800156 -42.94699860 250.07800293 -0.189581 0.161208 -0.968541
39.71799850 -42.94699860 250.14700317 -0.235207 0.148482 -0.960537
40.01800156 -43.24700165 250.10099792 -0.161398 -0.100722 -0.981736
39.71799850 -43.24700165 250.13299561 -0.201463 -0.039339 -0.978706
40.01800156 -43.54700089 250.13000488 -0.088335 -0.170620 -0.981369
39.71799850 -43.54700089 250.16700745 -0.180368 -0.118172 -0.976475
33.90999985 -53.44699860 256.21798706 -0.998806 -0.042613 0.023905
33.92599869 -53.74700165 256.21798706 -0.995919 -0.075598 0.049303
33.92699814 -53.44699860 255.91799927 -0.998961 -0.032225 -0.032225
33.93000031 -53.74700165 255.91799927 -0.997954 -0.056089 -0.030690
33.93999863 -53.44699860 255.61799622 -0.995773 -0.087767 0.027088
33.93799973 -53.74700165 255.61799622 -0.999182 -0.039804 -0.007144
50.97000122 -42.94699860 269.41799927 0.989729 0.135845 0.044521
50.88899994 -42.64699936 269.11801147 0.996475 0.074817 -0.037951
33.90999985 -53.44699860 255.31799316 -0.986863 -0.142325 0.076455
50.90499878 -42.94699860 269.11801147 0.990305 0.112088 -0.082044
33.93799973 -53.74700165 255.31799316 -0.998306 -0.055403 -0.017771
39.11800003 -43.02899933 250.81799316 -0.618388 0.703232 -0.350800
39.41799927 -42.98600006 250.51800537 -0.497489 0.776213 -0.387296
39.11800003 -43.17800140 250.51800537 -0.599653 0.565870 -0.565870
50.95399857 -43.24700165 269.41799927 0.985505 -0.089375 0.144191
50.92699814 -43.54700089 269.41799927 0.999757 -0.011053 0.019091
50.95899963 -43.24700165 269.11801147 0.993586 -0.020906 -0.111132
50.90700150 -43.54700089 269.11801147 0.996348 -0.066569 -0.053473
39.41799927 -43.54700089 250.23199463 -0.250130 -0.043126 -0.967251
39.11800003 -43.54700089 250.28199768 -0.362772 0.177829 -0.914753
