70.01799774 -38.49900055 350.71798706 -0.412984 -0.875526 0.250794
77.81800079 -36.64699936 333.31399536 -0.021922 -0.367519 -0.929758
79.14800262 -30.64699936 333.91799927 0.626844 0.562639 -0.538984
81.72299957 -32.14699936 334.81799316 0.784216 0.480231 -0.392916
81.11799622 -31.01600075 336.01800537 0.565363 0.758649 -0.323755
81.41799927 -31.25000000 336.01800537 0.564506 0.771227 -0.294179
81.11799622 -31.14399910 335.71798706 0.546618 0.774242 -0.318994
81.41799927 -31.36700058 335.71798706 0.554971 0.772482 -0.308673
80.81800079 -31.06599998 335.41799927 0.536791 0.777145 -0.328484
80.81800079 -31.20299911 335.11801147 0.548122 0.744464 -0.381231
80.51799774 -30.98500061 335.11801147 0.554189 0.752462 -0.355916
80.51799774 -30.85600090 335.41799927 0.552451 0.770229 -0.318660
80.81800079 -30.94899940 335.71798706 0.534696 0.775551 -0.335590
79.61799622 -29.94300079 336.01800537 0.567899 0.740384 -0.359615
79.31800079 -29.87800026 335.71798706 0.559523 0.730169 -0.392158
79.61799622 -30.09799957 335.71798706 0.541119 0.758866 -0.362371
79.91799927 -29.91500092 336.61801147 0.532397 0.776882 -0.336166
80.21800232 -30.08099937 336.61801147 0.528066 0.773528 -0.350429
79.91799927 -30.03499985 336.31799316 0.544897 0.761563 -0.350869
80.21800232 -30.25799942 336.31799316 0.529261 0.757250 -0.382696
70.65200043 -38.44699860 350.41799927 0.526679 -0.807991 -0.264121
79.61799622 -29.81299973 336.31799316 0.572495 0.753113 -0.324145
79.31800079 -29.70599937 336.01800537 0.561390 0.746893 -0.356361
70.31800079 -38.67399979 350.41799927 0.177819 -0.982179 0.060864
70.61799622 -38.46400070 350.11801147 0.526770 -0.795692 0.298978
79.31800079 -29.43300056 336.61801147 0.569317 0.744492 -0.348727
79.61799622 -29.67700005 336.61801147 0.578988 0.746717 -0.327394
79.31800079 -29.58799934 336.31799316 0.556345 0.759532 -0.337032
70.31800079 -38.64799881 350.11801147 0.199745 -0.934471 0.294729
81.71800232 -30.94499969 337.21798706 0.493075 0.806995 -0.325017
69.11799622 -42.89300156 339.61801147 -0.564885 -0.752641 0.338284
69.41799927 -43.11999893 339.61801147 -0.554988 -0.755625 0.347879
69.11799622 -43.03499985 339.31799316 -0.567548 -0.757267 0.323165
69.41799927 -43.25699997 339.31799316 -0.555233 -0.769645 0.315219
69.71800232 -43.33700180 339.61801147 -0.554251 -0.757854 0.344185
69.71800232 -43.46500015 339.31799316 -0.549418 -0.773670 0.315555
79.61799622 -34.84700012 332.50299072 0.009048 -0.394215 -0.918974
79.31800079 -34.84700012 332.50799561 -0.035343 -0.383538 -0.922848
79.61799622 -35.14699936 332.63598633 0.006500 -0.417317 -0.908738
79.31800079 -35.14699936 332.64498901 -0.016994 -0.411772 -0.911128
79.01799774 -34.84700012 332.52899170 -0.062755 -0.380537 -0.922634
78.71800232 -34.84700012 332.54998779 -0.059886 -0.381940 -0.922245
79.01799774 -35.14699936 332.65200806 -0.046372 -0.393496 -0.918156
78.71800232 -35.14699936 332.67800903 -0.051544 -0.379313 -0.923832
72.71800232 -43.36100006 344.11801147 -0.342460 -0.853827 0.392047
72.71800232 -43.22800064 344.41799927 -0.380594 -0.844198 0.377462
70.31800079 -42.29100037 342.91799927 -0.557099 -0.757332 0.340719
70.31800079 -42.16199875 343.21798706 -0.554988 -0.755625 0.347879
70.01799774 -42.06900024 342.91799927 -0.554612 -0.766811 0.323121
69.71800232 -41.86100006 342.91799927 -0.556602 -0.768336 0.315996
70.01799774 -41.94599915 343.21798706 -0.542689 -0.768138 0.339784
81.67299652 -32.44699860 334.21798706 0.959718 0.191944 -0.205181
81.60900116 -32.74700165 334.21798706 0.962966 -0.267559 0.033291
81.41799927 -32.23899841 333.91799927 0.654558 0.696373 -0.294310
81.60500336 -32.44699860 333.91799927 0.873617 0.439041 -0.209847
81.64900208 -32.74700165 333.91799927 0.997469 -0.062942 0.033071
81.41799927 -32.11999893 334.21798706 0.681431 0.658770 -0.318864
81.11799622 -31.86100006 334.21798706 0.586827 0.738787 -0.331403
81.11799622 -31.98200035 333.91799927 0.593076 0.735285 -0.328050
80.81800079 -31.62199974 334.21798706 0.563353 0.757056 -0.330909
80.81800079 -31.75099945 333.91799927 0.555716 0.753376 -0.351575
80.51799774 -31.14200020 334.81799316 0.560575 0.740351 -0.370993
80.81800079 -31.37100029 334.81799316 0.549940 0.754342 -0.358515
80.81800079 -31.48699951 334.51800537 0.559932 0.756795 -0.337250
80.51799774 -31.27400017 334.51800537 0.547045 0.763282 -0.343719
80.51799774 -31.41399956 334.21798706 0.528784 0.771345 -0.354140
80.51799774 -31.54400063 333.91799927 0.499906 0.778172 -0.380188
80.21800232 -31.06200027 334.51800537 0.565021 0.740878 -0.363112
80.21800232 -31.20499992 334.21798706 0.537218 0.752759 -0.380462
79.91799927 -30.97500038 334.21798706 0.523171 0.746216 -0.411649
79.91799927 -31.15500069 333.91799927 0.449097 0.727504 -0.518699
80.21800232 -31.35600090 333.91799927 0.483228 0.758422 -0.437362
80.21800232 -30.90699959 334.81799316 0.565021 0.740878 -0.363112
79.91799927 -30.68499947 334.81799316 0.527437 0.780734 -0.335059
79.91799927 -30.82200050 334.51800537 0.540202 0.752366 -0.376999
67.91799927 -38.06900024 349.21798706 -0.175778 -0.907474 0.381568
79.01799774 -29.80500031 335.41799927 0.579250 0.738260 -0.345603
79.01799774 -29.92600060 335.11801147 0.568462 0.749852 -0.338486
70.91799927 -40.41999817 348.01800537 -0.578582 -0.731784 0.360188
71.21800232 -40.66899872 348.01800537 -0.547782 -0.761078 0.347413
71.21800232 -40.76900101 347.71798706 -0.530554 -0.788662 0.310685
70.91799927 -40.58300018 347.71798706 -0.546136 -0.768457 0.333481
71.81800079 -41.20199966 347.71798706 -0.534814 -0.788731 0.303114
71.81800079 -41.11899948 348.01800537 -0.560463 -0.771236 0.301788
71.51799774 -40.87599945 348.01800537 -0.566321 -0.753482 0.333984
71.51799774 -40.97999954 347.71798706 -0.563762 -0.762926 0.316413
79.01799774 -30.20400047 334.51800537 0.573444 0.747901 -0.334375
72.41799927 -40.68600082 349.81799316 -0.493130 -0.769804 0.405246
72.41799927 -40.84500122 349.51800537 -0.503133 -0.789259 0.352032
72.11799622 -40.62699890 349.51800537 -0.533213 -0.763353 0.364659
79.01799774 -30.07900047 334.81799316 0.566930 0.754291 -0.331113
72.11799622 -40.75999832 349.21798706 -0.514347 -0.786743 0.341296
72.41799927 -40.94200134 349.21798706 -0.493582 -0.807824 0.322177
72.41799927 -41.07699966 348.91799927 -0.509768 -0.786362 0.348958
72.11799622 -40.89599991 348.91799927 -0.500246 -0.797516 0.337226
72.11799622 -42.73600006 344.71798706 -0.529919 -0.758191 0.379911
72.41799927 -42.94400024 344.71798706 -0.477476 -0.803245 0.356111
72.41799927 -42.80599976 345.01800537 -0.505528 -0.787982 0.351462
72.11799622 -42.59199905 345.01800537 -0.534696 -0.775551 0.335590
79.31800079 -30.28000069 334.81799316 0.545514 0.762424 -0.348028
70.91799927 -42.17300034 344.11801147 -0.541998 -0.762033 0.354321
71.21800232 -42.23500061 344.41799927 -0.546788 -0.745917 0.380303
70.91799927 -42.02299881 344.41799927 -0.534626 -0.770443 0.347265
70.61799622 -41.95700073 344.11801147 -0.548372 -0.753401 0.362869
70.61799622 -41.81499863 344.41799927 -0.559945 -0.751462 0.348951
70.31800079 -41.72600174 344.11801147 -0.535218 -0.759717 0.369284
70.31800079 -41.58200073 344.41799927 -0.520036 -0.780859 0.346154
70.61799622 -42.23899841 343.51800537 -0.548407 -0.750195 0.369402
70.31800079 -42.00799942 343.51800537 -0.541279 -0.764253 0.350619
70.61799622 -42.09500122 343.81799316 -0.536192 -0.771279 0.342969
70.31800079 -41.88700104 343.81799316 -0.539707 -0.763369 0.354942
70.01799774 -41.81100082 343.51800537 -0.544778 -0.764629 0.344325
69.71800232 -41.58100128 343.51800537 -0.573606 -0.739351 0.352613
70.01799774 -41.67100143 343.81799316 -0.544897 -0.761563 0.350869
69.71800232 -41.44599915 343.81799316 -0.583136 -0.744670 0.324683
79.31800079 -30.43600082 334.51800537 0.549940 0.754342 -0.358515
79.61799622 -30.62100029 334.51800537 0.503590 0.775626 -0.380527
79.61799622 -30.49500084 334.81799316 0.520158 0.785839 -0.334502
69.71800232 -41.72900009 343.21798706 -0.566383 -0.748145 0.345672
69.41799927 -41.34099960 343.51800537 -0.556973 -0.743175 0.370771
69.41799927 -41.19800186 343.81799316 -0.573861 -0.753896 0.319883
69.41799927 -41.63299942 342.91799927 -0.556177 -0.762527 0.330482
69.11799622 -41.42599869 342.91799927 -0.508319 -0.790540 0.341552
69.41799927 -41.49300003 343.21798706 -0.548372 -0.753401 0.362869
69.11799622 -41.29399872 343.21798706 -0.507271 -0.773061 0.380858
68.81800079 -41.23899841 342.91799927 -0.498888 -0.790841 0.354515
68.51799774 -41.05300140 342.91799927 -0.463643 -0.818100 0.340216
68.51799774 -40.93500137 343.21798706 -0.462703 -0.812514 0.354580
68.81800079 -41.10599899 343.21798706 -0.473309 -0.800615 0.367416
80.21800232 -29.15999985 338.71798706 0.523632 0.766804 -0.371243
79.91799927 -28.82099915 339.01800537 0.500430 0.794612 -0.343746
80.21800232 -29.01899910 339.01800537 0.530887 0.764672 -0.365289
79.91799927 -28.94499969 338.71798706 0.530389 0.772208 -0.349831
71.81800079 -45.34700012 337.28201294 -0.201887 -0.602578 -0.772102
71.81800079 -45.04700089 337.12600708 -0.041847 -0.449520 -0.892290
71.51799774 -45.04700089 337.12298584 -0.148633 -0.605040 -0.782199
72.41799927 -45.34700012 337.27600098 -0.038765 -0.423738 -0.904955
72.11799622 -45.34700012 337.25100708 -0.023078 -0.506351 -0.862019
72.41799927 -45.04700089 337.12899780 -0.009234 -0.444554 -0.895704
72.11799622 -45.04700089 337.10501099 0.019902 -0.444469 -0.895573
72.41799927 -44.44699860 336.83599854 0.022179 -0.397912 -0.917155
72.11799622 -44.44699860 336.82598877 0.011552 -0.378658 -0.925465
72.41799927 -44.74700165 336.96701050 0.036145 -0.432405 -0.900955
72.11799622 -44.74700165 336.95800781 -0.017144 -0.428590 -0.903336
73.01799774 -44.44699860 336.83300781 0.022380 -0.414691 -0.909687
72.71800232 -44.44699860 336.84600830 -0.009086 -0.408890 -0.912538
73.01799774 -44.74700165 336.96398926 0.055568 -0.429638 -0.901290
72.71800232 -44.74700165 336.97799683 -0.009108 -0.409861 -0.912103
73.31800079 -44.44699860 336.83599854 0.121579 -0.470583 -0.873940
73.01799774 -44.14699936 336.70599365 0.016949 -0.405475 -0.913949
72.71800232 -44.14699936 336.70401001 -0.003895 -0.414191 -0.910182
73.01799774 -43.84700012 336.56698608 0.025012 -0.414665 -0.909630
72.71800232 -43.84700012 336.56698608 -0.030135 -0.394373 -0.918456
73.88800049 -44.14699936 337.21798706 0.863422 -0.488648 0.125405
73.61799622 -44.14699936 336.72500610 0.248069 -0.452003 -0.856828
73.31800079 -44.14699936 336.71600342 0.022141 -0.389417 -0.920795
73.61799622 -43.84700012 336.58801270 0.082305 -0.467325 -0.880246
73.31800079 -43.84700012 336.58898926 0.022409 -0.417866 -0.908232
73.61799622 -43.54700089 336.43701172 0.001302 -0.430994 -0.902354
73.31800079 -43.54700089 336.44299316 0.011770 -0.422427 -0.906321
74.47200012 -43.24700165 337.21798706 0.832037 -0.516803 0.201568
74.30500031 -43.54700089 337.21798706 0.827037 -0.531774 0.182280
74.36699677 -43.54700089 336.91799927 0.833295 -0.550395 0.051818
73.91799927 -43.84700012 336.59698486 0.402122 -0.594082 -0.696681
74.29699707 -43.54700089 336.61801147 0.628407 -0.621704 -0.467535
73.91799927 -43.54700089 336.44699097 0.153783 -0.481854 -0.862651
74.56600189 -43.24700165 336.61801147 0.712304 -0.678603 -0.179225
74.51799774 -43.12200165 336.31799316 0.416650 -0.692203 -0.589286
77.51799774 -34.84700012 332.62799072 0.090535 -0.303096 -0.948650
77.81800079 -34.84700012 332.64700317 -0.041796 -0.204205 -0.978035
74.81800079 -42.64699936 336.06799316 0.339278 -0.535448 -0.773425
74.51799774 -42.64699936 336.01901245 0.044152 -0.421447 -0.905777
74.51799774 -42.94699860 336.18399048 0.229819 -0.535217 -0.812851
76.91799927 -35.14699936 332.70999146 0.006441 -0.395465 -0.918458
77.21800232 -35.14699936 332.71398926 0.043543 -0.383970 -0.922319
76.91799927 -34.84700012 332.58200073 0.006412 -0.380871 -0.924606
75.03199768 -42.64699936 336.61801147 0.667184 -0.744860 -0.006935
77.21800232 -34.84700012 332.59100342 0.079083 -0.368609 -0.926214
74.79100037 -42.94699860 336.61801147 0.784615 -0.618990 0.035090
75.01300049 -42.64699936 336.31799316 0.670742 -0.686750 -0.280143
74.81800079 -42.87200165 336.31799316 0.637481 -0.640810 -0.427762
79.61799622 -28.62800026 339.01800537 0.543239 0.773996 -0.325303
75.41799927 -42.25699997 336.31799316 0.477737 -0.785433 -0.393526
75.41799927 -42.10699844 336.01800537 0.389624 -0.715133 -0.580326
75.11799622 -42.33800125 336.01800537 0.485411 -0.629859 -0.606344
75.11799622 -42.04700089 335.76000977 0.190312 -0.502004 -0.843667
75.71800232 -41.74700165 335.78698730 0.146520 -0.711455 -0.687287
76.91799927 -35.74700165 332.96701050 0.006412 -0.380871 -0.924606
79.61799622 -30.37299919 335.11801147 0.543281 0.768976 -0.336931
77.21800232 -35.74700165 332.98199463 -0.011454 -0.360149 -0.932824
76.91799927 -35.44699860 332.84100342 0.014285 -0.396072 -0.918108
77.21800232 -35.44699860 332.85198975 0.003855 -0.394537 -0.918872
79.61799622 -28.74900055 338.71798706 0.539630 0.776619 -0.325059
76.31800079 -35.74700165 332.98300171 -0.022079 -0.383138 -0.923427
76.61799622 -35.74700165 332.96398926 -0.014265 -0.392940 -0.919454
76.31800079 -35.44699860 332.84201050 0.001295 -0.413217 -0.910632
76.61799622 -35.44699860 332.84100342 -0.009060 -0.397337 -0.917628
75.71800232 -35.74700165 332.98999023 -0.014285 -0.396072 -0.918108
76.01799774 -35.74700165 332.98901367 -0.009060 -0.397337 -0.917628
75.71800232 -35.44699860 332.85800171 -0.024879 -0.402000 -0.915302
76.01799774 -35.44699860 332.83700562 -0.017034 -0.412755 -0.910683
75.71800232 -36.34700012 333.26300049 -0.017103 -0.427571 -0.903820
76.01799774 -36.34700012 333.25100708 -0.030570 -0.423997 -0.905147
75.71800232 -36.04700089 333.10900879 -0.016967 -0.403293 -0.914914
76.01799774 -36.04700089 333.10000610 -0.016904 -0.399192 -0.916712
79.01799774 -28.01799965 339.31799316 0.564262 0.746387 -0.352867
75.11799622 -36.34700012 333.26800537 -0.009133 -0.421439 -0.906811
75.41799927 -36.34700012 333.26400757 -0.009155 -0.422438 -0.906345
75.11799622 -36.04700089 333.11599731 -0.016994 -0.411772 -0.911128
75.41799927 -36.04700089 333.11499023 -0.009108 -0.409861 -0.912103
75.11799622 -36.94699860 333.51000977 0.003850 -0.391437 -0.920197
75.41799927 -36.94699860 333.52499390 0.016858 -0.392924 -0.919416
75.11799622 -36.64699936 333.39700317 -0.014186 -0.380452 -0.924692
75.41799927 -36.64699936 333.39599609 0.003859 -0.392363 -0.919802
80.21800232 -28.35300064 340.51800537 0.540410 0.769480 -0.340378
79.91799927 -28.13800049 340.51800537 0.551990 0.764418 -0.333125
79.91799927 -28.00499916 340.81799316 0.564979 0.744080 -0.356572
80.21800232 -28.23200035 340.81799316 0.532397 0.776882 -0.336166
74.51799774 -36.94699860 333.52200317 -0.006509 -0.420452 -0.907291
74.81800079 -36.94699860 333.52301025 -0.022232 -0.398867 -0.916739
74.51799774 -36.64699936 333.38101196 0.001290 -0.403862 -0.914819
74.81800079 -36.64699936 333.40200806 0.016921 -0.397002 -0.917661
79.31800079 -30.14399910 335.11801147 0.549153 0.764949 -0.336578
80.21800232 -28.09199905 341.11801147 0.551689 0.738314 -0.387983
80.51799774 -28.42000008 340.81799316 0.548198 0.770050 -0.326347
74.51799774 -37.54700089 333.78799438 -0.014231 -0.392005 -0.919853
74.81800079 -37.54700089 333.78500366 -0.019517 -0.391645 -0.919910
74.51799774 -37.24700165 333.66699219 -0.019550 -0.400127 -0.916251
74.81800079 -37.24700165 333.66598511 -0.016944 -0.400146 -0.916295
80.21800232 -29.30599976 338.41799927 0.530194 0.766917 -0.361570
79.61799622 -30.23299980 335.41799927 0.536782 0.772128 -0.340123
79.31800079 -30.03000069 335.41799927 0.549746 0.765776 -0.333717
79.91799927 -29.22500038 338.11801147 0.563983 0.760011 -0.322965
73.52899933 -39.04700089 351.61801147 0.837660 -0.512823 0.187985
73.33399963 -39.34700012 351.61801147 0.830421 -0.521849 0.195126
73.61199951 -39.04700089 351.31799316 0.832787 -0.489784 0.258025
73.43399811 -39.34700012 351.31799316 0.812197 -0.511731 0.280122
73.91300201 -38.44699860 351.61801147 0.797066 -0.550615 0.248011
73.70200348 -38.74700165 351.61801147 0.830733 -0.519019 0.201252
73.79900360 -38.74700165 351.31799316 0.801090 -0.538745 0.260784
80.21800232 -29.44799995 338.11801147 0.549153 0.764949 -0.336578
73.91799927 -36.94699860 333.54000854 -0.035867 -0.413136 -0.909963
74.21800232 -36.94699860 333.54000854 -0.027780 -0.421998 -0.906171
74.21800232 -36.64699936 333.39498901 -0.043727 -0.393543 -0.918266
73.91799927 -37.54700089 333.81799316 -0.037813 -0.366399 -0.929689
74.21800232 -37.54700089 333.79598999 -0.030082 -0.385834 -0.922078
73.91799927 -37.24700165 333.69100952 -0.022380 -0.414691 -0.909687
74.21800232 -37.24700165 333.67199707 -0.035589 -0.399389 -0.916090
81.71800232 -28.41200066 342.91799927 0.555716 0.753376 -0.351575
82.01799774 -28.47200012 343.21798706 0.546909 0.725356 -0.418030
81.71800232 -28.23800087 343.21798706 0.533557 0.740413 -0.408787
82.01799774 -28.62100029 342.91799927 0.556602 0.768336 -0.315996
73.61799622 -37.54700089 333.82199097 0.001272 -0.375114 -0.926978
73.31800079 -38.14699936 334.07000732 0.001289 -0.406019 -0.913864
73.61799622 -38.14699936 334.06100464 -0.038195 -0.388539 -0.920640
73.31800079 -37.84700012 333.93399048 -0.003854 -0.389260 -0.921120
73.61799622 -37.84700012 333.93701172 -0.011552 -0.378658 -0.925465
73.01799774 -38.14699936 334.06600952 0.009060 -0.397337 -0.917628
72.71800232 -38.44699860 334.18899536 -0.058344 -0.432832 -0.899585
73.01799774 -38.44699860 334.19699097 0.009201 -0.440346 -0.897781
72.71800232 -38.74700165 334.36700439 -0.049667 -0.420158 -0.906091
73.01799774 -38.74700165 334.35198975 -0.030290 -0.401671 -0.915283
72.41799927 -38.74700165 334.38900757 -0.032510 -0.373211 -0.927177
71.81800079 -39.34700012 334.62899780 -0.009050 -0.399513 -0.916683
71.81800079 -42.51599884 344.71798706 -0.539535 -0.751437 0.379794
71.81800079 -42.39899826 345.01800537 -0.530554 -0.788662 0.310685
71.51799774 -42.29600143 344.71798706 -0.543433 -0.765967 0.343476
71.51799774 -42.19100189 345.01800537 -0.542014 -0.783615 0.303591
71.21800232 -39.94699860 334.90600586 -0.014308 -0.404527 -0.914414
71.21800232 -42.09899902 344.71798706 -0.528528 -0.787204 0.317756
70.91799927 -41.90399933 344.71798706 -0.549906 -0.762773 0.340265
70.91799927 -41.75600052 345.01800537 -0.564262 -0.746387 0.352867
71.21800232 -41.98099899 345.01800537 -0.547621 -0.769239 0.329215
70.31800079 -40.91199875 345.91799927 -0.535454 -0.765165 0.357508
70.61799622 -41.13199997 345.91799927 -0.567899 -0.740384 0.359615
70.61799622 -40.99499893 346.21798706 -0.576599 -0.753273 0.316407
70.31800079 -40.77099991 346.21798706 -0.548510 -0.758853 0.351111
70.01799774 -40.72100067 345.91799927 -0.527284 -0.764156 0.371533
70.01799774 -40.56000137 346.21798706 -0.533841 -0.764253 0.361844
69.71800232 -40.48899841 345.91799927 -0.550422 -0.746418 0.374026
81.29199982 -27.94700050 347.71798706 0.914072 -0.382146 0.135781
69.71800232 -40.36199951 346.21798706 -0.534696 -0.775551 0.335590
81.71900177 -27.64699936 346.81799316 0.849805 -0.453332 0.268926
81.81099701 -27.64699936 346.51800537 0.867916 -0.433203 0.243016
69.41799927 -40.27199936 345.91799927 -0.541998 -0.762033 0.354321
69.11799622 -40.06499863 345.91799927 -0.534024 -0.769576 0.350101
69.41799927 -40.14500046 346.21798706 -0.549906 -0.762773 0.340265
69.11799622 -39.92499924 346.21798706 -0.520760 -0.778721 0.349860
80.21800232 -26.75600052 344.11801147 0.533140 0.766490 -0.358127
80.21800232 -30.76600075 335.11801147 0.542520 0.771119 -0.333239
79.91799927 -30.56999969 335.11801147 0.515533 0.793251 -0.324004
69.11799622 -39.79700089 346.51800537 -0.536030 -0.774266 0.336427
69.11799622 -39.66500092 346.81799316 -0.556948 -0.760355 0.334169
69.41799927 -39.88999939 346.81799316 -0.554033 -0.766011 0.325996
68.51799774 -39.70500183 345.91799927 -0.418440 -0.828985 0.371069
68.81800079 -39.87599945 345.91799927 -0.472933 -0.810515 0.345544
68.81800079 -39.73899841 346.21798706 -0.483843 -0.792474 0.371322
68.51799774 -39.56399918 346.21798706 -0.399635 -0.832442 0.383839
68.51799774 -39.43199921 346.51800537 -0.396492 -0.832475 0.387014
68.81800079 -39.58800125 346.51800537 -0.486877 -0.792180 0.367970
68.81800079 -39.45100021 346.81799316 -0.494510 -0.795377 0.350478
79.91799927 -30.44099998 335.41799927 0.526023 0.776970 -0.345856
80.21800232 -30.63899994 335.41799927 0.539630 0.776619 -0.325059
68.51799774 -39.27999878 346.81799316 -0.406477 -0.830352 0.381171
78.71800232 -37.84700012 333.86898804 0.088162 -0.167870 -0.981859
78.41799927 -37.54700089 333.71499634 0.051965 -0.393065 -0.918041
78.11799622 -37.54700089 333.73901367 -0.038314 -0.400317 -0.915576
78.41799927 -37.24700165 333.59399414 0.030574 -0.429371 -0.902610
78.11799622 -37.24700165 333.59201050 0.022688 -0.449766 -0.892858
79.01799774 -37.24700165 333.75500488 0.416601 -0.461989 -0.782950
78.71800232 -37.24700165 333.62701416 0.221707 -0.463020 -0.858171
78.71800232 -37.54700089 333.77600098 0.230378 -0.371246 -0.899501
79.01799774 -36.64699936 333.32699585 0.142893 -0.460432 -0.876119
78.71800232 -36.64699936 333.32901001 0.030082 -0.385834 -0.922078
79.01799774 -36.94699860 333.53799438 0.312114 -0.552202 -0.773083
78.71800232 -36.94699860 333.45401001 0.112415 -0.465314 -0.877978
78.41799927 -36.94699860 333.43701172 0.017100 -0.422247 -0.906319
78.11799622 -36.94699860 333.44601440 0.006500 -0.417317 -0.908738
78.41799927 -36.64699936 333.30999756 0.014126 -0.371132 -0.928473
78.11799622 -36.64699936 333.30499268 0.001273 -0.372926 -0.927860
78.41799927 -36.04700089 333.06698608 0.003875 -0.401697 -0.915765
78.11799622 -36.04700089 333.06799316 -0.008989 -0.383961 -0.923305
78.41799927 -36.34700012 333.20700073 0.006367 -0.365448 -0.930810
78.11799622 -36.34700012 333.20199585 0.008964 -0.377770 -0.925856
77.81800079 -35.44699860 332.83200073 -0.027168 -0.366118 -0.930172
77.51799774 -35.44699860 332.83200073 -0.027142 -0.368355 -0.929289
77.81800079 -35.74700165 332.95901489 -0.029954 -0.376383 -0.925980
77.51799774 -35.74700165 332.96398926 -0.021870 -0.366639 -0.930106
78.41799927 -35.44699860 332.80999756 -0.027336 -0.384009 -0.922924
78.11799622 -35.44699860 332.81298828 -0.040693 -0.376734 -0.925427
78.41799927 -35.74700165 332.93899536 -0.019576 -0.403274 -0.914870
78.11799622 -35.74700165 332.94601440 -0.022171 -0.392563 -0.919458
77.81800079 -35.14699936 332.72900391 -0.028988 -0.313825 -0.949038
77.51799774 -35.14699936 332.72500610 0.006292 -0.341029 -0.940032
77.81800079 -34.24700165 332.57901001 0.163738 -0.075296 -0.983626
77.51799774 -34.24700165 332.48800659 0.314150 -0.198633 -0.928362
77.81800079 -34.54700089 332.59298706 0.101722 -0.140018 -0.984910
77.51799774 -34.54700089 332.52200317 0.193474 -0.217491 -0.956695
77.21800232 -34.54700089 332.47399902 0.131520 -0.315920 -0.939626
76.91799927 -34.54700089 332.45599365 0.027336 -0.384009 -0.922924
77.21800232 -34.24700165 332.36898804 0.219550 -0.301705 -0.927778
76.91799927 -34.24700165 332.32800293 0.101271 -0.352424 -0.930345
77.21800232 -33.64699936 332.16299438 0.298254 -0.437335 -0.848400
77.21800232 -33.94699860 332.29199219 0.273691 -0.314671 -0.908887
76.91799927 -33.94699860 332.21301270 0.135434 -0.381171 -0.914531
76.91799927 -33.64699936 332.08700562 0.126141 -0.435117 -0.891494
77.21800232 -33.34700012 331.98001099 0.254362 -0.494850 -0.830917
79.91799927 -29.09799957 338.41799927 0.547782 0.761078 -0.347413
80.21800232 -30.51199913 335.71798706 0.533170 0.779741 -0.328228
70.01799774 -42.04700089 335.83801270 -0.001279 -0.387428 -0.921899
69.71800232 -42.04700089 335.83700562 -0.001285 -0.394539 -0.918878
70.01799774 -42.34700012 335.96798706 -0.009108 -0.409861 -0.912103
69.71800232 -42.34700012 335.97601318 -0.009108 -0.409861 -0.912103
79.31800079 -28.65699959 338.41799927 0.541279 0.764253 -0.350619
79.61799622 -28.87700081 338.41799927 0.542520 0.771119 -0.333239
79.31800079 -28.79999924 338.11801147 0.532838 0.787328 -0.310159
79.61799622 -28.99500084 338.11801147 0.550838 0.774366 -0.311343
79.01799774 -27.88500023 339.61801147 0.567548 0.757267 -0.323165
71.21800232 -38.14699936 350.11499023 0.065923 -0.520372 0.851391
68.19300079 -36.94699860 351.91799927 -0.178855 -0.922441 0.342219
77.81800079 -37.54700089 333.73400879 0.053508 -0.467848 -0.882188
77.51799774 -37.54700089 333.69900513 0.006573 -0.445626 -0.895195
77.81800079 -37.24700165 333.56900024 0.036013 -0.428153 -0.902989
77.51799774 -37.24700165 333.57998657 -0.056900 -0.369191 -0.927610
77.51799774 -36.64699936 333.32199097 -0.041095 -0.399019 -0.916021
77.81800079 -36.94699860 333.44198608 -0.030176 -0.397537 -0.917090
77.51799774 -36.94699860 333.46798706 -0.068310 -0.379052 -0.922851
75.11799622 -38.14699936 334.05200195 -0.014327 -0.407667 -0.913018
75.41799927 -38.14699936 334.04998779 0.003855 -0.394537 -0.918872
75.11799622 -37.84700012 333.91000366 -0.009096 -0.406724 -0.913506
75.41799927 -37.84700012 333.91400146 0.011768 -0.417121 -0.908775
75.71800232 -38.14699936 334.05099487 -0.022026 -0.382221 -0.923808
76.01799774 -38.14699936 334.03298950 -0.038262 -0.397131 -0.916964
75.71800232 -37.84700012 333.92401123 -0.027636 -0.409277 -0.911991
76.01799774 -37.84700012 333.89700317 -0.038355 -0.398094 -0.916542
75.71800232 -37.54700089 333.78201294 -0.011707 -0.404541 -0.914445
76.01799774 -37.54700089 333.77398682 -0.030052 -0.388057 -0.921145
75.71800232 -37.24700165 333.64999390 -0.001280 -0.390517 -0.920595
76.01799774 -37.24700165 333.64898682 -0.027440 -0.388086 -0.921215
68.51799774 -43.54199982 337.21798706 -0.463908 -0.856794 0.225154
68.51799774 -43.57099915 336.91799927 -0.398296 -0.912932 -0.088966
68.81800079 -43.72600174 336.91799927 -0.481875 -0.854844 -0.192452
68.81800079 -43.71900177 337.21798706 -0.507824 -0.851224 0.132413
68.81800079 -43.54700089 336.54598999 -0.226699 -0.655082 -0.720746
68.51799774 -43.24700165 336.42300415 -0.061796 -0.460039 -0.885746
68.81800079 -43.24700165 336.41101074 -0.040882 -0.391679 -0.919193
68.51799774 -43.52000046 336.61801147 -0.244421 -0.834722 -0.493454
81.11799622 -34.11500168 332.41799927 0.579787 -0.721039 -0.379408
81.21499634 -33.94699860 332.71798706 0.868733 -0.486094 0.094951
81.41799927 -33.65299988 332.71798706 0.845836 -0.524160 0.099088
81.19200134 -33.94699860 333.01800537 0.863661 -0.496145 0.089052
81.39600372 -33.64699936 333.01800537 0.852808 -0.508210 0.120175
81.16500092 -33.94699860 333.31799316 0.865728 -0.477392 0.150371
81.34500122 -33.64699936 333.31799316 0.863474 -0.479382 0.156862
81.27500153 -33.64699936 333.61801147 0.858111 -0.492646 0.144724
81.10399628 -33.94699860 333.61801147 0.826893 -0.518146 0.218569
68.21800232 -43.24700165 336.43600464 -0.004095 -0.571899 -0.820314
68.21800232 -43.41500092 336.61801147 -0.241244 -0.914416 -0.325029
67.91799927 -43.35900116 336.91799927 -0.223982 -0.973036 0.055077
68.21800232 -43.44800186 336.91799927 -0.344618 -0.936889 0.058965
67.91799927 -43.29199982 337.21798706 -0.229205 -0.932288 0.279827
68.21800232 -43.38100052 337.21798706 -0.367259 -0.885920 0.283314
72.41799927 -45.88600159 337.81799316 0.139012 -0.989170 0.047103
72.11799622 -45.78599930 337.81799316 -0.393281 -0.919374 0.009026
72.41799927 -45.81800079 337.51800537 0.027953 -0.901150 -0.432605
72.11799622 -45.73199844 337.51800537 -0.284915 -0.762427 -0.580972
79.91799927 -32.14699936 331.81900024 0.524749 0.561870 -0.639485
79.91799927 -32.74700165 331.64801025 0.066526 -0.093588 -0.993386
80.21800232 -32.74700165 331.67199707 0.162760 -0.001122 -0.986665
79.91799927 -32.44699860 331.64700317 0.269169 0.136573 -0.953360
80.21800232 -32.44699860 331.77999878 0.417867 0.473149 -0.775575
76.61799622 -40.24700165 334.89401245 -0.242652 -0.256678 -0.935541
76.83899689 -40.24700165 334.81799316 -0.680704 -0.162943 -0.714207
76.31800079 -40.24700165 334.90701294 -0.090076 -0.358961 -0.928996
76.61799622 -40.54700089 334.93798828 -0.463621 0.028220 -0.885584
76.83300018 -40.54700089 334.81799316 -0.739132 0.104747 -0.665366
76.31800079 -40.54700089 334.99700928 -0.169316 -0.304219 -0.937434
76.86000061 -40.54700089 334.51800537 -0.972537 -0.083218 -0.217361
76.01799774 -40.24700165 334.92001343 -0.046111 -0.380742 -0.923531
75.71800232 -40.24700165 334.94000244 -0.035627 -0.397170 -0.917053
76.01799774 -40.54700089 335.06799316 -0.126737 -0.382997 -0.915014
75.71800232 -40.54700089 335.08099365 -0.030651 -0.435774 -0.899534
75.41799927 -40.84700012 335.23498535 -0.003891 -0.416339 -0.909201
75.11799622 -40.84700012 335.22601318 0.001300 -0.422600 -0.906315
75.41799927 -41.14699936 335.35198975 -0.014270 -0.398259 -0.917162
75.11799622 -41.14699936 335.36199951 -0.014246 -0.389812 -0.920784
74.21800232 -41.44699860 335.51199341 -0.003905 -0.420458 -0.907304
73.91799927 -41.44699860 335.51599121 -0.001297 -0.421606 -0.906778
74.21800232 -41.74700165 335.64700317 -0.038156 -0.390772 -0.919696
73.91799927 -41.74700165 335.65798950 0.003870 -0.398582 -0.917125
79.57599640 -36.34700012 333.91799927 0.855022 -0.412823 -0.313869
79.61799622 -29.12100029 337.81799316 0.554189 0.752462 -0.355916
79.76599884 -36.04700089 333.91799927 0.850180 -0.411879 -0.327949
79.31800079 -28.90800095 337.81799316 0.549153 0.764949 -0.336578
79.31800079 -29.06299973 337.51800537 0.565688 0.741752 -0.360280
77.21800232 -36.64699936 333.33700562 -0.022297 -0.410535 -0.911572
76.91799927 -36.64699936 333.34298706 -0.033133 -0.412177 -0.910501
77.21800232 -36.94699860 333.48901367 -0.024872 -0.396639 -0.917638
76.91799927 -36.94699860 333.48400879 -0.025012 -0.414665 -0.909630
71.21800232 -42.04700089 335.81698608 -0.006490 -0.408898 -0.912557
70.91799927 -42.04700089 335.82101440 -0.009075 -0.405761 -0.913934
71.21800232 -42.34700012 335.95800781 -0.014380 -0.411789 -0.911166
70.91799927 -42.34700012 335.95700073 0.001299 -0.419470 -0.907768
71.81800079 -41.44699860 335.54699707 -0.048997 -0.388005 -0.920354
71.51799774 -41.44699860 335.56399536 -0.027413 -0.390303 -0.920278
71.81800079 -41.74700165 335.67300415 -0.033089 -0.408984 -0.911941
71.51799774 -41.74700165 335.68600464 -0.019490 -0.388506 -0.921240
72.41799927 -41.44699860 335.53698730 0.001282 -0.388343 -0.921514
72.11799622 -41.44699860 335.52301025 -0.014186 -0.380452 -0.924692
72.41799927 -41.74700165 335.66101074 -0.032876 -0.398462 -0.916595
72.11799622 -41.74700165 335.66101074 -0.001305 -0.432009 -0.901868
71.51799774 -41.14699936 335.42300415 -0.017057 -0.415916 -0.909243
71.81800079 -40.84700012 335.29000854 -0.040995 -0.398052 -0.916446
71.51799774 -40.84700012 335.29098511 0.003881 -0.410093 -0.912036
71.81800079 -41.14699936 335.41598511 -0.022232 -0.398867 -0.916739
67.91799927 -39.62599945 345.61801147 -0.177921 -0.912381 0.368653
68.21800232 -39.69800186 345.61801147 -0.293767 -0.872168 0.391182
68.21800232 -39.84000015 345.31799316 -0.291472 -0.868312 0.401346
67.91799927 -39.77600098 345.31799316 -0.220541 -0.883644 0.412959
82.01799774 -31.08900070 337.21798706 0.169213 0.927177 -0.334231
82.01799774 -31.15399933 336.91799927 0.169946 0.884589 -0.434305
81.71800232 -31.03800011 336.91799927 0.461989 0.824643 -0.326388
70.91799927 -41.74700165 335.69299316 -0.001282 -0.388343 -0.921514
71.21800232 -41.74700165 335.68200684 -0.011596 -0.382667 -0.923813
70.91799927 -41.44699860 335.56399536 -0.003861 -0.397641 -0.917533
71.21800232 -41.44699860 335.57101440 -0.006449 -0.398576 -0.917112
79.91799927 -25.46100044 346.51800537 0.558989 0.761965 -0.327017
80.24500275 -25.54700089 346.81799316 0.554899 0.750171 -0.359626
79.01799774 -28.69400024 337.81799316 0.562334 0.772611 -0.294707
79.01799774 -28.82500076 337.51800537 0.567700 0.752082 -0.334798
79.61799622 -35.44699860 332.77801514 0.014420 -0.423416 -0.905821
79.31800079 -35.44699860 332.77700806 -0.014364 -0.413957 -0.910183
79.61799622 -35.74700165 332.92001343 0.155088 -0.509573 -0.846335
79.31800079 -35.74700165 332.91598511 0.022523 -0.430596 -0.902264
79.01799774 -33.64699936 332.05300903 -0.176807 -0.355029 -0.917983
76.01799774 -35.14699936 332.70700073 -0.022209 -0.401063 -0.915781
76.01799774 -34.84700012 332.57199097 -0.003838 -0.379975 -0.924989
73.31800079 -38.44699860 334.20599365 -0.025039 -0.412481 -0.910622
73.61799622 -38.44699860 334.18499756 -0.033133 -0.412177 -0.910501
73.31800079 -38.74700165 334.33898926 -0.025006 -0.409306 -0.912055
73.61799622 -38.74700165 334.33401489 -0.035781 -0.412140 -0.910418
68.21800232 -41.01900101 342.61801147 -0.352824 -0.853305 0.383909
67.91799927 -40.93399811 342.61801147 -0.188489 -0.905034 0.381294
67.91799927 -41.06200027 342.31799316 -0.190700 -0.892359 0.409059
68.21800232 -41.17399979 342.31799316 -0.362697 -0.840013 0.403520
68.81800079 -41.37799835 342.61801147 -0.484006 -0.803483 0.346632
68.51799774 -41.18000031 342.61801147 -0.467190 -0.801126 0.374073
68.51799774 -41.32600021 342.31799316 -0.454641 -0.818987 0.350089
68.81800079 -41.49399948 342.31799316 -0.472541 -0.817070 0.330305
68.21800232 -41.31700134 342.01800537 -0.325189 -0.861520 0.389918
67.91799927 -41.21300125 342.01800537 -0.223939 -0.882410 0.413769
68.21800232 -41.44200134 341.71798706 -0.323853 -0.864120 0.385247
67.91799927 -41.35100174 341.71798706 -0.190655 -0.895058 0.403140
68.51799774 -41.43899918 342.01800537 -0.421531 -0.828852 0.367853
68.81800079 -41.62200165 342.01800537 -0.481375 -0.793706 0.371899
68.51799774 -41.59000015 341.71798706 -0.442434 -0.812992 0.378545
68.81800079 -41.77000046 341.71798706 -0.481165 -0.800877 0.356478
69.41799927 -42.02999878 342.01800537 -0.553246 -0.768130 0.322326
69.11799622 -41.80699921 342.01800537 -0.525924 -0.768658 0.364101
69.11799622 -41.95600128 341.71798706 -0.509768 -0.786362 0.348958
69.41799927 -42.13800049 341.71798706 -0.544897 -0.761563 0.350869
69.41799927 -42.30899811 341.41799927 -0.543171 -0.751957 0.373532
69.11799622 -42.09700012 341.41799927 -0.528594 -0.762801 0.372455
69.11799622 -42.23799896 341.11801147 -0.547412 -0.772156 0.322668
73.31800079 -39.04700089 334.47799683 -0.032556 -0.376352 -0.925905
73.61799622 -39.04700089 334.45001221 -0.029911 -0.373242 -0.927252
69.41799927 -42.44800186 341.11801147 -0.549153 -0.764949 0.336578
74.54499817 -37.54700089 351.31799316 0.884359 -0.417819 0.208171
74.68499756 -37.24700165 351.31799316 0.868154 -0.496279 0.004013
69.71800232 -42.52199936 341.41799927 -0.538988 -0.765590 0.351232
70.01799774 -42.72600174 341.41799927 -0.537654 -0.766925 0.350363
74.65399933 -37.24700165 351.61801147 0.836587 -0.532905 0.127021
70.01799774 -42.86700058 341.11801147 -0.541119 -0.758866 0.362371
69.71800232 -42.66400146 341.11801147 -0.538988 -0.765590 0.351232
69.71800232 -42.79999924 340.81799316 -0.549194 -0.778423 0.304046
69.71800232 -42.88700104 340.51800537 -0.556177 -0.762527 0.330482
73.31800079 -39.34700012 334.58801270 -0.046111 -0.380742 -0.923531
73.61799622 -39.34700012 334.57000732 -0.038049 -0.384430 -0.922370
70.01799774 -43.01499939 340.81799316 -0.553816 -0.768922 0.319448
70.01799774 -43.13499832 340.51800537 -0.569215 -0.747602 0.342178
70.31800079 -43.21699905 340.81799316 -0.524549 -0.781208 0.338470
70.61799622 -43.40200043 340.81799316 -0.549131 -0.759713 0.348269
70.31800079 -43.36999893 340.51800537 -0.544749 -0.756144 0.362624
70.61799622 -43.58000183 340.51800537 -0.534574 -0.758802 0.372089
70.91799927 -43.64099884 340.81799316 -0.542689 -0.768138 0.339784
71.21800232 -43.85200119 340.81799316 -0.545441 -0.753849 0.366341
70.91799927 -43.77700043 340.51800537 -0.528929 -0.776512 0.342437
71.21800232 -43.99200058 340.51800537 -0.566383 -0.748145 0.345672
74.46099854 -37.54700089 351.61801147 0.839657 -0.465445 0.279886
74.11199951 -38.14699936 351.61801147 0.819824 -0.508695 0.262904
74.28399658 -37.84700012 351.61801147 0.819573 -0.490490 0.296175
73.31800079 -39.64699936 334.72299194 -0.049723 -0.417943 -0.907111
73.61799622 -39.64699936 334.70599365 -0.035733 -0.408947 -0.911858
73.31800079 -39.94699860 334.86300659 -0.032728 -0.383573 -0.922931
73.61799622 -39.94699860 334.84899902 -0.046813 -0.415968 -0.908174
80.81800079 -33.94699860 332.10299683 0.058120 -0.423058 -0.904237
80.51799774 -33.64699936 331.98300171 0.043861 -0.405378 -0.913096
80.81800079 -33.64699936 332.00799561 0.045777 -0.364905 -0.929919
81.11799622 -33.64699936 332.00799561 0.152727 -0.406796 -0.900661
74.01499939 -38.14699936 351.91799927 0.830580 -0.502033 0.241037
74.19599915 -37.84700012 351.91799927 0.836574 -0.485306 0.254208
73.91799927 -39.64699936 334.69699097 0.019517 -0.391645 -0.919910
74.21800232 -39.64699936 334.71701050 0.011738 -0.410824 -0.911639
73.93599701 -38.14699936 352.21798706 0.842494 -0.490316 0.223147
73.91799927 -39.94699860 334.82299805 -0.019680 -0.415896 -0.909199
74.21800232 -39.94699860 334.84399414 0.032832 -0.395291 -0.917969
73.91799927 -38.17699814 352.21798706 0.845337 -0.492737 0.206437
73.91799927 -40.54700089 335.10699463 -0.001299 -0.424733 -0.905318
74.21800232 -40.54700089 335.10998535 -0.011722 -0.407681 -0.913049
73.91799927 -40.24700165 334.96701050 -0.009098 -0.412022 -0.911128
74.21800232 -40.24700165 334.97000122 0.006482 -0.405769 -0.913953
73.31800079 -40.54700089 335.10198975 0.001296 -0.418483 -0.908224
73.61799622 -40.54700089 335.11099243 -0.011740 -0.416132 -0.909229
73.31800079 -40.24700165 334.98300171 0.001279 -0.387428 -0.921899
73.61799622 -40.24700165 334.98800659 -0.024906 -0.399800 -0.916264
73.66200256 -38.74700165 351.91799927 0.852590 -0.499185 0.154615
73.82900238 -38.44699860 351.91799927 0.836592 -0.511000 0.197466
73.59700012 -38.74700165 352.21798706 0.826579 -0.531480 0.185190
73.76999664 -38.44699860 352.21798706 0.859562 -0.480822 0.173096
73.47399902 -39.04700089 351.91799927 0.829374 -0.529420 0.178473
73.39399719 -39.04700089 352.21798706 0.836494 -0.519255 0.175080
75.41799927 -35.44699860 332.85699463 0.003865 -0.395470 -0.918471
75.41799927 -35.74700165 332.98901367 0.001284 -0.396706 -0.917945
75.11799622 -35.74700165 332.98699951 -0.016967 -0.403293 -0.914914
73.29100037 -44.44699860 339.01800537 0.816831 -0.530710 0.226128
73.11900330 -44.74700165 339.01800537 0.830059 -0.509042 0.227769
73.21399689 -44.74700165 338.71798706 0.831579 -0.508102 0.224297
76.61799622 -37.24700165 333.63000488 -0.003885 -0.407937 -0.913002
76.31800079 -37.24700165 333.63000488 -0.035637 -0.402571 -0.914695
76.61799622 -37.54700089 333.76300049 -0.019417 -0.384451 -0.922941
76.31800079 -37.54700089 333.76800537 -0.011676 -0.398272 -0.917193
76.91799927 -37.24700165 333.63000488 -0.052195 -0.408191 -0.911403
77.21800232 -37.54700089 333.72601318 -0.077422 -0.397976 -0.914123
76.91799927 -37.54700089 333.75500488 -0.046111 -0.380742 -0.923531
77.21800232 -37.24700165 333.59600830 -0.056984 -0.372386 -0.926327
73.09999847 -39.34700012 352.51800537 0.614003 -0.726812 0.307807
76.61799622 -37.84700012 333.87899780 -0.030052 -0.388057 -0.921145
76.31800079 -37.84700012 333.89300537 -0.022149 -0.394766 -0.918515
77.21800232 -37.84700012 333.86999512 -0.030207 -0.395324 -0.918045
76.91799927 -37.84700012 333.88198853 -0.035293 -0.380381 -0.924156
76.61799622 -38.14699936 334.00900269 -0.043313 -0.376693 -0.925325
76.31800079 -38.14699936 334.02999878 -0.040825 -0.388499 -0.920544
73.91799927 -41.14699936 335.37500000 -0.011722 -0.407681 -0.913049
74.21800232 -41.14699936 335.36700439 -0.003910 -0.423596 -0.905843
73.91799927 -40.84700012 335.24899292 -0.011691 -0.401405 -0.915826
74.21800232 -40.84700012 335.23901367 -0.030166 -0.392157 -0.919404
74.10299683 -43.54700089 338.11801147 0.739754 -0.672631 0.018179
74.51799774 -41.74700165 335.63198853 -0.016829 -0.384469 -0.922984
74.81800079 -41.74700165 335.63400269 0.006492 -0.414185 -0.910169
74.51799774 -41.44699860 335.51199341 -0.032774 -0.386735 -0.921608
74.81800079 -41.44699860 335.48999023 -0.027479 -0.391242 -0.919877
74.51799774 -41.14699936 335.37899780 0.003920 -0.429880 -0.902878
74.81800079 -41.14699936 335.37399292 -0.030290 -0.401671 -0.915283
74.51799774 -40.84700012 335.22799683 -0.011753 -0.413971 -0.910214
74.81800079 -40.84700012 335.22500610 -0.003910 -0.423596 -0.905843
74.51799774 -40.54700089 335.09899902 -0.024804 -0.390329 -0.920341
74.81800079 -40.54700089 335.09100342 -0.009014 -0.390170 -0.920699
74.51799774 -40.24700165 334.97299194 -0.009072 -0.400462 -0.916268
74.81800079 -40.24700165 334.97100830 -0.009026 -0.393281 -0.919374
80.74099731 -34.24700165 334.51800537 0.913941 -0.374334 -0.156797
79.01799774 -24.90900040 346.21798706 0.542775 0.742832 -0.391913
81.41799927 -29.92600060 339.01800537 0.547723 0.752509 -0.365690
81.11799622 -29.82699966 338.71798706 0.599543 0.737775 -0.310219
81.41799927 -30.06800079 338.71798706 0.546618 0.774242 -0.318994
81.11799622 -29.72200012 339.01800537 0.573283 0.750920 -0.327821
79.31800079 -28.12100029 339.61801147 0.575593 0.744217 -0.338870
79.61799622 -28.36100006 339.61801147 0.552018 0.747423 -0.369641
79.61799622 -28.49200058 339.31799316 0.558464 0.755949 -0.341553
79.31800079 -28.25099945 339.31799316 0.582790 0.735387 -0.345778
67.91799927 -37.52700043 350.41799927 -0.096610 -0.921196 0.376915
68.21800232 -37.59099960 350.41799927 -0.263753 -0.900296 0.346268
68.21800232 -37.70299911 350.11801147 -0.219548 -0.891455 0.396366
67.91799927 -37.65700150 350.11801147 -0.106966 -0.907131 0.407028
67.91799927 -37.81600189 349.81799316 -0.083709 -0.904330 0.418544
68.21800232 -37.85400009 349.81799316 -0.269716 -0.864005 0.425145
68.21800232 -38.00199890 349.51800537 -0.279613 -0.863286 0.420183
67.91799927 -37.93600082 349.51800537 -0.133515 -0.906497 0.400545
68.51799774 -37.98699951 349.81799316 -0.437569 -0.796020 0.418193
68.51799774 -38.13800049 349.51800537 -0.411385 -0.821182 0.395502
68.81800079 -38.16899872 349.81799316 -0.469705 -0.789298 0.395456
68.81800079 -38.31399918 349.51800537 -0.459213 -0.804823 0.376011
72.41799927 -44.94400024 340.21798706 -0.150112 -0.916106 0.371774
72.11799622 -44.77899933 340.21798706 -0.485078 -0.791274 0.372269
72.11799622 -44.91600037 339.91799927 -0.484709 -0.801450 0.350335
72.41799927 -45.06800079 339.91799927 -0.043251 -0.926610 0.373527
69.11799622 -38.34400177 349.81799316 -0.479382 -0.800038 0.360739
69.41799927 -38.52600098 349.81799316 -0.488399 -0.799053 0.350687
69.41799927 -38.66600037 349.51800537 -0.495572 -0.782907 0.376118
69.11799622 -38.47100067 349.51800537 -0.467190 -0.801126 0.374073
68.51799774 -38.27099991 349.21798706 -0.439203 -0.829607 0.344751
68.81800079 -38.45800018 349.21798706 -0.471012 -0.813566 0.340968
68.51799774 -38.37400055 348.91799927 -0.419730 -0.850303 0.317508
68.81800079 -38.56000137 348.91799927 -0.492047 -0.811641 0.314847
69.11799622 -38.62099838 349.21798706 -0.483080 -0.797644 0.361106
80.81800079 -28.55299950 341.11801147 0.566321 0.753482 -0.333984
69.41799927 -38.81499863 349.21798706 -0.506574 -0.778473 0.370624
69.41799927 -38.94300079 348.91799927 -0.544786 -0.769771 0.332657
69.11799622 -38.75000000 348.91799927 -0.505388 -0.803234 0.315273
69.71800232 -39.01900101 349.21798706 -0.482333 -0.766828 0.423472
70.01799774 -39.20100021 349.21798706 -0.418204 -0.756048 0.503485
69.71800232 -39.17399979 348.91799927 -0.525924 -0.768658 0.364101
69.71800232 -39.29899979 348.61801147 -0.541998 -0.762033 0.354321
70.01799774 -39.35900116 348.91799927 -0.512158 -0.754329 0.410708
70.01799774 -39.51900101 348.61801147 -0.549131 -0.759713 0.348269
70.01799774 -39.62699890 348.31799316 -0.544786 -0.769771 0.332657
69.71800232 -39.43799973 348.31799316 -0.532395 -0.781806 0.324553
70.61799622 -39.34700012 349.46301270 -0.360389 -0.525231 0.770877
70.61799622 -39.61500168 349.21798706 -0.513737 -0.624906 0.587850
70.31800079 -39.37200165 349.21798706 -0.476856 -0.674291 0.563861
70.31800079 -39.59199905 348.91799927 -0.536866 -0.725182 0.431145
70.61799622 -39.79100037 348.91799927 -0.540368 -0.740748 0.399117
70.31800079 -39.74399948 348.61801147 -0.551261 -0.761420 0.341103
70.31800079 -39.84999847 348.31799316 -0.557710 -0.758163 0.337859
70.61799622 -39.95999908 348.61801147 -0.551335 -0.749750 0.365930
70.61799622 -40.08700180 348.31799316 -0.556046 -0.775916 0.297939
70.91799927 -40.17800140 348.61801147 -0.538860 -0.757009 0.369551
71.21800232 -40.38399887 348.61801147 -0.538261 -0.767790 0.347526
71.21800232 -40.51599884 348.31799316 -0.544169 -0.763775 0.347170
70.91799927 -40.30400085 348.31799316 -0.559921 -0.770490 0.304686
81.71800232 -28.77799988 342.01800537 0.558464 0.755949 -0.341553
82.01799774 -29.00699997 342.01800537 0.545547 0.767628 -0.336340
82.01799774 -29.11400032 341.71798706 0.537354 0.777960 -0.325620
81.71800232 -28.91600037 341.71798706 0.556435 0.751106 -0.355275
69.71800232 -44.23600006 336.91799927 -0.292345 -0.742843 -0.602262
70.01799774 -44.35699844 336.91799927 -0.331359 -0.810166 -0.483563
70.01799774 -44.47399902 337.21798706 -0.468951 -0.872970 -0.134192
69.71800232 -44.28699875 337.21798706 -0.519471 -0.853906 -0.031525
82.01799774 -28.72999954 342.61801147 0.539999 0.790203 -0.289794
81.71800232 -28.63899994 342.31799316 0.536015 0.779222 -0.324809
82.01799774 -28.85099983 342.31799316 0.549229 0.756608 -0.354812
69.11799622 -43.54700089 336.50201416 -0.066227 -0.404118 -0.912306
69.41799927 -43.54700089 336.50900269 0.043788 -0.396742 -0.916885
69.11799622 -43.24700165 336.39498901 -0.065032 -0.367628 -0.927696
69.41799927 -43.24700165 336.37899780 -0.029925 -0.378615 -0.925070
71.97799683 -39.04700089 352.81799316 -0.486245 -0.812520 0.321523
71.51799774 -38.81999969 352.81799316 -0.593962 -0.789443 0.154881
71.51799774 -38.87900162 352.51800537 -0.560268 -0.791242 0.245020
71.81800079 -39.06900024 352.51800537 -0.509140 -0.808634 0.294765
72.41799927 -39.33900070 352.81799316 -0.404134 -0.853171 0.329810
72.11799622 -39.13100052 352.81799316 -0.509211 -0.793348 0.333621
72.11799622 -39.25999832 352.51800537 -0.514908 -0.787601 0.338460
73.01799774 -39.34999847 352.81799316 0.492058 -0.861463 0.125540
72.71800232 -39.37900162 352.81799316 0.024913 -0.913906 0.405161
72.71800232 -39.57199860 352.51800537 0.023143 -0.856301 0.515959
73.22399902 -39.34700012 352.21798706 0.813664 -0.540911 0.212993
73.28900146 -39.34700012 351.91799927 0.832060 -0.526222 0.175407
72.41799927 -39.44800186 352.51800537 -0.389157 -0.833457 0.392308
81.71800232 -28.53100014 342.61801147 0.550557 0.777163 -0.304801
81.11799622 -28.06999969 342.61801147 0.574959 0.743397 -0.341736
81.41799927 -28.29500008 342.61801147 0.570894 0.757439 -0.316806
81.11799622 -28.21800041 342.31799316 0.554251 0.757854 -0.344185
81.41799927 -28.43400002 342.31799316 0.551990 0.764418 -0.333125
81.41799927 -28.04899979 343.21798706 0.542507 0.751038 -0.376334
81.41799927 -28.19300079 342.91799927 0.571270 0.749286 -0.334994
81.11799622 -30.49799919 337.21798706 0.532838 0.787328 -0.310159
81.11799622 -27.80299950 343.21798706 0.581962 0.719665 -0.378685
81.41799927 -30.71500015 337.21798706 0.560990 0.763525 -0.319877
81.11799622 -27.93499947 342.91799927 0.583923 0.742440 -0.328356
80.51799774 -27.60300064 342.61801147 0.561300 0.769189 -0.305437
80.81800079 -27.84099960 342.61801147 0.572784 0.744782 -0.342372
80.51799774 -27.75699997 342.31799316 0.586355 0.723552 -0.364226
81.11799622 -30.61899948 336.91799927 0.553013 0.771013 -0.315779
81.41799927 -30.81999969 336.91799927 0.548860 0.772885 -0.318435
79.91799927 -26.67499924 343.81799316 0.565550 0.755678 -0.330307
79.61799622 -26.70299911 343.21798706 0.588998 0.735030 -0.335875
79.31800079 -26.46999931 343.21798706 0.550761 0.782493 -0.290459
79.31800079 -26.59199905 342.91799927 0.574262 0.740196 -0.349763
81.53199768 -27.64699936 347.41799927 0.837556 -0.453871 0.304140
81.64099884 -27.64699936 347.11801147 0.861894 -0.448306 0.236983
81.46499634 -27.94700050 347.11801147 0.843212 -0.496273 0.206655
81.67800140 -27.34700012 347.41799927 0.873222 -0.407100 0.267869
81.71800232 -27.29500008 347.41799927 0.698592 -0.683033 0.213156
81.95600128 -27.04700089 347.11801147 0.979868 -0.199236 -0.012816
81.75900269 -27.34700012 347.11801147 0.857869 -0.480228 0.182873
81.49400330 -27.94700050 346.81799316 0.806660 -0.528932 0.263686
81.94200134 -27.04700089 346.81799316 0.987517 0.147720 -0.054668
