23.600000	-13.479010	32.733414	0.707107	-0.269240	0.653842
23.200001	14.452366	32.753155	0.707107	0.285457	0.646927
23.200001	-14.452366	32.753155	0.707107	-0.285457	0.646927
24.799999	9.808671	32.763241	0.707107	0.202801	0.677401
24.799999	-9.808671	32.763241	0.707107	-0.202801	0.677401
23.799999	12.860004	32.766754	0.707107	0.258335	0.658227
23.799999	-12.860004	32.766754	0.707107	-0.258335	0.658227
24.600000	10.412424	32.786301	0.707107	0.214032	0.673936
24.600000	-10.412424	32.786301	0.707107	-0.214032	0.673936
24.000000	12.243634	32.788616	0.707107	0.247359	0.662430
24.000000	-12.243634	32.788616	0.707107	-0.247359	0.662430
24.400000	11.019638	32.798286	0.707107	0.225204	0.670286
24.400000	-11.019638	32.798286	0.707107	-0.225204	0.670286
24.200001	11.630110	32.799095	0.707107	0.236314	0.666450
24.200001	-11.630110	32.799095	0.707107	-0.236314	0.666450
23.400000	13.828279	32.804554	0.707107	0.274665	0.651582
23.400000	-13.828279	32.804554	0.707107	-0.274665	0.651582
25.000000	8.936245	32.804626	0.707107	0.185849	0.682246
25.000000	-8.936245	32.804626	0.707107	-0.185849	0.682246
23.000000	14.806335	32.814209	0.707107	0.290824	0.644532
23.000000	-14.806335	32.814209	0.707107	-0.290824	0.644532
24.799999	9.536036	32.843628	0.707107	0.197164	0.679063
24.799999	-9.536036	32.843628	0.707107	-0.197164	0.679063
23.600000	13.206497	32.844307	0.707107	0.263797	0.656057
23.600000	-13.206497	32.844307	0.707107	-0.263797	0.656057
24.600000	10.139578	32.871704	0.707107	0.208423	0.675692
24.600000	-10.139578	32.871704	0.707107	-0.208423	0.675692
23.200001	14.179656	32.872135	0.707107	0.280071	0.649277
23.200001	-14.179656	32.872135	0.707107	-0.280071	0.649277
23.799999	12.587235	32.872505	0.707107	0.252856	0.660351
23.799999	-12.587235	32.872505	0.707107	-0.252856	0.660351
25.000000	8.663298	32.877762	0.707107	0.180173	0.683767
25.000000	-8.663298	32.877762	0.707107	-0.180173	0.683767
24.400000	10.746671	32.888737	0.707107	0.219626	0.672134
24.400000	-10.746671	32.888737	0.707107	-0.219626	0.672134
24.000000	11.970705	32.889240	0.707107	0.241845	0.664463
24.000000	-11.970705	32.889240	0.707107	-0.241845	0.664463
24.200001	11.357115	32.894619	0.707107	0.230767	0.668391
24.200001	-11.357115	32.894619	0.707107	-0.230767	0.668391
23.400000	13.555162	32.918346	0.707107	0.269240	0.653842
23.400000	-13.555162	32.918346	0.707107	-0.269240	0.653842
24.799999	9.262744	32.921749	0.707107	0.191513	0.680678
24.799999	-9.262744	32.921749	0.707107	-0.191513	0.680678
23.000000	14.533106	32.936134	0.707107	0.285457	0.646927
23.000000	-14.533106	32.936134	0.707107	-0.285457	0.646927
25.000000	8.389751	32.948627	0.707107	0.174484	0.685241
25.000000	-8.389751	32.948627	0.707107	-0.174484	0.685241
23.600000	12.933072	32.952930	0.707107	0.258335	0.658227
23.600000	-12.933072	32.952930	0.707107	-0.258335	0.658227
24.600000	9.866032	32.954838	0.707107	0.202801	0.677401
24.600000	-9.866032	32.954838	0.707107	-0.202801	0.677401
23.799999	12.313598	32.975983	0.707107	0.247359	0.662430
23.799999	-12.313598	32.975983	0.707107	-0.247359	0.662430
24.400000	10.472961	32.976917	0.707107	0.214032	0.673936
24.400000	-10.472961	32.976917	0.707107	-0.214032	0.673936
24.000000	11.696949	32.987595	0.707107	0.236314	0.666450
24.000000	-11.696949	32.987595	0.707107	-0.236314	0.666450
24.200001	11.083336	32.987873	0.707107	0.225204	0.670286
24.200001	-11.083336	32.987873	0.707107	-0.225204	0.670286
23.200001	13.905966	32.988850	0.707107	0.274665	0.651582
23.200001	-13.905966	32.988850	0.707107	-0.274665	0.651582
24.799999	8.988811	32.997597	0.707107	0.185849	0.682246
24.799999	-8.988811	32.997597	0.707107	-0.185849	0.682246
25.000000	8.115625	33.017216	0.707107	0.168783	0.686668
25.000000	-8.115625	33.017216	0.707107	-0.168783	0.686668
23.400000	13.281110	33.029865	0.707107	0.263797	0.656057
23.400000	-13.281110	33.029865	0.707107	-0.263797	0.656057
24.600000	9.591803	33.035698	0.707107	0.197164	0.679063
24.600000	-9.591803	33.035698	0.707107	-0.197164	0.679063
23.000000	14.258872	33.055779	0.707107	0.280071	0.649277
23.000000	-14.258872	33.055779	0.707107	-0.280071	0.649277
23.600000	12.658754	33.059280	0.707107	0.252856	0.660351
23.600000	-12.658754	33.059280	0.707107	-0.252856	0.660351
24.400000	10.198529	33.062820	0.707107	0.208423	0.675692
24.400000	-10.198529	33.062820	0.707107	-0.208423	0.675692
24.799999	8.714258	33.071159	0.707107	0.180173	0.683767
24.799999	-8.714258	33.071159	0.707107	-0.180173	0.683767
23.799999	12.039109	33.077179	0.707107	0.241845	0.664463
23.799999	-12.039109	33.077179	0.707107	-0.241845	0.664463
24.200001	10.808790	33.078846	0.707107	0.219626	0.672134
24.200001	-10.808790	33.078846	0.707107	-0.219626	0.672134
25.000000	7.840940	33.083527	0.707107	0.163070	0.688047
25.000000	-7.840940	33.083527	0.707107	-0.163070	0.688047
24.000000	11.422385	33.083668	0.707107	0.230767	0.668391
24.000000	-11.422385	33.083668	0.707107	-0.230767	0.668391
23.200001	13.631315	33.103283	0.707107	0.269240	0.653842
23.200001	-13.631315	33.103283	0.707107	-0.269240	0.653842
24.600000	9.316912	33.114273	0.707107	0.191513	0.680678
24.600000	-9.316912	33.114273	0.707107	-0.191513	0.680678
23.400000	13.006141	33.139107	0.707107	0.258335	0.658227
23.400000	-13.006141	33.139107	0.707107	-0.258335	0.658227
24.799999	8.439103	33.142445	0.707107	0.174484	0.685241
24.799999	-8.439103	33.142445	0.707107	-0.174484	0.685241
24.400000	9.923392	33.146439	0.707107	0.202801	0.677401
24.400000	-9.923392	33.146439	0.707107	-0.202801	0.677401
25.000000	7.565712	33.147549	0.707107	0.157346	0.689378
25.000000	-7.565712	33.147549	0.707107	-0.157346	0.689378
23.600000	12.383561	33.163345	0.707107	0.247359	0.662430
23.600000	-12.383561	33.163345	0.707107	-0.247359	0.662430
24.200001	10.533499	33.167534	0.707107	0.214032	0.673936
24.200001	-10.533499	33.167534	0.707107	-0.214032	0.673936
23.000000	13.983653	33.173145	0.707107	0.274665	0.651582
23.000000	-13.983653	33.173145	0.707107	-0.274665	0.651582
23.799999	11.763789	33.176094	0.707107	0.236314	0.666450
23.799999	-11.763789	33.176094	0.707107	-0.236314	0.666450
24.000000	11.147033	33.177456	0.707107	0.225204	0.670286
24.000000	-11.147033	33.177456	0.707107	-0.225204	0.670286
24.600000	9.041378	33.190563	0.707107	0.185849	0.682246
24.600000	-9.041378	33.190563	0.707107	-0.185849	0.682246
25.000000	7.289961	33.209282	0.707107	0.151611	0.690662
25.000000	-7.289961	33.209282	0.707107	-0.151611	0.690662
24.799999	8.163364	33.211437	0.707107	0.168783	0.686668
24.799999	-8.163364	33.211437	0.707107	-0.168783	0.686668
23.200001	13.355723	33.215427	0.707107	0.263797	0.656057
23.200001	-13.355723	33.215427	0.707107	-0.263797	0.656057
24.400000	9.647570	33.227764	0.707107	0.197164	0.679063
24.400000	-9.647570	33.227764	0.707107	-0.197164	0.679063
23.400000	12.730272	33.246056	0.707107	0.252856	0.660351
23.400000	-12.730272	33.246056	0.707107	-0.252856	0.660351
24.200001	10.257480	33.253933	0.707107	0.208423	0.675692
24.200001	-10.257480	33.253933	0.707107	-0.208423	0.675692
24.600000	8.765219	33.264561	0.707107	0.180173	0.683767
24.600000	-8.765219	33.264561	0.707107	-0.180173	0.683767
23.600000	12.107513	33.265118	0.707107	0.241845	0.664463
23.600000	-12.107513	33.265118	0.707107	-0.241845	0.664463
25.000000	7.013707	33.268723	0.707107	0.145866	0.691898
25.000000	-7.013707	33.268723	0.707107	-0.145866	0.691898
24.000000	10.870910	33.268955	0.707107	0.219626	0.672134
24.000000	-10.870910	33.268955	0.707107	-0.219626	0.672134
23.799999	11.487657	33.272717	0.707107	0.230767	0.668391
23.799999	-11.487657	33.272717	0.707107	-0.230767	0.668391
24.799999	7.887063	33.278133	0.707107	0.163070	0.688047
24.799999	-7.887063	33.278133	0.707107	-0.163070	0.688047
23.000000	13.707468	33.288216	0.707107	0.269240	0.653842
23.000000	-13.707468	33.288216	0.707107	-0.269240	0.653842
24.400000	9.371080	33.306801	0.707107	0.191513	0.680678
24.400000	-9.371080	33.306801	0.707107	-0.191513	0.680678
23.200001	13.079208	33.325279	0.707107	0.258335	0.658227
23.200001	-13.079208	33.325279	0.707107	-0.258335	0.658227
25.000000	6.736969	33.325863	0.707107	0.140110	0.693087
25.000000	-6.736969	33.325863	0.707107	-0.140110	0.693087
24.600000	8.488455	33.336258	0.707107	0.174484	0.685241
24.600000	-8.488455	33.336258	0.707107	-0.174484	0.685241
24.200001	9.980753	33.338036	0.707107	0.202801	0.677401
24.200001	-9.980753	33.338036	0.707107	-0.202801	0.677401
24.799999	7.610216	33.342533	0.707107	0.157346	0.689378
24.799999	-7.610216	33.342533	0.707107	-0.157346	0.689378
23.400000	12.453525	33.350708	0.707107	0.247359	0.662430
23.400000	-12.453525	33.350708	0.707107	-0.247359	0.662430
24.000000	10.594036	33.358154	0.707107	0.214032	0.673936
24.000000	-10.594036	33.358154	0.707107	-0.214032	0.673936
23.600000	11.830628	33.364594	0.707107	0.236314	0.666450
23.600000	-11.830628	33.364594	0.707107	-0.236314	0.666450
23.799999	11.210731	33.367043	0.707107	0.225204	0.670286
23.799999	-11.210731	33.367043	0.707107	-0.225204	0.670286
25.000000	6.459765	33.380703	0.707107	0.134345	0.694227
25.000000	-6.459765	33.380703	0.707107	-0.134345	0.694227
24.400000	9.093944	33.383533	0.707107	0.185849	0.682246
24.400000	-9.093944	33.383533	0.707107	-0.185849	0.682246
23.000000	13.430336	33.400990	0.707107	0.263797	0.656057
23.000000	-13.430336	33.400990	0.707107	-0.263797	0.656057
24.799999	7.332843	33.404633	0.707107	0.151611	0.690662
24.799999	-7.332843	33.404633	0.707107	-0.151611	0.690662
24.600000	8.211103	33.405655	0.707107	0.168783	0.686668
24.600000	-8.211103	33.405655	0.707107	-0.168783	0.686668
24.200001	9.703336	33.419834	0.707107	0.197164	0.679063
24.200001	-9.703336	33.419834	0.707107	-0.197164	0.679063
23.200001	12.801790	33.432831	0.707107	0.252856	0.660351
23.200001	-12.801790	33.432831	0.707107	-0.252856	0.660351
25.000000	6.182115	33.433239	0.707107	0.128571	0.695320
25.000000	-6.182115	33.433239	0.707107	-0.128571	0.695320
24.000000	10.316431	33.445049	0.707107	0.208423	0.675692
24.000000	-10.316431	33.445049	0.707107	-0.208423	0.675692
23.400000	12.175917	33.453056	0.707107	0.241845	0.664463
23.400000	-12.175917	33.453056	0.707107	-0.241845	0.664463
24.400000	8.816179	33.457958	0.707107	0.180173	0.683767
24.400000	-8.816179	33.457958	0.707107	-0.180173	0.683767
23.799999	10.933029	33.459061	0.707107	0.219626	0.672134
23.799999	-10.933029	33.459061	0.707107	-0.219626	0.672134
23.600000	11.552927	33.461769	0.707107	0.230767	0.668391
23.600000	-11.552927	33.461769	0.707107	-0.230767	0.668391
24.799999	7.054965	33.464420	0.707107	0.145866	0.691898
24.799999	-7.054965	33.464420	0.707107	-0.145866	0.691898
24.600000	7.933186	33.472744	0.707107	0.163070	0.688047
24.600000	-7.933186	33.472744	0.707107	-0.163070	0.688047
25.000000	5.904038	33.483463	0.707107	0.122788	0.696364
25.000000	-5.904038	33.483463	0.707107	-0.122788	0.696364
24.200001	9.425248	33.499325	0.707107	0.191513	0.680678
24.200001	-9.425248	33.499325	0.707107	-0.191513	0.680678
23.000000	13.152277	33.511456	0.707107	0.258335	0.658227
23.000000	-13.152277	33.511456	0.707107	-0.258335	0.658227
24.799999	6.776598	33.521900	0.707107	0.140110	0.693087
24.799999	-6.776598	33.521900	0.707107	-0.140110	0.693087
24.000000	10.038114	33.529633	0.707107	0.202801	0.677401
24.000000	-10.038114	33.529633	0.707107	-0.202801	0.677401
24.400000	8.537806	33.530075	0.707107	0.174484	0.685241
24.400000	-8.537806	33.530075	0.707107	-0.174484	0.685241
25.000000	5.625553	33.531376	0.707107	0.116996	0.697361
25.000000	-5.625553	33.531376	0.707107	-0.116996	0.697361
24.600000	7.654720	33.537521	0.707107	0.157346	0.689378
24.600000	-7.654720	33.537521	0.707107	-0.157346	0.689378
23.200001	12.523488	33.538071	0.707107	0.247359	0.662430
23.200001	-12.523488	33.538071	0.707107	-0.247359	0.662430
23.799999	10.654573	33.548771	0.707107	0.214032	0.673936
23.799999	-10.654573	33.548771	0.707107	-0.214032	0.673936
23.400000	11.897469	33.553097	0.707107	0.236314	0.666450
23.400000	-11.897469	33.553097	0.707107	-0.236314	0.666450
23.600000	11.274427	33.556629	0.707107	0.225204	0.670286
23.600000	-11.274427	33.556629	0.707107	-0.225204	0.670286
24.200001	9.146510	33.576500	0.707107	0.185849	0.682246
24.200001	-9.146510	33.576500	0.707107	-0.185849	0.682246
25.000000	5.346680	33.576973	0.707107	0.111196	0.698309
25.000000	-5.346680	33.576973	0.707107	-0.111196	0.698309
24.799999	6.497764	33.577061	0.707107	0.134345	0.694227
24.799999	-6.497764	33.577061	0.707107	-0.134345	0.694227
24.400000	8.258842	33.599873	0.707107	0.168783	0.686668
24.400000	-8.258842	33.599873	0.707107	-0.168783	0.686668
24.600000	7.375726	33.599979	0.707107	0.151611	0.690662
24.600000	-7.375726	33.599979	0.707107	-0.151611	0.690662
24.000000	9.759102	33.611900	0.707107	0.197164	0.679063
24.000000	-9.759102	33.611900	0.707107	-0.197164	0.679063
23.000000	12.873309	33.619606	0.707107	0.252856	0.660351
23.000000	-12.873309	33.619606	0.707107	-0.252856	0.660351
25.000000	5.067437	33.620247	0.707107	0.105389	0.699209
25.000000	-5.067437	33.620247	0.707107	-0.105389	0.699209
24.799999	6.218481	33.629906	0.707107	0.128571	0.695320
24.799999	-6.218481	33.629906	0.707107	-0.128571	0.695320
23.799999	10.375382	33.636162	0.707107	0.208423	0.675692
23.799999	-10.375382	33.636162	0.707107	-0.208423	0.675692
23.200001	12.244321	33.640995	0.707107	0.241845	0.664463
23.200001	-12.244321	33.640995	0.707107	-0.241845	0.664463
23.600000	10.995149	33.649170	0.707107	0.219626	0.672134
23.600000	-10.995149	33.649170	0.707107	-0.219626	0.672134
23.400000	11.618197	33.650818	0.707107	0.230767	0.668391
23.400000	-11.618197	33.650818	0.707107	-0.230767	0.668391
24.200001	8.867140	33.651356	0.707107	0.180173	0.683767
24.200001	-8.867140	33.651356	0.707107	-0.180173	0.683767
24.600000	7.096221	33.660118	0.707107	0.145866	0.691898
24.600000	-7.096221	33.660118	0.707107	-0.145866	0.691898
25.000000	4.787844	33.661201	0.707107	0.099574	0.700061
25.000000	-4.787844	33.661201	0.707107	-0.099574	0.700061
24.400000	7.979309	33.667351	0.707107	0.163070	0.688047
24.400000	-7.979309	33.667351	0.707107	-0.163070	0.688047
24.799999	5.938768	33.680424	0.707107	0.122788	0.696364
24.799999	-5.938768	33.680424	0.707107	-0.122788	0.696364
24.000000	9.479417	33.691849	0.707107	0.191513	0.680678
24.000000	-9.479417	33.691849	0.707107	-0.191513	0.680678
25.000000	4.507921	33.699833	0.707107	0.093752	0.700864
25.000000	-4.507921	33.699833	0.707107	-0.093752	0.700864
24.600000	6.816227	33.717934	0.707107	0.140110	0.693087
24.600000	-6.816227	33.717934	0.707107	-0.140110	0.693087
23.799999	10.095474	33.721230	0.707107	0.202801	0.677401
23.799999	-10.095474	33.721230	0.707107	-0.202801	0.677401
24.200001	8.587157	33.723888	0.707107	0.174484	0.685241
24.200001	-8.587157	33.723888	0.707107	-0.174484	0.685241
23.000000	12.593452	33.725433	0.707107	0.247359	0.662430
23.000000	-12.593452	33.725433	0.707107	-0.247359	0.662430
24.799999	5.658645	33.728619	0.707107	0.116996	0.697361
24.799999	-5.658645	33.728619	0.707107	-0.116996	0.697361
24.400000	7.699224	33.732506	0.707107	0.157346	0.689378
24.400000	-7.699224	33.732506	0.707107	-0.157346	0.689378
25.000000	4.227686	33.736134	0.707107	0.087924	0.701619
25.000000	-4.227686	33.736134	0.707107	-0.087924	0.701619
23.600000	10.715111	33.739388	0.707107	0.214032	0.673936
23.600000	-10.715111	33.739388	0.707107	-0.214032	0.673936
23.200001	11.964308	33.741596	0.707107	0.236314	0.666450
23.200001	-11.964308	33.741596	0.707107	-0.236314	0.666450
23.400000	11.338124	33.746212	0.707107	0.225204	0.670286
23.400000	-11.338124	33.746212	0.707107	-0.225204	0.670286
24.000000	9.199077	33.769470	0.707107	0.185849	0.682246
24.000000	-9.199077	33.769470	0.707107	-0.185849	0.682246
25.000000	3.947159	33.770103	0.707107	0.082090	0.702326
25.000000	-3.947159	33.770103	0.707107	-0.082090	0.702326
24.600000	6.535762	33.773418	0.707107	0.134345	0.694227
24.600000	-6.535762	33.773418	0.707107	-0.134345	0.694227
24.799999	5.378131	33.774483	0.707107	0.111196	0.698309
24.799999	-5.378131	33.774483	0.707107	-0.111196	0.698309
24.200001	8.306581	33.794094	0.707107	0.168783	0.686668
24.200001	-8.306581	33.794094	0.707107	-0.168783	0.686668
24.400000	7.418608	33.795330	0.707107	0.151611	0.690662
24.400000	-7.418608	33.795330	0.707107	-0.151611	0.690662
25.000000	3.666360	33.801743	0.707107	0.076250	0.702984
25.000000	-3.666360	33.801743	0.707107	-0.076250	0.702984
23.799999	9.814868	33.803970	0.707107	0.197164	0.679063
23.799999	-9.814868	33.803970	0.707107	-0.197164	0.679063
24.799999	5.097246	33.818016	0.707107	0.105389	0.699209
24.799999	-5.097246	33.818016	0.707107	-0.105389	0.699209
24.600000	6.254846	33.826572	0.707107	0.128571	0.695320
24.600000	-6.254846	33.826572	0.707107	-0.128571	0.695320
23.600000	10.434333	33.827278	0.707107	0.208423	0.675692
23.600000	-10.434333	33.827278	0.707107	-0.208423	0.675692
23.000000	12.312725	33.828934	0.707107	0.241845	0.664463
23.000000	-12.312725	33.828934	0.707107	-0.241845	0.664463
25.000000	3.385307	33.831047	0.707107	0.070405	0.703593
25.000000	-3.385307	33.831047	0.707107	-0.070405	0.703593
23.400000	11.057268	33.839279	0.707107	0.219626	0.672134
23.400000	-11.057268	33.839279	0.707107	-0.219626	0.672134
23.200001	11.683469	33.839867	0.707107	0.230767	0.668391
23.200001	-11.683469	33.839867	0.707107	-0.230767	0.668391
24.000000	8.918100	33.844757	0.707107	0.180173	0.683767
24.000000	-8.918100	33.844757	0.707107	-0.180173	0.683767
24.400000	7.137479	33.855820	0.707107	0.145866	0.691898
24.400000	-7.137479	33.855820	0.707107	-0.145866	0.691898
25.000000	3.104020	33.858013	0.707107	0.064555	0.704154
25.000000	-3.104020	33.858013	0.707107	-0.064555	0.704154
24.799999	4.816008	33.859211	0.707107	0.099574	0.700061
24.799999	-4.816008	33.859211	0.707107	-0.099574	0.700061
24.200001	8.025433	33.861961	0.707107	0.163070	0.688047
24.200001	-8.025433	33.861961	0.707107	-0.163070	0.688047
24.600000	5.973497	33.877388	0.707107	0.122788	0.696364
24.600000	-5.973497	33.877388	0.707107	-0.122788	0.696364
25.000000	2.822519	33.882641	0.707107	0.058701	0.704666
25.000000	-2.822519	33.882641	0.707107	-0.058701	0.704666
23.799999	9.533585	33.884373	0.707107	0.191513	0.680678
23.799999	-9.533585	33.884373	0.707107	-0.191513	0.680678
24.799999	4.534438	33.898067	0.707107	0.093752	0.700864
24.799999	-4.534438	33.898067	0.707107	-0.093752	0.700864
25.000000	2.540823	33.904930	0.707107	0.052842	0.705130
25.000000	-2.540823	33.904930	0.707107	-0.052842	0.705130
23.600000	10.152835	33.912830	0.707107	0.202801	0.677401
23.600000	-10.152835	33.912830	0.707107	-0.202801	0.677401
24.400000	6.855856	33.913967	0.707107	0.140110	0.693087
24.400000	-6.855856	33.913967	0.707107	-0.140110	0.693087
24.000000	8.636509	33.917706	0.707107	0.174484	0.685241
24.000000	-8.636509	33.917706	0.707107	-0.174484	0.685241
25.000000	2.258952	33.924873	0.707107	0.046980	0.705544
25.000000	-2.258952	33.924873	0.707107	-0.046980	0.705544
24.600000	5.691736	33.925861	0.707107	0.116996	0.697361
24.600000	-5.691736	33.925861	0.707107	-0.116996	0.697361
24.200001	7.743729	33.927490	0.707107	0.157346	0.689378
24.200001	-7.743729	33.927490	0.707107	-0.157346	0.689378
23.400000	10.775648	33.930008	0.707107	0.214032	0.673936
23.400000	-10.775648	33.930008	0.707107	-0.214032	0.673936
23.000000	12.031148	33.930096	0.707107	0.236314	0.666450
23.000000	-12.031148	33.930096	0.707107	-0.236314	0.666450
24.799999	4.252555	33.934582	0.707107	0.087924	0.701619
24.799999	-4.252555	33.934582	0.707107	-0.087924	0.701619
23.200001	11.401822	33.935799	0.707107	0.225204	0.670286
23.200001	-11.401822	33.935799	0.707107	-0.225204	0.670286
25.000000	1.976924	33.942478	0.707107	0.041115	0.705910
25.000000	-1.976924	33.942478	0.707107	-0.041115	0.705910
25.000000	1.694760	33.957737	0.707107	0.035246	0.706228
25.000000	-1.694760	33.957737	0.707107	-0.035246	0.706228
23.799999	9.251642	33.962437	0.707107	0.185849	0.682246
23.799999	-9.251642	33.962437	0.707107	-0.185849	0.682246
24.799999	3.970378	33.968750	0.707107	0.082090	0.702326
24.799999	-3.970378	33.968750	0.707107	-0.082090	0.702326
24.400000	6.573761	33.969776	0.707107	0.134345	0.694227
24.400000	-6.573761	33.969776	0.707107	-0.134345	0.694227
25.000000	1.412479	33.970646	0.707107	0.029376	0.706496
25.000000	-1.412479	33.970646	0.707107	-0.029376	0.706496
24.600000	5.409582	33.971996	0.707107	0.111196	0.698309
24.600000	-5.409582	33.971996	0.707107	-0.111196	0.698309
25.000000	1.130100	33.981213	0.707107	0.023503	0.706716
25.000000	-1.130100	33.981213	0.707107	-0.023503	0.706716
24.000000	8.354321	33.988312	0.707107	0.168783	0.686668
24.000000	-8.354321	33.988312	0.707107	-0.168783	0.686668
25.000000	0.847643	33.989433	0.707107	0.017629	0.706887
25.000000	-0.847643	33.989433	0.707107	-0.017629	0.706887
24.200001	7.461490	33.990677	0.707107	0.151611	0.690662
24.200001	-7.461490	33.990677	0.707107	-0.151611	0.690662
25.000000	0.565128	33.995304	0.707107	0.011753	0.707009
25.000000	-0.565128	33.995304	0.707107	-0.011753	0.707009
23.600000	9.870634	33.996037	0.707107	0.197164	0.679063
23.600000	-9.870634	33.996037	0.707107	-0.197164	0.679063
25.000000	0.282574	33.998825	0.707107	0.005877	0.707082
25.000000	-0.282574	33.998825	0.707107	-0.005877	0.707082
25.000000	0.000000	34.000000	0.707107	0.000000	0.707107
24.799999	3.687926	34.000576	0.707107	0.076250	0.702984
24.799999	-3.687926	34.000576	0.707107	-0.076250	0.702984
24.600000	5.127054	34.015781	0.707107	0.105389	0.699209
24.600000	-5.127054	34.015781	0.707107	-0.105389	0.699209
23.400000	10.493284	34.018391	0.707107	0.208423	0.675692
23.400000	-10.493284	34.018391	0.707107	-0.208423	0.675692
24.400000	6.291211	34.023235	0.707107	0.128571	0.695320
24.400000	-6.291211	34.023235	0.707107	-0.128571	0.695320
23.000000	11.748739	34.028915	0.707107	0.230767	0.668391
23.000000	-11.748739	34.028915	0.707107	-0.230767	0.668391
23.200001	11.119388	34.029388	0.707107	0.219626	0.672134
23.200001	-11.119388	34.029388	0.707107	-0.219626	0.672134
24.799999	3.405220	34.030052	0.707107	0.070405	0.703593
24.799999	-3.405220	34.030052	0.707107	-0.070405	0.703593
23.799999	8.969061	34.038155	0.707107	0.180173	0.683767
23.799999	-8.969061	34.038155	0.707107	-0.180173	0.683767
24.200001	7.178736	34.051517	0.707107	0.145866	0.691898
24.200001	-7.178736	34.051517	0.707107	-0.145866	0.691898
24.000000	8.071555	34.056572	0.707107	0.163070	0.688047
24.000000	-8.071555	34.056572	0.707107	-0.163070	0.688047
24.799999	3.122279	34.057178	0.707107	0.064555	0.704154
24.799999	-3.122279	34.057178	0.707107	-0.064555	0.704154
24.600000	4.844172	34.057217	0.707107	0.099574	0.700061
24.600000	-4.844172	34.057217	0.707107	-0.099574	0.700061
24.400000	6.008227	34.074348	0.707107	0.122788	0.696364
24.400000	-6.008227	34.074348	0.707107	-0.122788	0.696364
23.600000	9.587752	34.076897	0.707107	0.191513	0.680678
23.600000	-9.587752	34.076897	0.707107	-0.191513	0.680678
24.799999	2.839122	34.081951	0.707107	0.058701	0.704666
24.799999	-2.839122	34.081951	0.707107	-0.058701	0.704666
24.600000	4.560955	34.096302	0.707107	0.093752	0.700864
24.600000	-4.560955	34.096302	0.707107	-0.093752	0.700864
24.799999	2.555769	34.104370	0.707107	0.052842	0.705130
24.799999	-2.555769	34.104370	0.707107	-0.052842	0.705130
23.400000	10.210196	34.104427	0.707107	0.202801	0.677401
23.400000	-10.210196	34.104427	0.707107	-0.202801	0.677401
24.200001	6.895486	34.110004	0.707107	0.140110	0.693087
24.200001	-6.895486	34.110004	0.707107	-0.140110	0.693087
23.799999	8.685861	34.111519	0.707107	0.174484	0.685241
23.799999	-8.685861	34.111519	0.707107	-0.174484	0.685241
23.200001	10.836185	34.120625	0.707107	0.214032	0.673936
23.200001	-10.836185	34.120625	0.707107	-0.214032	0.673936
24.000000	7.788233	34.122478	0.707107	0.157346	0.689378
24.000000	-7.788233	34.122478	0.707107	-0.157346	0.689378
24.400000	5.724828	34.123104	0.707107	0.116996	0.697361
24.400000	-5.724828	34.123104	0.707107	-0.116996	0.697361
24.799999	2.272240	34.124432	0.707107	0.046980	0.705544
24.799999	-2.272240	34.124432	0.707107	-0.046980	0.705544
23.000000	11.465519	34.125385	0.707107	0.225204	0.670286
23.000000	-11.465519	34.125385	0.707107	-0.225204	0.670286
24.600000	4.277423	34.133030	0.707107	0.087924	0.701619
24.600000	-4.277423	34.133030	0.707107	-0.087924	0.701619
24.799999	1.988553	34.142139	0.707107	0.041115	0.705910
24.799999	-1.988553	34.142139	0.707107	-0.041115	0.705910
23.600000	9.304209	34.155407	0.707107	0.185849	0.682246
23.600000	-9.304209	34.155407	0.707107	-0.185849	0.682246
24.799999	1.704729	34.157486	0.707107	0.035246	0.706228
24.799999	-1.704729	34.157486	0.707107	-0.035246	0.706228
24.200001	6.611760	34.166134	0.707107	0.134345	0.694227
24.200001	-6.611760	34.166134	0.707107	-0.134345	0.694227
24.600000	3.993596	34.167400	0.707107	0.082090	0.702326
24.600000	-3.993596	34.167400	0.707107	-0.082090	0.702326
24.400000	5.441033	34.169506	0.707107	0.111196	0.698309
24.400000	-5.441033	34.169506	0.707107	-0.111196	0.698309
24.799999	1.420788	34.170475	0.707107	0.029376	0.706496
24.799999	-1.420788	34.170475	0.707107	-0.029376	0.706496
24.799999	1.136748	34.181103	0.707107	0.023503	0.706716
24.799999	-1.136748	34.181103	0.707107	-0.023503	0.706716
23.799999	8.402060	34.182529	0.707107	0.168783	0.686668
23.799999	-8.402060	34.182529	0.707107	-0.168783	0.686668
24.000000	7.504372	34.186028	0.707107	0.151611	0.690662
24.000000	-7.504372	34.186028	0.707107	-0.151611	0.690662
23.400000	9.926401	34.188107	0.707107	0.197164	0.679063
23.400000	-9.926401	34.188107	0.707107	-0.197164	0.679063
24.799999	0.852630	34.189369	0.707107	0.017629	0.706887
24.799999	-0.852630	34.189369	0.707107	-0.017629	0.706887
24.799999	0.568452	34.195274	0.707107	0.011753	0.707009
24.799999	-0.568452	34.195274	0.707107	-0.011753	0.707009
24.799999	0.284236	34.198818	0.707107	0.005877	0.707082
24.799999	-0.284236	34.198818	0.707107	-0.005877	0.707082
24.600000	3.709493	34.199409	0.707107	0.076250	0.702984
24.600000	-3.709493	34.199409	0.707107	-0.076250	0.702984
24.799999	0.000000	34.200001	0.707107	0.000000	0.707107
23.200001	10.552236	34.209507	0.707107	0.208423	0.675692
23.200001	-10.552236	34.209507	0.707107	-0.208423	0.675692
24.400000	5.156862	34.213547	0.707107	0.105389	0.699209
24.400000	-5.156862	34.213547	0.707107	-0.105389	0.699209
23.000000	11.181507	34.219494	0.707107	0.219626	0.672134
23.000000	-11.181507	34.219494	0.707107	-0.219626	0.672134
24.200001	6.327577	34.219902	0.707107	0.128571	0.695320
24.200001	-6.327577	34.219902	0.707107	-0.128571	0.695320
24.600000	3.425134	34.229057	0.707107	0.070405	0.703593
24.600000	-3.425134	34.229057	0.707107	-0.070405	0.703593
23.600000	9.020021	34.231552	0.707107	0.180173	0.683767
23.600000	-9.020021	34.231552	0.707107	-0.180173	0.683767
24.000000	7.219993	34.247215	0.707107	0.145866	0.691898
24.000000	-7.219993	34.247215	0.707107	-0.145866	0.691898
23.799999	8.117679	34.251179	0.707107	0.163070	0.688047
23.799999	-8.117679	34.251179	0.707107	-0.163070	0.688047
24.400000	4.872335	34.255222	0.707107	0.099574	0.700061
24.400000	-4.872335	34.255222	0.707107	-0.099574	0.700061
24.600000	3.140538	34.256344	0.707107	0.064555	0.704154
24.600000	-3.140538	34.256344	0.707107	-0.064555	0.704154
23.400000	9.641921	34.269424	0.707107	0.191513	0.680678
23.400000	-9.641921	34.269424	0.707107	-0.191513	0.680678
24.200001	6.042956	34.271309	0.707107	0.122788	0.696364
24.200001	-6.042956	34.271309	0.707107	-0.122788	0.696364
24.600000	2.855725	34.281261	0.707107	0.058701	0.704666
24.600000	-2.855725	34.281261	0.707107	-0.058701	0.704666
24.400000	4.587472	34.294533	0.707107	0.093752	0.700864
24.400000	-4.587472	34.294533	0.707107	-0.093752	0.700864
23.200001	10.267556	34.296024	0.707107	0.202801	0.677401
23.200001	-10.267556	34.296024	0.707107	-0.202801	0.677401
24.600000	2.570715	34.303810	0.707107	0.052842	0.705130
24.600000	-2.570715	34.303810	0.707107	-0.052842	0.705130
23.600000	8.735212	34.305336	0.707107	0.174484	0.685241
23.600000	-8.735212	34.305336	0.707107	-0.174484	0.685241
24.000000	6.935115	34.306038	0.707107	0.140110	0.693087
24.000000	-6.935115	34.306038	0.707107	-0.140110	0.693087
23.000000	10.896723	34.311245	0.707107	0.214032	0.673936
23.000000	-10.896723	34.311245	0.707107	-0.214032	0.673936
23.799999	7.832737	34.317463	0.707107	0.157346	0.689378
23.799999	-7.832737	34.317463	0.707107	-0.157346	0.689378
24.200001	5.757919	34.320351	0.707107	0.116996	0.697361
24.200001	-5.757919	34.320351	0.707107	-0.116996	0.697361
24.600000	2.285528	34.323990	0.707107	0.046980	0.705544
24.600000	-2.285528	34.323990	0.707107	-0.046980	0.705544
24.400000	4.302292	34.331478	0.707107	0.087924	0.701619
24.400000	-4.302292	34.331478	0.707107	-0.087924	0.701619
24.600000	2.000182	34.341801	0.707107	0.041115	0.705910
24.600000	-2.000182	34.341801	0.707107	-0.041115	0.705910
23.400000	9.356774	34.348373	0.707107	0.185849	0.682246
23.400000	-9.356774	34.348373	0.707107	-0.185849	0.682246
24.600000	1.714698	34.357239	0.707107	0.035246	0.706228
24.600000	-1.714698	34.357239	0.707107	-0.035246	0.706228
24.000000	6.649758	34.362492	0.707107	0.134345	0.694227
24.000000	-6.649758	34.362492	0.707107	-0.134345	0.694227
24.400000	4.016815	34.366047	0.707107	0.082090	0.702326
24.400000	-4.016815	34.366047	0.707107	-0.082090	0.702326
24.200001	5.472484	34.367020	0.707107	0.111196	0.698309
24.200001	-5.472484	34.367020	0.707107	-0.111196	0.698309
24.600000	1.429096	34.370304	0.707107	0.029376	0.706496
24.600000	-1.429096	34.370304	0.707107	-0.029376	0.706496
23.600000	8.449799	34.376751	0.707107	0.168783	0.686668
23.600000	-8.449799	34.376751	0.707107	-0.168783	0.686668
23.200001	9.982167	34.380173	0.707107	0.197164	0.679063
23.200001	-9.982167	34.380173	0.707107	-0.197164	0.679063
24.600000	1.143396	34.380993	0.707107	0.023503	0.706716
24.600000	-1.143396	34.380993	0.707107	-0.023503	0.706716
23.799999	7.547254	34.381374	0.707107	0.151611	0.690662
23.799999	-7.547254	34.381374	0.707107	-0.151611	0.690662
24.600000	0.857616	34.389309	0.707107	0.017629	0.706887
24.600000	-0.857616	34.389309	0.707107	-0.017629	0.706887
24.600000	0.571777	34.395248	0.707107	0.011753	0.707009
24.600000	-0.571777	34.395248	0.707107	-0.011753	0.707009
24.400000	3.731060	34.398243	0.707107	0.076250	0.702984
24.400000	-3.731060	34.398243	0.707107	-0.076250	0.702984
24.600000	0.285898	34.398811	0.707107	0.005877	0.707082
24.600000	-0.285898	34.398811	0.707107	-0.005877	0.707082
24.600000	0.000000	34.400002	0.707107	0.000000	0.707107
23.000000	10.611186	34.400620	0.707107	0.208423	0.675692
23.000000	-10.611186	34.400620	0.707107	-0.208423	0.675692
24.200001	5.186671	34.411312	0.707107	0.105389	0.699209
24.200001	-5.186671	34.411312	0.707107	-0.105389	0.699209
24.000000	6.363942	34.416569	0.707107	0.128571	0.695320
24.000000	-6.363942	34.416569	0.707107	-0.128571	0.695320
23.400000	9.070982	34.424950	0.707107	0.180173	0.683767
23.400000	-9.070982	34.424950	0.707107	-0.180173	0.683767
24.400000	3.445047	34.428066	0.707107	0.070405	0.703593
24.400000	-3.445047	34.428066	0.707107	-0.070405	0.703593
23.799999	7.261250	34.442913	0.707107	0.145866	0.691898
23.799999	-7.261250	34.442913	0.707107	-0.145866	0.691898
23.600000	8.163802	34.445789	0.707107	0.163070	0.688047
23.600000	-8.163802	34.445789	0.707107	-0.163070	0.688047
24.200001	4.900499	34.453232	0.707107	0.099574	0.700061
24.200001	-4.900499	34.453232	0.707107	-0.099574	0.700061
24.400000	3.158797	34.455509	0.707107	0.064555	0.704154
24.400000	-3.158797	34.455509	0.707107	-0.064555	0.704154
23.200001	9.696089	34.461948	0.707107	0.191513	0.680678
23.200001	-9.696089	34.461948	0.707107	-0.191513	0.680678
24.000000	6.077686	34.468273	0.707107	0.122788	0.696364
24.000000	-6.077686	34.468273	0.707107	-0.122788	0.696364
24.400000	2.872328	34.480572	0.707107	0.058701	0.704666
24.400000	-2.872328	34.480572	0.707107	-0.058701	0.704666
23.000000	10.324917	34.487621	0.707107	0.202801	0.677401
23.000000	-10.324917	34.487621	0.707107	-0.202801	0.677401
24.200001	4.613989	34.492767	0.707107	0.093752	0.700864
24.200001	-4.613989	34.492767	0.707107	-0.093752	0.700864
23.400000	8.784563	34.499153	0.707107	0.174484	0.685241
23.400000	-8.784563	34.499153	0.707107	-0.174484	0.685241
23.799999	6.974744	34.502071	0.707107	0.140110	0.693087
23.799999	-6.974744	34.502071	0.707107	-0.140110	0.693087
24.400000	2.585661	34.503250	0.707107	0.052842	0.705130
24.400000	-2.585661	34.503250	0.707107	-0.052842	0.705130
23.600000	7.877241	34.512447	0.707107	0.157346	0.689378
23.600000	-7.877241	34.512447	0.707107	-0.157346	0.689378
24.000000	5.791011	34.517593	0.707107	0.116996	0.697361
24.000000	-5.791011	34.517593	0.707107	-0.116996	0.697361
24.400000	2.298815	34.523548	0.707107	0.046980	0.705544
24.400000	-2.298815	34.523548	0.707107	-0.046980	0.705544
24.200001	4.327161	34.529922	0.707107	0.087924	0.701619
24.200001	-4.327161	34.529922	0.707107	-0.087924	0.701619
23.200001	9.409341	34.541344	0.707107	0.185849	0.682246
23.200001	-9.409341	34.541344	0.707107	-0.185849	0.682246
24.400000	2.011811	34.541462	0.707107	0.041115	0.705910
24.400000	-2.011811	34.541462	0.707107	-0.041115	0.705910
24.400000	1.724668	34.556988	0.707107	0.035246	0.706228
24.400000	-1.724668	34.556988	0.707107	-0.035246	0.706228
23.799999	6.687757	34.558846	0.707107	0.134345	0.694227
23.799999	-6.687757	34.558846	0.707107	-0.134345	0.694227
24.000000	5.503935	34.564529	0.707107	0.111196	0.698309
24.000000	-5.503935	34.564529	0.707107	-0.111196	0.698309
24.200001	4.040033	34.564693	0.707107	0.082090	0.702326
24.200001	-4.040033	34.564693	0.707107	-0.082090	0.702326
24.400000	1.437405	34.570129	0.707107	0.029376	0.706496
24.400000	-1.437405	34.570129	0.707107	-0.029376	0.706496
23.400000	8.497538	34.570969	0.707107	0.168783	0.686668
23.400000	-8.497538	34.570969	0.707107	-0.168783	0.686668
23.000000	10.037933	34.572243	0.707107	0.197164	0.679063
23.000000	-10.037933	34.572243	0.707107	-0.197164	0.679063
23.600000	7.590136	34.576725	0.707107	0.151611	0.690662
23.600000	-7.590136	34.576725	0.707107	-0.151611	0.690662
24.400000	1.150043	34.580883	0.707107	0.023503	0.706716
24.400000	-1.150043	34.580883	0.707107	-0.023503	0.706716
24.400000	0.862602	34.589245	0.707107	0.017629	0.706887
24.400000	-0.862602	34.589245	0.707107	-0.017629	0.706887
24.400000	0.575101	34.595219	0.707107	0.011753	0.707009
24.400000	-0.575101	34.595219	0.707107	-0.011753	0.707009
24.200001	3.752627	34.597076	0.707107	0.076250	0.702984
24.200001	-3.752627	34.597076	0.707107	-0.076250	0.702984
24.400000	0.287560	34.598804	0.707107	0.005877	0.707082
24.400000	-0.287560	34.598804	0.707107	-0.005877	0.707082
24.400000	0.000000	34.599998	0.707107	0.000000	0.707107
24.000000	5.216479	34.609077	0.707107	0.105389	0.699209
24.000000	-5.216479	34.609077	0.707107	-0.105389	0.699209
23.799999	6.400307	34.613235	0.707107	0.128571	0.695320
23.799999	-6.400307	34.613235	0.707107	-0.128571	0.695320
23.200001	9.121943	34.618351	0.707107	0.180173	0.683767
23.200001	-9.121943	34.618351	0.707107	-0.180173	0.683767
24.200001	3.464961	34.627071	0.707107	0.070405	0.703593
24.200001	-3.464961	34.627071	0.707107	-0.070405	0.703593
23.600000	7.302507	34.638611	0.707107	0.145866	0.691898
23.600000	-7.302507	34.638611	0.707107	-0.145866	0.691898
23.400000	8.209925	34.640396	0.707107	0.163070	0.688047
23.400000	-8.209925	34.640396	0.707107	-0.163070	0.688047
24.000000	4.928663	34.651237	0.707107	0.099574	0.700061
24.000000	-4.928663	34.651237	0.707107	-0.099574	0.700061
23.000000	9.750257	34.654472	0.707107	0.191513	0.680678
23.000000	-9.750257	34.654472	0.707107	-0.191513	0.680678
24.200001	3.177056	34.654671	0.707107	0.064555	0.704154
24.200001	-3.177056	34.654671	0.707107	-0.064555	0.704154
23.799999	6.112416	34.665234	0.707107	0.122788	0.696364
23.799999	-6.112416	34.665234	0.707107	-0.122788	0.696364
24.200001	2.888931	34.679878	0.707107	0.058701	0.704666
24.200001	-2.888931	34.679878	0.707107	-0.058701	0.704666
24.000000	4.640507	34.691002	0.707107	0.093752	0.700864
24.000000	-4.640507	34.691002	0.707107	-0.093752	0.700864
23.200001	8.833915	34.692966	0.707107	0.174484	0.685241
23.200001	-8.833915	34.692966	0.707107	-0.174484	0.685241
23.600000	7.014373	34.698105	0.707107	0.140110	0.693087
23.600000	-7.014373	34.698105	0.707107	-0.140110	0.693087
24.200001	2.600607	34.702694	0.707107	0.052842	0.705130
24.200001	-2.600607	34.702694	0.707107	-0.052842	0.705130
23.400000	7.921745	34.707432	0.707107	0.157346	0.689378
23.400000	-7.921745	34.707432	0.707107	-0.157346	0.689378
23.799999	5.824102	34.714836	0.707107	0.116996	0.697361
23.799999	-5.824102	34.714836	0.707107	-0.116996	0.697361
24.200001	2.312104	34.723106	0.707107	0.046980	0.705544
24.200001	-2.312104	34.723106	0.707107	-0.046980	0.705544
24.000000	4.352030	34.728371	0.707107	0.087924	0.701619
24.000000	-4.352030	34.728371	0.707107	-0.087924	0.701619
23.000000	9.461907	34.734310	0.707107	0.185849	0.682246
23.000000	-9.461907	34.734310	0.707107	-0.185849	0.682246
24.200001	2.023440	34.741123	0.707107	0.041115	0.705910
24.200001	-2.023440	34.741123	0.707107	-0.041115	0.705910
23.600000	6.725755	34.755203	0.707107	0.134345	0.694227
23.600000	-6.725755	34.755203	0.707107	-0.134345	0.694227
24.200001	1.734637	34.756741	0.707107	0.035246	0.706228
24.200001	-1.734637	34.756741	0.707107	-0.035246	0.706228
23.799999	5.535386	34.762039	0.707107	0.111196	0.698309
23.799999	-5.535386	34.762039	0.707107	-0.111196	0.698309
24.000000	4.063252	34.763344	0.707107	0.082090	0.702326
24.000000	-4.063252	34.763344	0.707107	-0.082090	0.702326
23.200001	8.545277	34.765186	0.707107	0.168783	0.686668
23.200001	-8.545277	34.765186	0.707107	-0.168783	0.686668
24.200001	1.445714	34.769958	0.707107	0.029376	0.706496
24.200001	-1.445714	34.769958	0.707107	-0.029376	0.706496
23.400000	7.633018	34.772072	0.707107	0.151611	0.690662
23.400000	-7.633018	34.772072	0.707107	-0.151611	0.690662
24.200001	1.156691	34.780773	0.707107	0.023503	0.706716
24.200001	-1.156691	34.780773	0.707107	-0.023503	0.706716
24.200001	0.867588	34.789185	0.707107	0.017629	0.706887
24.200001	-0.867588	34.789185	0.707107	-0.017629	0.706887
24.200001	0.578425	34.795193	0.707107	0.011753	0.707009
24.200001	-0.578425	34.795193	0.707107	-0.011753	0.707009
24.000000	3.774194	34.795910	0.707107	0.076250	0.702984
24.000000	-3.774194	34.795910	0.707107	-0.076250	0.702984
24.200001	0.289223	34.798798	0.707107	0.005877	0.707082
24.200001	-0.289223	34.798798	0.707107	-0.005877	0.707082
24.200001	0.000000	34.799999	0.707107	0.000000	0.707107
23.799999	5.246288	34.806847	0.707107	0.105389	0.699209
23.799999	-5.246288	34.806847	0.707107	-0.105389	0.699209
23.600000	6.436673	34.809902	0.707107	0.128571	0.695320
23.600000	-6.436673	34.809902	0.707107	-0.128571	0.695320
23.000000	9.172903	34.811749	0.707107	0.180173	0.683767
23.000000	-9.172903	34.811749	0.707107	-0.180173	0.683767
24.000000	3.484875	34.826077	0.707107	0.070405	0.703593
24.000000	-3.484875	34.826077	0.707107	-0.070405	0.703593
23.400000	7.343764	34.834309	0.707107	0.145866	0.691898
23.400000	-7.343764	34.834309	0.707107	-0.145866	0.691898
23.200001	8.256048	34.835007	0.707107	0.163070	0.688047
23.200001	-8.256048	34.835007	0.707107	-0.163070	0.688047
23.799999	4.956827	34.849243	0.707107	0.099574	0.700061
23.799999	-4.956827	34.849243	0.707107	-0.099574	0.700061
24.000000	3.195315	34.853836	0.707107	0.064555	0.704154
24.000000	-3.195315	34.853836	0.707107	-0.064555	0.704154
23.600000	6.147145	34.862194	0.707107	0.122788	0.696364
23.600000	-6.147145	34.862194	0.707107	-0.122788	0.696364
24.000000	2.905535	34.879189	0.707107	0.058701	0.704666
24.000000	-2.905535	34.879189	0.707107	-0.058701	0.704666
23.000000	8.883266	34.886784	0.707107	0.174484	0.685241
23.000000	-8.883266	34.886784	0.707107	-0.174484	0.685241
23.799999	4.667024	34.889236	0.707107	0.093752	0.700864
23.799999	-4.667024	34.889236	0.707107	-0.093752	0.700864
23.400000	7.054003	34.894142	0.707107	0.140110	0.693087
23.400000	-7.054003	34.894142	0.707107	-0.140110	0.693087
24.000000	2.615553	34.902134	0.707107	0.052842	0.705130
24.000000	-2.615553	34.902134	0.707107	-0.052842	0.705130
23.200001	7.966249	34.902420	0.707107	0.157346	0.689378
23.200001	-7.966249	34.902420	0.707107	-0.157346	0.689378
23.600000	5.857193	34.912079	0.707107	0.116996	0.697361
23.600000	-5.857193	34.912079	0.707107	-0.116996	0.697361
24.000000	2.325392	34.922665	0.707107	0.046980	0.705544
24.000000	-2.325392	34.922665	0.707107	-0.046980	0.705544
23.799999	4.376898	34.926819	0.707107	0.087924	0.701619
23.799999	-4.376898	34.926819	0.707107	-0.087924	0.701619
24.000000	2.035069	34.940784	0.707107	0.041115	0.705910
24.000000	-2.035069	34.940784	0.707107	-0.041115	0.705910
23.400000	6.763754	34.951561	0.707107	0.134345	0.694227
23.400000	-6.763754	34.951561	0.707107	-0.134345	0.694227
24.000000	1.744606	34.956493	0.707107	0.035246	0.706228
24.000000	-1.744606	34.956493	0.707107	-0.035246	0.706228
23.000000	8.593016	34.959408	0.707107	0.168783	0.686668
23.000000	-8.593016	34.959408	0.707107	-0.168783	0.686668
23.600000	5.566837	34.959553	0.707107	0.111196	0.698309
23.600000	-5.566837	34.959553	0.707107	-0.111196	0.698309
23.799999	4.086471	34.961990	0.707107	0.082090	0.702326
23.799999	-4.086471	34.961990	0.707107	-0.082090	0.702326
23.200001	7.675900	34.967422	0.707107	0.151611	0.690662
23.200001	-7.675900	34.967422	0.707107	-0.151611	0.690662
24.000000	1.454023	34.969784	0.707107	0.029376	0.706496
24.000000	-1.454023	34.969784	0.707107	-0.029376	0.706496
24.000000	1.163339	34.980659	0.707107	0.023503	0.706716
24.000000	-1.163339	34.980659	0.707107	-0.023503	0.706716
24.000000	0.872574	34.989120	0.707107	0.017629	0.706887
24.000000	-0.872574	34.989120	0.707107	-0.017629	0.706887
23.799999	3.795760	34.994747	0.707107	0.076250	0.702984
23.799999	-3.795760	34.994747	0.707107	-0.076250	0.702984
24.000000	0.581750	34.995167	0.707107	0.011753	0.707009
24.000000	-0.581750	34.995167	0.707107	-0.011753	0.707009
24.000000	0.290885	34.998791	0.707107	0.005877	0.707082
24.000000	-0.290885	34.998791	0.707107	-0.005877	0.707082
24.000000	0.000000	35.000000	0.707107	0.000000	0.707107
23.600000	5.276096	35.004612	0.707107	0.105389	0.699209
23.600000	-5.276096	35.004612	0.707107	-0.105389	0.699209
23.400000	6.473038	35.006569	0.707107	0.128571	0.695320
23.400000	-6.473038	35.006569	0.707107	-0.128571	0.695320
23.799999	3.504788	35.025082	0.707107	0.070405	0.703593
23.799999	-3.504788	35.025082	0.707107	-0.070405	0.703593
23.000000	8.302172	35.029613	0.707107	0.163070	0.688047
23.000000	-8.302172	35.029613	0.707107	-0.163070	0.688047
23.200001	7.385021	35.030006	0.707107	0.145866	0.691898
23.200001	-7.385021	35.030006	0.707107	-0.145866	0.691898
23.600000	4.984991	35.047253	0.707107	0.099574	0.700061
23.600000	-4.984991	35.047253	0.707107	-0.099574	0.700061
23.799999	3.213574	35.053001	0.707107	0.064555	0.704154
23.799999	-3.213574	35.053001	0.707107	-0.064555	0.704154
23.400000	6.181875	35.059155	0.707107	0.122788	0.696364
23.400000	-6.181875	35.059155	0.707107	-0.122788	0.696364
23.799999	2.922137	35.078499	0.707107	0.058701	0.704666
23.799999	-2.922137	35.078499	0.707107	-0.058701	0.704666
23.600000	4.693541	35.087471	0.707107	0.093752	0.700864
23.600000	-4.693541	35.087471	0.707107	-0.093752	0.700864
23.200001	7.093632	35.090176	0.707107	0.140110	0.693087
23.200001	-7.093632	35.090176	0.707107	-0.140110	0.693087
23.000000	8.010754	35.097404	0.707107	0.157346	0.689378
23.000000	-8.010754	35.097404	0.707107	-0.157346	0.689378
23.799999	2.630499	35.101574	0.707107	0.052842	0.705130
23.799999	-2.630499	35.101574	0.707107	-0.052842	0.705130
23.400000	5.890285	35.109322	0.707107	0.116996	0.697361
23.400000	-5.890285	35.109322	0.707107	-0.116996	0.697361
23.799999	2.338679	35.122223	0.707107	0.046980	0.705544
23.799999	-2.338679	35.122223	0.707107	-0.046980	0.705544
23.600000	4.401767	35.125267	0.707107	0.087924	0.701619
23.600000	-4.401767	35.125267	0.707107	-0.087924	0.701619
23.799999	2.046698	35.140446	0.707107	0.041115	0.705910
23.799999	-2.046698	35.140446	0.707107	-0.041115	0.705910
23.200001	6.801753	35.147919	0.707107	0.134345	0.694227
23.200001	-6.801753	35.147919	0.707107	-0.134345	0.694227
23.799999	1.754575	35.156242	0.707107	0.035246	0.706228
23.799999	-1.754575	35.156242	0.707107	-0.035246	0.706228
23.400000	5.598288	35.157063	0.707107	0.111196	0.698309
23.400000	-5.598288	35.157063	0.707107	-0.111196	0.698309
23.600000	4.109689	35.160637	0.707107	0.082090	0.702326
23.600000	-4.109689	35.160637	0.707107	-0.082090	0.702326
23.000000	7.718782	35.162769	0.707107	0.151611	0.690662
23.000000	-7.718782	35.162769	0.707107	-0.151611	0.690662
23.799999	1.462331	35.169613	0.707107	0.029376	0.706496
23.799999	-1.462331	35.169613	0.707107	-0.029376	0.706496
23.799999	1.169986	35.180550	0.707107	0.023503	0.706716
23.799999	-1.169986	35.180550	0.707107	-0.023503	0.706716
23.799999	0.877560	35.189060	0.707107	0.017629	0.706887
23.799999	-0.877560	35.189060	0.707107	-0.017629	0.706887
23.600000	3.817327	35.193581	0.707107	0.076250	0.702984
23.600000	-3.817327	35.193581	0.707107	-0.076250	0.702984
23.799999	0.585074	35.195137	0.707107	0.011753	0.707009
23.799999	-0.585074	35.195137	0.707107	-0.011753	0.707009
23.799999	0.292547	35.198784	0.707107	0.005877	0.707082
23.799999	-0.292547	35.198784	0.707107	-0.005877	0.707082
23.799999	0.000000	35.200001	0.707107	0.000000	0.707107
23.400000	5.305905	35.202377	0.707107	0.105389	0.699209
23.400000	-5.305905	35.202377	0.707107	-0.105389	0.699209
23.200001	6.509404	35.203236	0.707107	0.128571	0.695320
23.200001	-6.509404	35.203236	0.707107	-0.128571	0.695320
23.600000	3.524702	35.224091	0.707107	0.070405	0.703593
23.600000	-3.524702	35.224091	0.707107	-0.070405	0.703593
23.000000	7.426278	35.225708	0.707107	0.145866	0.691898
23.000000	-7.426278	35.225708	0.707107	-0.145866	0.691898
23.400000	5.013155	35.245258	0.707107	0.099574	0.700061
23.400000	-5.013155	35.245258	0.707107	-0.099574	0.700061
23.600000	3.231833	35.252167	0.707107	0.064555	0.704154
23.600000	-3.231833	35.252167	0.707107	-0.064555	0.704154
23.200001	6.216605	35.256119	0.707107	0.122788	0.696364
23.200001	-6.216605	35.256119	0.707107	-0.122788	0.696364
23.600000	2.938740	35.277809	0.707107	0.058701	0.704666
23.600000	-2.938740	35.277809	0.707107	-0.058701	0.704666
23.400000	4.720058	35.285706	0.707107	0.093752	0.700864
23.400000	-4.720058	35.285706	0.707107	-0.093752	0.700864
23.000000	7.133261	35.286209	0.707107	0.140110	0.693087
23.000000	-7.133261	35.286209	0.707107	-0.140110	0.693087
23.600000	2.645445	35.301014	0.707107	0.052842	0.705130
23.600000	-2.645445	35.301014	0.707107	-0.052842	0.705130
23.200001	5.923377	35.306564	0.707107	0.116996	0.697361
23.200001	-5.923377	35.306564	0.707107	-0.116996	0.697361
23.600000	2.351967	35.321781	0.707107	0.046980	0.705544
23.600000	-2.351967	35.321781	0.707107	-0.046980	0.705544
23.400000	4.426636	35.323715	0.707107	0.087924	0.701619
23.400000	-4.426636	35.323715	0.707107	-0.087924	0.701619
23.600000	2.058327	35.340107	0.707107	0.041115	0.705910
23.600000	-2.058327	35.340107	0.707107	-0.041115	0.705910
23.000000	6.839751	35.344276	0.707107	0.134345	0.694227
23.000000	-6.839751	35.344276	0.707107	-0.134345	0.694227
23.200001	5.629739	35.354576	0.707107	0.111196	0.698309
23.200001	-5.629739	35.354576	0.707107	-0.111196	0.698309
23.600000	1.764544	35.355995	0.707107	0.035246	0.706228
23.600000	-1.764544	35.355995	0.707107	-0.035246	0.706228
23.400000	4.132908	35.359287	0.707107	0.082090	0.702326
23.400000	-4.132908	35.359287	0.707107	-0.082090	0.702326
23.600000	1.470640	35.369438	0.707107	0.029376	0.706496
23.600000	-1.470640	35.369438	0.707107	-0.029376	0.706496
23.600000	1.176634	35.380440	0.707107	0.023503	0.706716
23.600000	-1.176634	35.380440	0.707107	-0.023503	0.706716
23.600000	0.882546	35.388996	0.707107	0.017629	0.706887
23.600000	-0.882546	35.388996	0.707107	-0.017629	0.706887
23.400000	3.838894	35.392414	0.707107	0.076250	0.702984
23.400000	-3.838894	35.392414	0.707107	-0.076250	0.702984
23.600000	0.588398	35.395111	0.707107	0.011753	0.707009
23.600000	-0.588398	35.395111	0.707107	-0.011753	0.707009
23.600000	0.294209	35.398777	0.707107	0.005877	0.707082
23.600000	-0.294209	35.398777	0.707107	-0.005877	0.707082
