21.48500061 -10.84700012 371.41799927 -0.986577 0.152949 -0.057210
69.12599945 -9.34700012 349.81799316 0.999072 0.015466 -0.040210
69.12599945 -9.04699993 349.81799316 0.999198 -0.017494 -0.036016
69.10199738 -9.34700012 349.51800537 0.997651 0.054417 -0.041613
69.11199951 -9.04699993 349.51800537 0.997469 -0.033071 -0.062942
56.51800156 23.17099953 369.01800537 0.465977 0.794902 -0.388583
56.81800079 22.98100090 369.01800537 0.473417 0.786874 -0.395861
56.81800079 22.82999992 368.71798706 0.473412 0.790097 -0.389394
56.51800156 23.01600075 368.71798706 0.482076 0.788411 -0.382113
21.50200081 -10.54699993 371.11801147 -0.999577 -0.017287 0.023388
21.47999954 -10.24699974 371.11801147 -0.991723 -0.110699 0.065050
21.49699974 -10.54699993 371.41799927 -0.999847 0.009008 -0.015013
21.48999977 -10.24699974 371.41799927 -0.998373 -0.049445 0.028405
19.67900085 -11.74699974 352.51800537 -0.987890 -0.132422 0.080859
44.21799850 -31.48699951 360.61801147 -0.024744 -0.920739 0.389393
43.91799927 -31.47900009 360.61801147 0.001260 -0.936173 0.351537
41.81800079 -33.48099899 355.81799316 -0.136838 -0.834268 0.534108
41.51800156 -33.43399811 355.81799316 0.011872 -0.898286 0.439250
19.63599968 -11.44699955 352.51800537 -0.990313 -0.121051 0.068019
41.56999969 -33.64699936 355.51800537 0.146201 0.649613 -0.746075
41.81800079 -33.70299911 355.51800537 -0.126783 -0.884631 0.448726
41.81800079 -33.34700012 356.08898926 -0.063114 -0.917174 0.393458
41.51800156 -33.34700012 356.10101318 0.037702 -0.932145 0.360117
19.71400070 -11.74699974 352.81799316 -0.989012 -0.126976 0.075719
44.21799850 -31.24200058 361.21798706 0.014265 -0.919454 0.392940
43.91799927 -31.23100090 361.21798706 0.001275 -0.924466 0.381263
44.21799850 -31.37000084 360.91799927 0.014226 -0.922101 0.386688
19.67399979 -11.44699955 352.81799316 -0.987680 -0.123903 0.095582
43.91799927 -31.38500023 360.91799927 0.011547 -0.927616 0.373356
19.41500092 -5.74700022 358.21798706 -0.956372 -0.257231 0.138509
21.43300056 -9.94699955 371.11801147 -0.975449 -0.193097 0.105892
21.36899948 -9.64700031 371.11801147 -0.969274 -0.212705 0.123547
21.46199989 -9.94699955 371.41799927 -0.981973 -0.161437 0.098319
21.39399910 -9.64700031 371.41799927 -0.971546 -0.208459 0.112442
69.13099670 -9.34700012 350.11801147 0.999544 -0.007089 -0.029369
69.13700104 -9.04699993 350.11801147 0.998982 -0.023810 -0.038303
69.15000153 -9.34700012 350.41799927 0.998399 -0.038926 -0.041030
34.01800156 -29.45599937 360.01800537 -0.407942 -0.833209 0.373290
69.15200043 -9.04699993 350.41799927 0.998203 0.039083 -0.045421
68.57499695 2.05299997 360.01800537 0.975189 0.193045 -0.108354
68.52600098 2.05299997 359.71798706 0.961134 0.227464 -0.156464
21.49399948 -9.94699955 371.71798706 -0.995513 -0.086519 0.038331
21.44199944 -9.64700031 371.71798706 -0.975388 -0.190593 0.110868
21.48699951 -9.94699955 372.01800537 -0.996672 -0.053141 0.061818
21.45999908 -9.64700031 372.01800537 -0.987585 -0.133012 0.083574
68.24299622 3.55299997 360.61801147 0.955662 0.280621 -0.089230
68.33799744 3.25300002 360.61801147 0.950696 0.286928 -0.117680
44.81800079 -31.22200012 361.21798706 0.022661 -0.891785 0.451891
44.51800156 -31.23100090 361.21798706 0.038770 -0.902404 0.429143
68.20099640 3.55299997 360.31799316 0.945054 0.299782 -0.130399
68.29399872 3.25300002 360.31799316 0.958368 0.255652 -0.127171
44.81800079 -31.37100029 360.91799927 0.014231 -0.919853 0.392005
44.51800156 -31.36599922 360.91799927 0.019550 -0.916251 0.400127
21.37000084 -9.34700012 371.71798706 -0.958988 -0.250570 0.132500
21.28100014 -9.04699993 371.71798706 -0.957194 -0.265089 0.116221
21.41799927 -9.34700012 372.01800537 -0.966163 -0.215996 0.140980
21.31900024 -9.04699993 372.01800537 -0.938873 -0.296414 0.175091
44.81800079 -30.96500015 361.81799316 0.027103 -0.930519 0.365239
44.51800156 -30.98600006 361.81799316 0.058637 -0.939501 0.337491
44.81800079 -31.06500053 361.51800537 -0.008900 -0.931992 0.362371
44.51800156 -31.06999969 361.51800537 0.057068 -0.925029 0.375586
45.41799927 -31.19899940 361.21798706 0.027488 -0.917575 0.396612
45.11800003 -31.20999908 361.21798706 0.019680 -0.909199 0.415896
45.41799927 -31.34399986 360.91799927 0.068141 -0.923247 0.378117
45.11800003 -31.35400009 360.91799927 0.046563 -0.913969 0.403104
69.12400055 -9.64700031 350.11801147 0.998755 -0.046671 -0.017631
69.12400055 -9.94699955 350.41799927 0.997997 -0.061786 -0.013614
69.13200378 -9.64700031 350.41799927 0.998885 -0.046292 -0.009258
45.41799927 -30.94700050 361.81799316 0.054698 -0.916522 0.396226
45.11800003 -30.94700050 361.81799316 0.032911 -0.917554 0.396246
45.41799927 -31.07999992 361.51800537 0.046563 -0.913969 0.403104
45.11800003 -31.09399986 361.51800537 -0.003829 -0.925357 0.379077
37.01800156 12.55300045 340.21798706 -0.280675 0.884051 -0.373733
36.71799850 12.43400002 340.21798706 -0.310775 0.887284 -0.340801
37.01800156 12.43700027 339.91799927 -0.234312 0.906686 -0.350740
36.71799850 12.34899998 339.91799927 -0.281066 0.905004 -0.319327
69.11000061 -9.94699955 350.11801147 0.997142 -0.071453 -0.024529
38.21799850 12.66699982 339.61801147 -0.280989 0.885040 -0.371146
37.91799927 12.55900002 339.61801147 -0.303144 0.872872 -0.382358
21.51099968 -10.24699974 372.61801147 -0.996338 0.084363 -0.013883
38.21799850 12.54100037 339.31799316 -0.290210 0.873667 -0.390491
37.91799927 12.42599964 339.31799316 -0.300363 0.882978 -0.360738
21.51000023 -10.24699974 372.31799316 -0.998999 0.044149 0.007187
37.61800003 12.44900036 339.61801147 -0.282785 0.875575 -0.391665
37.31800079 12.37100029 339.61801147 -0.199163 0.912713 -0.356775
37.61800003 12.32800007 339.31799316 -0.252457 0.909138 -0.331259
37.31800079 12.26500034 339.31799316 -0.217594 0.912165 -0.347286
38.21799850 12.25100040 338.71798706 -0.236699 0.866889 -0.438721
37.91799927 12.17899990 338.71798706 -0.228587 0.874008 -0.428787
38.21799850 12.39700031 339.01800537 -0.267106 0.876773 -0.399905
37.91799927 12.32100010 339.01800537 -0.255921 0.894983 -0.365390
38.81800079 12.53899956 339.01800537 -0.180768 0.915228 -0.360113
38.51800156 12.48900032 339.01800537 -0.225670 0.892355 -0.390866
38.81800079 12.43599987 338.71798706 -0.231178 0.893789 -0.384315
38.51800156 12.35099983 338.71798706 -0.276444 0.859877 -0.429175
65.52799988 -21.04700089 354.91799927 0.816122 -0.526082 0.239128
38.51800156 12.17599964 338.41799927 -0.291810 0.847639 -0.443119
38.81800079 12.14900017 338.11801147 -0.300906 0.869114 -0.392552
38.51800156 12.02999973 338.11801147 -0.246909 0.907279 -0.340412
38.81800079 12.30000019 338.41799927 -0.282806 0.860648 -0.423445
39.11800003 12.24300003 338.11801147 -0.233543 0.882109 -0.409073
69.12000275 -9.94699955 350.71798706 0.995637 -0.089922 0.024918
39.41799927 12.40699959 338.41799927 -0.148477 0.925551 -0.348296
69.12999725 -9.64700031 350.71798706 0.998581 -0.050916 0.015587
39.11800003 12.38799953 338.41799927 -0.158205 0.905044 -0.394799
39.41799927 12.30399990 338.11801147 -0.154569 0.908977 -0.387130
69.12100220 -9.64700031 351.01800537 0.997228 -0.073123 0.013777
40.01800156 12.02900028 337.21798706 -0.187238 0.924927 -0.330834
39.71799850 11.98400021 337.21798706 -0.172212 0.925466 -0.337424
40.01800156 11.95199966 336.91799927 -0.154184 0.950581 -0.269488
39.71799850 11.88000011 336.91799927 -0.246555 0.924938 -0.289310
69.11199951 -9.94699955 351.01800537 0.997618 -0.068330 0.009461
69.15100098 -9.34700012 350.71798706 0.997811 -0.062297 0.022174
69.17600250 -9.04699993 350.71798706 0.999807 0.018977 -0.004994
69.14800262 -9.34700012 351.01800537 0.999461 -0.031519 -0.009151
69.14600372 -9.04699993 351.01800537 0.999192 -0.013323 0.037918
46.01800156 -31.02400017 361.51800537 0.063566 -0.907504 0.415207
45.71799850 -31.04999924 361.51800537 0.095285 -0.904514 0.415662
46.01800156 -30.88199997 361.81799316 0.070557 -0.927897 0.366100
45.71799850 -30.91399956 361.81799316 0.081907 -0.927836 0.363884
46.61800003 -31.01600075 361.51800537 0.046803 -0.910647 0.410526
46.31800079 -31.00300026 361.51800537 0.011710 -0.912078 0.409850
36.11800003 19.53400040 357.31799316 -0.382706 0.856827 -0.345520
36.41799927 19.67300034 357.31799316 -0.363117 0.860664 -0.356936
36.11800003 19.65699959 357.61801147 -0.384661 0.848746 -0.362858
36.41799927 19.79199982 357.61801147 -0.332496 0.879064 -0.341605
21.07399940 -8.14700031 371.71798706 -0.940098 -0.275522 0.200757
20.97500038 -7.84700012 371.71798706 -0.953077 -0.262596 0.150626
21.11400032 -8.14700031 372.01800537 -0.960772 -0.248319 0.123509
21.02400017 -7.84700012 372.01800537 -0.947399 -0.284354 0.146894
46.61800003 -30.86000061 361.81799316 0.066848 -0.901772 0.427011
46.31800079 -30.87000084 361.81799316 0.030040 -0.923393 0.382679
21.45999908 -11.44699955 369.61801147 -0.990212 0.137934 -0.021307
21.46299934 -11.44699955 369.31799316 -0.997071 0.075231 0.013775
19.72200012 -11.74699974 353.11801147 -0.990591 -0.124826 0.056114
46.61800003 -30.59499931 362.41799927 0.088714 -0.915803 0.391707
46.31800079 -30.61899948 362.41799927 0.077230 -0.914568 0.396990
19.69099998 -11.44699955 353.11801147 -0.993813 -0.095236 0.057141
46.61800003 -30.71899986 362.11801147 0.092295 -0.907797 0.409129
46.31800079 -30.75000000 362.11801147 0.082997 -0.915692 0.393217
19.75200081 -11.74699974 353.41799927 -0.982032 -0.154545 0.108303
19.70899963 -11.44699955 353.41799927 -0.992687 -0.091894 0.078280
20.88699913 -7.54699993 371.71798706 -0.964799 -0.245979 0.093039
20.81999969 -7.24700022 371.71798706 -0.970442 -0.222210 0.094157
20.93600082 -7.54699993 372.01800537 -0.952195 -0.263829 0.154012
20.85600090 -7.24700022 372.01800537 -0.964285 -0.227120 0.136272
69.12500000 -9.94699955 351.61801147 0.998713 -0.040700 -0.030264
69.12400055 -9.64700031 351.61801147 0.992750 -0.111053 -0.045992
47.21799850 -30.42200089 362.71798706 0.109866 -0.931826 0.345874
46.91799927 -30.43700027 362.71798706 0.071485 -0.915814 0.395189
44.81800079 -30.06999969 364.21798706 0.154849 -0.904944 0.396357
47.21799850 -30.51899910 362.41799927 0.126169 -0.919229 0.372960
46.91799927 -30.56299973 362.41799927 0.103221 -0.915229 0.389488
47.21799850 -30.65699959 362.11801147 0.112264 -0.910588 0.397776
46.91799927 -30.68499947 362.11801147 0.103551 -0.909864 0.401776
61.55199814 4.45300007 336.61801147 0.721838 0.639342 -0.264938
69.11000061 -9.94699955 351.31799316 0.998811 -0.044599 -0.019707
61.31800079 4.78299999 336.61801147 0.699529 0.677620 -0.226916
69.11000061 -9.64700031 351.31799316 0.998131 -0.059574 -0.013587
60.41799927 19.95400047 368.11801147 0.633855 0.708047 -0.311283
61.24499893 4.75299978 336.31799316 0.694986 0.701069 -0.159679
61.01800156 4.98000002 336.31799316 0.675017 0.712089 -0.193083
44.51800156 -30.11700058 364.21798706 0.213931 -0.914593 0.343152
47.81800079 -30.44099998 362.41799927 0.092776 -0.931793 0.350935
47.51800156 -30.46899986 362.41799927 0.136757 -0.926906 0.349489
47.81800079 -30.55100060 362.11801147 0.108779 -0.915673 0.386924
47.51800156 -30.61400032 362.11801147 0.162549 -0.896178 0.412846
60.71799850 5.26399994 336.31799316 0.670261 0.701803 -0.241294
61.02700043 5.05299997 336.61801147 0.700848 0.672499 -0.237816
60.75400162 5.35300016 336.61801147 0.678049 0.678049 -0.283723
44.81800079 -30.18899918 363.91799927 0.116715 -0.924106 0.363875
44.51800156 -30.22699928 363.91799927 0.158588 -0.933600 0.321313
47.51800156 -30.37700081 362.71798706 0.140347 -0.921286 0.362678
20.82699966 -6.94700003 372.31799316 -0.951666 -0.280058 0.126092
20.71699905 -6.64699984 372.31799316 -0.954686 -0.278178 0.105786
20.86100006 -6.94700003 372.61801147 -0.946613 -0.277619 0.163863
20.77000046 -6.64699984 372.61801147 -0.943405 -0.280694 0.176632
47.81800079 -30.20199966 363.01800537 0.167142 -0.904283 0.392856
47.51800156 -30.24099922 363.01800537 0.132940 -0.910987 0.390423
47.81800079 -30.31599998 362.71798706 0.151019 -0.910346 0.385309
69.12100220 -9.94699955 351.91799927 0.995815 -0.085790 0.031493
69.14399719 -9.64700031 351.91799927 0.995395 -0.095566 -0.007516
69.12999725 -9.64700031 352.21798706 0.991356 -0.115221 0.062744
69.10600281 -9.94699955 352.21798706 0.995304 -0.090681 0.033869
48.41799927 -30.06399918 363.01800537 0.172022 -0.894805 0.411986
48.11800003 -30.13199997 363.01800537 0.183859 -0.896132 0.403911
48.41799927 -30.21100044 362.71798706 0.155472 -0.902876 0.400803
48.11800003 -30.26199913 362.71798706 0.177078 -0.899786 0.398785
49.31800079 -29.76399994 363.31799316 0.222994 -0.887544 0.403161
69.12000275 -9.64700031 352.51800537 0.997292 -0.069330 0.024532
69.12300110 -9.94699955 352.81799316 0.999948 -0.004945 0.008902
49.61800003 -29.55200005 363.61801147 0.223382 -0.900828 0.372303
49.31800079 -29.63100052 363.61801147 0.218329 -0.895295 0.388303
49.61800003 -29.68799973 363.31799316 0.215606 -0.893224 0.394544
20.55299950 -5.74700022 372.31799316 -0.981696 -0.182060 0.055927
20.54500008 -5.74700022 372.61801147 -0.974306 -0.207273 0.088122
69.10299683 -9.94699955 352.51800537 0.999094 -0.032095 -0.027954
69.11199951 -9.64700031 352.81799316 0.999426 -0.033483 0.005073
50.21799850 -29.18400002 364.21798706 0.241709 -0.903846 0.353042
49.91799927 -29.24799919 364.21798706 0.201867 -0.901867 0.381950
50.21799850 -29.28700066 363.91799927 0.235688 -0.903226 0.358655
49.91799927 -29.36899948 363.91799927 0.234312 -0.906686 0.350740
50.21799850 -29.40800095 363.61801147 0.195847 -0.900895 0.387341
49.91799927 -29.46899986 363.61801147 0.223036 -0.902349 0.368811
50.21799850 -29.55500031 363.31799316 0.206408 -0.894435 0.396713
49.91799927 -29.62100029 363.31799316 0.206759 -0.890092 0.406187
50.51800156 -29.19599915 363.91799927 0.277593 -0.883796 0.376626
69.07399750 -10.54699993 352.51800537 0.990741 -0.122554 0.058414
69.10800171 -10.24699974 352.51800537 0.998516 -0.030449 -0.045148
69.04499817 -10.54699993 352.81799316 0.985086 -0.157283 0.069772
69.11000061 -10.24699974 352.81799316 0.994806 -0.097401 0.029549
55.31800079 13.52000046 345.91799927 0.469603 0.802972 -0.367027
69.14399719 -9.64700031 353.41799927 0.992715 -0.109300 0.050706
55.31800079 13.66499996 346.21798706 0.457292 0.811017 -0.364878
50.81800079 -28.99799919 364.21798706 0.245023 -0.911948 0.329113
50.51800156 -29.08600044 364.21798706 0.275771 -0.901048 0.334759
55.61800003 13.48299980 346.21798706 0.430514 0.811414 -0.395304
50.81800079 -29.09900093 363.91799927 0.239579 -0.898053 0.368922
55.61800003 13.61900043 346.51800537 0.410261 0.825274 -0.388085
55.31800079 13.78299999 346.51800537 0.416439 0.837592 -0.353580
55.31800079 13.90999985 346.81799316 0.397099 0.827421 -0.397099
55.61800003 13.79199982 346.81799316 0.413014 0.818055 -0.400257
69.09799957 -9.94699955 353.11801147 0.999536 -0.027454 0.013219
69.11799622 -9.64700031 353.11801147 0.991470 -0.112952 -0.065033
69.11299896 -9.94699955 353.41799927 0.996092 -0.086850 0.016083
51.41799927 -28.80299950 364.21798706 0.304987 -0.875511 0.374785
51.11800003 -28.91399956 364.21798706 0.279809 -0.887308 0.366594
51.41799927 -28.95199966 363.91799927 0.295118 -0.879299 0.373816
51.11800003 -29.04100037 363.91799927 0.235688 -0.903226 0.358655
55.91799927 23.50099945 369.01800537 0.436839 0.827945 -0.351679
56.21799850 23.33399963 369.01800537 0.448621 0.812627 -0.371989
55.91799927 23.37100029 368.71798706 0.454641 0.818987 -0.350089
56.21799850 23.19000053 368.71798706 0.469049 0.802025 -0.369796
66.39900208 11.35299969 366.61801147 0.875469 0.439957 -0.199980
69.02600098 -10.54699993 353.11801147 0.992361 -0.123363 0.001092
69.09300232 -10.24699974 353.11801147 0.988294 -0.142509 0.054455
66.55000305 11.05300045 366.61801147 0.873014 0.441712 -0.206727
69.07599640 -10.54699993 353.41799927 0.994849 -0.061000 -0.080963
69.05799866 -10.24699974 353.41799927 0.995428 -0.095364 -0.005358
66.33399963 11.35299969 366.31799316 0.873043 0.447601 -0.193517
66.48600006 11.05300045 366.31799316 0.881444 0.431157 -0.192770
51.41799927 -28.55999947 364.81799316 0.310764 -0.867997 0.387307
51.11800003 -28.67600060 364.81799316 0.282009 -0.867367 0.410056
20.22699928 -3.94700003 372.31799316 -0.988834 -0.126953 0.078035
20.18300056 -3.64700007 372.31799316 -0.987531 -0.149345 0.049782
51.41799927 -28.69199944 364.51800537 0.310059 -0.881777 0.355433
51.11800003 -28.79500008 364.51800537 0.295876 -0.887629 0.352949
20.25399971 -3.94700003 372.61801147 -0.983271 -0.159677 0.087642
20.19799995 -3.64700007 372.61801147 -0.983973 -0.164985 0.067656
51.71799850 -28.58099937 364.51800537 0.306262 -0.873075 0.379399
21.85000038 -17.44700050 357.61801147 -0.906834 -0.400694 0.130753
21.96899986 -17.74699974 357.61801147 -0.909116 -0.390426 0.145177
21.78499985 -17.44700050 357.31799316 -0.899693 -0.383500 0.208519
21.91699982 -17.74699974 357.31799316 -0.906855 -0.368816 0.203934
52.01800156 -28.34600067 364.81799316 0.306655 -0.880690 0.361037
51.71799850 -28.45000076 364.81799316 0.311525 -0.876828 0.366231
52.01800156 -28.47599983 364.51800537 0.294195 -0.870391 0.394801
21.95999908 -18.04700089 357.01800537 -0.894711 -0.389324 0.218903
22.11100006 -18.34700012 357.01800537 -0.871635 -0.435070 0.225758
21.89599991 -18.04700089 356.71798706 -0.908002 -0.372698 0.191386
22.01700020 -18.34700012 356.71798706 -0.882109 -0.409073 0.233543
21.71599960 -17.44700050 357.01800537 -0.911860 -0.362167 0.193251
21.65500069 -17.44700050 356.71798706 -0.909931 -0.366560 0.194061
21.83399963 -17.74699974 357.01800537 -0.901552 -0.374312 0.217013
21.76899910 -17.74699974 356.71798706 -0.908970 -0.369045 0.193856
65.48500061 0.55299997 339.91799927 0.875740 0.416089 -0.244847
52.61800003 -28.13100052 364.81799316 0.339442 -0.864732 0.370160
52.31800079 -28.23800087 364.81799316 0.310696 -0.877528 0.365258
52.61800003 -28.27700043 364.51800537 0.334787 -0.848647 0.409531
52.31800079 -28.37299919 364.51800537 0.291929 -0.863560 0.411146
69.10700226 -9.94699955 353.71798706 0.998580 -0.052775 -0.007244
69.09100342 -9.64700031 353.71798706 0.997986 -0.049846 0.039241
69.09799957 -9.94699955 354.01800537 0.996742 -0.074352 0.031249
34.01800156 -29.57900047 359.71798706 -0.387769 -0.857418 0.338333
69.11100006 -9.64700031 354.01800537 0.999071 -0.042099 -0.009241
52.31800079 -28.00399971 365.41799927 0.293654 -0.892886 0.341354
52.61800003 -28.01300049 365.11801147 0.334645 -0.879767 0.337673
19.71899986 -11.14700031 353.71798706 -0.994621 -0.097814 0.034070
19.66900063 -10.84700012 353.71798706 -0.994038 -0.096844 0.050092
52.31800079 -28.12400055 365.11801147 0.313624 -0.880268 0.356046
19.70700073 -11.14700031 354.01800537 -0.993349 -0.109879 0.034407
19.67499924 -10.84700012 354.01800537 -0.995263 -0.092659 0.029433
45.41799927 -30.21500015 363.61801147 0.162892 -0.913613 0.372528
52.91799927 -28.00699997 364.81799316 0.345638 -0.864862 0.364072
53.21799850 -28.03000069 364.51800537 0.346229 -0.841289 0.415161
52.91799927 -28.14599991 364.51800537 0.340732 -0.847940 0.406078
45.11800003 -30.27899933 363.61801147 0.153247 -0.915262 0.372572
45.41799927 -30.33099937 363.31799316 0.174164 -0.916130 0.361071
69.06900024 -10.54699993 353.71798706 0.992434 -0.111776 0.050807
69.08100128 -10.24699974 353.71798706 0.998945 -0.045917 -0.001020
69.04299927 -10.54699993 354.01800537 0.992634 -0.105262 0.059988
69.06700134 -10.24699974 354.01800537 0.995158 -0.084858 0.049593
33.71799850 -29.45000076 359.71798706 -0.393707 -0.851217 0.347023
53.21799850 -27.88899994 364.81799316 0.354885 -0.864936 0.354885
53.21799850 -27.64800072 365.41799927 0.366964 -0.847921 0.382580
52.91799927 -27.77099991 365.41799927 0.355989 -0.861462 0.362153
53.21799850 -27.78100014 365.11801147 0.354140 -0.869253 0.344942
52.91799927 -27.89500046 365.11801147 0.345772 -0.875854 0.336633
54.11800003 -27.38800049 365.11801147 0.386555 -0.852284 0.352402
53.81800079 -27.37899971 365.41799927 0.358340 -0.865860 0.349112
53.51800156 -27.51799965 365.41799927 0.365994 -0.848795 0.381569
53.81800079 -27.52099991 365.11801147 0.382580 -0.847921 0.366964
53.51800156 -27.65399933 365.11801147 0.366768 -0.858887 0.357483
69.02200317 -10.54699993 354.31799316 0.994837 -0.089635 0.047584
69.05400085 -10.24699974 354.31799316 0.992753 -0.119569 0.012067
69.00499725 -10.54699993 354.61801147 0.994974 -0.091454 0.040769
69.04900360 -10.24699974 354.61801147 0.984723 -0.165885 0.052942
54.41799927 -27.12800026 365.41799927 0.389272 -0.863168 0.321572
54.11800003 -27.26600075 365.41799927 0.374983 -0.867818 0.326006
45.41799927 -29.97299957 364.21798706 0.107754 -0.926142 0.361455
54.41799927 -27.23800087 365.11801147 0.402409 -0.849876 0.340261
54.41799927 -26.87400055 366.01800537 0.407052 -0.828359 0.384878
54.11800003 -27.01799965 366.01800537 0.402913 -0.841884 0.359016
54.41799927 -27.00600052 365.71798706 0.388917 -0.844996 0.367050
54.11800003 -27.15399933 365.71798706 0.390648 -0.851332 0.350182
45.11800003 -30.01499939 364.21798706 0.135578 -0.915502 0.378780
45.41799927 -30.09000015 363.91799927 0.122749 -0.922687 0.365489
45.11800003 -30.14800072 363.91799927 0.160511 -0.907668 0.387783
19.96400070 -0.94700003 373.51800537 -0.990971 -0.111384 0.074639
19.95000076 -0.64700001 373.51800537 -0.996733 -0.039956 0.070192
19.98800087 -0.94700003 373.81799316 -0.991828 -0.112475 0.060214
19.95299911 -0.64700001 373.81799316 -0.997335 -0.061193 0.039722
54.71799850 -26.87100029 365.71798706 0.409113 -0.829283 0.380680
69.00499725 -10.54699993 354.91799927 0.997878 -0.056204 0.032874
69.02899933 -10.24699974 354.91799927 0.987651 -0.139419 0.071467
68.98600006 -10.54699993 355.21798706 0.994949 -0.083005 0.056443
69.00199890 -10.24699974 355.21798706 0.993952 -0.105034 0.032063
63.96599960 -23.74699974 354.31799316 0.799120 -0.566871 0.200162
64.14800262 -23.44700050 354.31799316 0.827892 -0.540573 0.149583
63.87799835 -23.74699974 354.61801147 0.761701 -0.583600 0.281464
55.01800156 -26.59799957 366.01800537 0.407794 -0.851251 0.330267
54.71799850 -26.72800064 366.01800537 0.382140 -0.846947 0.369662
55.01800156 -26.71199989 365.71798706 0.434282 -0.829084 0.352163
64.10399628 -23.44700050 354.61801147 0.790226 -0.558635 0.251933
21.31900024 -19.54700089 350.71798706 -0.936812 -0.297510 0.184041
21.26099968 -19.24699974 350.71798706 -0.952296 -0.276815 0.128474
55.31800079 -26.18899918 366.61801147 0.455343 -0.827180 0.329296
55.31800079 -26.31699944 366.31799316 0.447922 -0.821454 0.352956
19.94099998 -0.34700000 373.51800537 -0.995155 -0.031749 0.093056
21.48500061 -19.54700089 351.01800537 -0.879501 -0.370874 0.298213
19.92600060 -0.04700000 373.51800537 -0.993652 -0.048062 0.101712
19.94899940 -0.34700000 373.81799316 -0.999827 -0.011009 0.015012
21.31999969 -19.24699974 351.01800537 -0.905587 -0.346727 0.244318
19.95000076 -0.04700000 373.81799316 -0.999223 -0.025727 0.029843
55.61800003 -26.28100014 366.01800537 0.443373 -0.828365 0.342391
55.31800079 -26.44400024 366.01800537 0.440154 -0.834883 0.330507
55.61800003 -26.39699936 365.71798706 0.425767 -0.834251 0.350354
55.31800079 -26.55299950 365.71798706 0.432802 -0.839043 0.329680
65.44499969 -11.44699955 379.21798706 0.814696 -0.539564 0.212463
68.96099854 -11.14700031 354.91799927 0.993072 -0.098290 0.064397
65.24199677 -11.74699974 379.21798706 0.843823 -0.512796 0.158124
68.99700165 -10.84700012 354.91799927 0.995177 -0.087064 0.045185
68.93699646 -11.14700031 355.21798706 0.990128 -0.110014 0.086853
68.94999695 -10.84700012 355.21798706 0.989414 -0.099058 0.106050
55.61800003 -26.02599907 366.61801147 0.442216 -0.829352 0.341498
55.61800003 -26.14599991 366.31799316 0.441021 -0.826718 0.349340
68.96900177 -10.54699993 355.51800537 0.990081 -0.140492 0.001106
69.01200104 -10.24699974 355.51800537 0.994460 -0.103476 -0.018517
68.98600006 -10.54699993 355.81799316 0.988690 -0.141570 -0.049492
69.02799988 -10.24699974 355.81799316 0.995083 -0.093050 -0.033936
55.01800156 13.82699966 346.21798706 0.432294 0.834721 -0.341119
55.91799927 -26.24200058 365.71798706 0.435579 -0.825224 0.359551
54.71799850 13.97399998 346.21798706 0.400477 0.855072 -0.329349
54.71799850 13.85200024 345.91799927 0.406554 0.827346 -0.387571
55.01800156 13.68299961 345.91799927 0.440563 0.819098 -0.367401
56.21799850 -25.96100044 366.01800537 0.468028 -0.813893 0.344278
55.91799927 -26.12299919 366.01800537 0.436180 -0.829845 0.348000
56.21799850 -26.08799934 365.71798706 0.452939 -0.815290 0.360762
19.93799973 0.25299999 373.81799316 -0.996671 -0.055431 0.059779
67.83799744 -4.84700012 341.11801147 0.955824 0.243955 -0.163970
68.90799713 -11.14700031 355.51800537 0.990111 -0.136918 0.030552
67.91899872 -4.84700012 341.41799927 0.948432 0.211521 -0.236084
67.98699951 -5.14699984 341.41799927 0.926105 0.310593 -0.214153
68.92099762 -10.84700012 355.51800537 0.995376 -0.095565 0.009664
68.91600037 -11.14700031 355.81799316 0.982055 -0.175837 0.068182
68.94300079 -10.84700012 355.81799316 0.991973 -0.126331 0.005493
67.92700195 -5.14699984 341.11801147 0.927905 0.338052 -0.157201
56.21799850 -25.68799973 366.61801147 0.468396 -0.804107 0.366084
55.91799927 -25.86499977 366.61801147 0.460994 -0.808734 0.365286
67.81800079 -4.84700012 340.81799316 0.959889 0.265993 -0.088664
56.21799850 -25.82999992 366.31799316 0.461530 -0.809674 0.362517
67.90599823 -5.14699984 340.81799316 0.947640 0.312423 -0.066114
67.78299713 -4.84700012 340.51800537 0.960555 0.277765 0.013460
55.91799927 -25.99799919 366.31799316 0.437983 -0.826949 0.352600
67.88400269 -5.14699984 340.51800537 0.934019 0.354641 0.042869
46.01800156 -29.90900040 364.21798706 0.124760 -0.906961 0.402315
45.71799850 -29.94199944 364.21798706 0.108735 -0.918051 0.381260
56.51800156 -25.66099930 366.31799316 0.479490 -0.797012 0.367235
46.01800156 -30.02599907 363.91799927 0.122249 -0.924420 0.361252
45.71799850 -30.06800079 363.91799927 0.098350 -0.930957 0.351635
56.81800079 -25.33300018 366.61801147 0.481128 -0.811407 0.331867
56.51800156 -25.50099945 366.61801147 0.481018 -0.803827 0.349976
56.81800079 -25.47299957 366.31799316 0.494840 -0.788198 0.365892
68.99900055 -10.54699993 356.11801147 0.976657 -0.191380 0.097542
69.03800201 -10.24699974 356.11801147 0.994963 -0.093450 0.036280
68.93900299 -10.54699993 356.41799927 0.982014 -0.171883 0.078128
68.98999786 -10.24699974 356.41799927 0.981323 -0.155203 0.113653
57.11800003 -25.03300095 366.91799927 0.503916 -0.795068 0.337544
57.41799927 -24.97400093 366.61801147 0.518565 -0.785072 0.338753
57.11800003 -25.15099907 366.61801147 0.492818 -0.809742 0.318509
57.41799927 -25.08200073 366.31799316 0.510327 -0.799672 0.316371
57.11800003 -25.27499962 366.31799316 0.512714 -0.785947 0.345560
65.29900360 -11.74699974 378.91799927 0.822302 -0.525232 0.218974
63.75000000 -24.04700089 354.31799316 0.792315 -0.565939 0.227926
58.01800156 -24.56200027 366.61801147 0.547249 -0.776997 0.311118
57.71799850 -24.75699997 366.61801147 0.537354 -0.777960 0.325620
68.86699677 -11.14700031 356.11801147 0.982539 -0.171137 0.073002
58.01800156 -24.67700005 366.31799316 0.562128 -0.767121 0.309091
57.71799850 -24.88599968 366.31799316 0.538846 -0.778688 0.321389
68.90599823 -10.84700012 356.11801147 0.978545 -0.176015 0.107086
68.85900116 -11.14700031 356.41799927 0.988312 -0.150913 0.021559
68.90000153 -10.84700012 356.41799927 0.991164 -0.132081 0.012209
57.41799927 -24.71999931 367.21798706 0.513185 -0.799171 0.312995
57.11800003 -24.91900063 367.21798706 0.495306 -0.801090 0.336044
57.41799927 -24.81900024 366.91799927 0.526679 -0.782815 0.331376
57.71799850 -24.52700043 367.21798706 0.534504 -0.778481 0.329049
58.01800156 -24.43799973 366.91799927 0.547249 -0.776997 0.311118
57.71799850 -24.62899971 366.91799927 0.513975 -0.797218 0.316659
39.41799927 22.47500038 361.81799316 -0.254943 0.873444 -0.414848
58.01800156 -24.29899979 367.21798706 0.535448 -0.773425 0.339278
19.92300034 1.45299995 375.01800537 -0.999371 -0.035439 0.001013
19.92499924 1.75300002 375.01800537 -0.999916 0.006951 0.010923
19.91699982 1.45299995 374.71798706 -0.999324 -0.021568 0.029785
19.91699982 1.75300002 374.71798706 -0.999525 0.025472 0.017321
58.61800003 -23.86800003 367.21798706 0.585068 -0.746243 0.317516
58.31800079 -24.10700035 367.21798706 0.561570 -0.766359 0.311983
58.61800003 -23.98900032 366.91799927 0.577670 -0.756891 0.305637
58.31800079 -24.22400093 366.91799927 0.559085 -0.772525 0.301046
19.93000031 2.05299997 374.71798706 -0.999852 0.016947 0.002991
19.93000031 2.35299993 374.71798706 -0.999830 0.013037 -0.013037
19.92200089 2.05299997 375.01800537 -0.999876 -0.014924 0.004975
19.90900040 2.35299993 375.01800537 -0.999538 0.023435 0.019359
68.85099792 -11.14700031 356.71798706 0.987456 -0.153246 0.038023
68.89600372 -10.84700012 356.71798706 0.989885 -0.133892 0.046919
68.83699799 -11.14700031 357.01800537 0.986351 -0.155248 0.054862
68.88300323 -10.84700012 357.01800537 0.991178 -0.125738 0.041913
19.93600082 2.65300012 374.71798706 -0.998461 0.053210 0.015650
19.95599937 2.95300007 374.71798706 -0.997568 0.052391 0.045976
19.94099998 2.65300012 375.01800537 -0.996937 0.077339 0.011654
19.97500038 2.95300007 375.01800537 -0.997300 0.072819 0.009498
69.26799774 -5.14699984 367.51800537 0.989830 -0.141723 0.012275
19.97599983 3.25300002 374.71798706 -0.997199 0.057014 0.048408
19.99300003 3.55299997 374.71798706 -0.997713 0.064539 0.020102
19.98800087 3.25300002 375.01800537 -0.999182 0.039804 0.007144
20.00000000 3.55299997 375.01800537 -0.999299 0.035726 -0.011228
69.28399658 -4.84700012 367.51800537 0.996655 -0.081554 -0.005296
69.24500275 -5.14699984 367.81799316 0.983965 -0.166954 0.062756
68.82299805 -11.14700031 357.31799316 0.985868 -0.159839 0.050168
19.98200035 3.25300002 375.31799316 -0.999486 0.025523 -0.019398
64.88300323 -10.24699974 384.61801147 0.792321 -0.569915 0.217772
19.98200035 3.55299997 375.31799316 -0.999186 0.021654 -0.034028
64.63899994 -10.54699993 384.61801147 0.783909 -0.571957 0.241562
68.85900116 -10.84700012 357.31799316 0.988549 -0.145476 0.040092
68.79699707 -11.14700031 357.61801147 0.974931 -0.186476 0.121397
69.29900360 -4.84700012 367.81799316 0.993786 -0.107227 0.029847
64.70899963 -10.54699993 384.31799316 0.807634 -0.558195 0.190121
19.97800064 3.25300002 375.61801147 -0.999160 0.036015 -0.019551
19.97800064 3.55299997 375.61801147 -0.999892 0.006964 -0.012934
64.92500305 -10.24699974 384.31799316 0.777867 -0.593027 0.207945
68.85700226 -10.84700012 357.61801147 0.981859 -0.167870 0.088162
63.56200027 -24.34700012 354.31799316 0.833205 -0.476339 0.280838
63.37500000 -24.34700012 354.61801147 0.765117 -0.541890 0.347780
63.62500000 -24.04700089 354.61801147 0.743951 -0.610706 0.271249
20.01700020 3.85299993 374.71798706 -0.995356 0.095769 -0.009685
20.05100060 4.15299988 374.71798706 -0.994969 0.100035 -0.005378
20.00600052 3.85299993 375.01800537 -0.997310 0.065345 -0.033208
20.03599930 4.15299988 375.01800537 -0.991652 0.112714 -0.062619
51.41799927 -32.68600082 355.21798706 0.417695 -0.833814 0.360951
51.41799927 -32.46799850 355.81799316 0.207290 -0.836724 0.506876
51.11800003 -32.50500107 355.81799316 0.176544 -0.853049 0.491060
51.41799927 -32.62300110 355.51800537 0.236547 -0.897704 0.371717
19.99399948 3.85299993 375.31799316 -0.997792 0.048022 -0.045888
20.01600075 4.15299988 375.31799316 -0.993990 0.090566 -0.061495
19.98200035 3.85299993 375.61801147 -0.999122 0.038072 -0.017492
19.99699974 4.15299988 375.61801147 -0.996894 0.074043 -0.026827
42.41799927 13.65600014 340.21798706 -0.106845 0.906103 -0.409342
42.11800003 13.60000038 340.21798706 -0.145807 0.904570 -0.400616
42.41799927 13.51000023 339.91799927 -0.122701 0.898397 -0.421696
42.11800003 13.47999954 339.91799927 -0.074141 0.918004 -0.389579
20.04599953 4.45300007 375.31799316 -0.990892 0.107030 -0.081711
20.07999992 4.75299978 375.31799316 -0.996686 0.059649 -0.055311
20.02599907 4.45300007 375.61801147 -0.995215 0.088878 -0.040599
43.01800156 13.95899963 340.81799316 -0.054076 0.927209 -0.370620
42.71799850 13.93400002 340.81799316 -0.079865 0.919124 -0.385788
43.01800156 13.83600044 340.51800537 -0.098266 0.903768 -0.416591
42.71799850 13.81299973 340.51800537 -0.069012 0.910682 -0.407303
20.05200005 4.75299978 375.61801147 -0.995025 0.078759 -0.061010
43.61800003 13.94799995 340.81799316 0.008921 0.931656 -0.363231
43.31800079 13.96300030 340.81799316 0.008869 0.936344 -0.350971
43.61800003 13.87500000 340.51800537 -0.006142 0.954396 -0.298479
43.31800079 13.87699986 340.51800537 -0.056731 0.930132 -0.362817
43.61800003 14.25699997 341.41799927 -0.003834 0.924088 -0.382161
43.31800079 14.25899982 341.41799927 -0.063291 0.914351 -0.399945
43.61800003 14.10000038 341.11801147 -0.011928 0.891965 -0.451947
43.31800079 14.09399986 341.11801147 -0.046927 0.907703 -0.416980
43.61800003 14.52999973 342.01800537 0.006517 0.905831 -0.423590
43.31800079 14.52799988 342.01800537 -0.078964 0.888003 -0.453006
43.61800003 14.36299992 341.71798706 0.001290 0.914819 -0.403862
43.31800079 14.36200047 341.71798706 -0.091938 0.909772 -0.404800
44.21799850 14.50199986 342.01800537 0.024559 0.929351 -0.368380
43.91799927 14.52499962 342.01800537 0.016858 0.919416 -0.392924
44.21799850 14.38599968 341.71798706 -0.003866 0.916180 -0.400748
43.91799927 14.35999966 341.71798706 -0.006500 0.908738 -0.417317
44.81800079 14.61800003 342.31799316 0.024778 0.919402 -0.392539
44.51800156 14.63300037 342.31799316 0.001278 0.924094 -0.382163
44.21799850 14.63199997 342.31799316 -0.003855 0.918872 -0.394537
43.91799927 14.63500023 342.31799316 0.008909 0.932849 -0.360158
44.21799850 14.76399994 342.61801147 -0.016875 0.920352 -0.390728
43.91799927 14.75300026 342.61801147 -0.014226 0.922101 -0.386688
44.21799850 15.04399967 343.21798706 0.058847 0.888176 -0.455720
43.91799927 15.03800011 343.21798706 -0.030944 0.886616 -0.461471
44.21799850 14.88700008 342.91799927 0.041217 0.910773 -0.410845
43.91799927 14.87699986 342.91799927 -0.011783 0.907321 -0.420274
44.81800079 14.76399994 342.61801147 0.021954 0.928520 -0.370633
44.51800156 14.76399994 342.61801147 0.019335 0.926784 -0.375096
44.81800079 14.99699974 343.21798706 -0.025232 0.901712 -0.431600
44.51800156 14.99100018 343.21798706 0.070429 0.885194 -0.459859
68.75399780 -11.14700031 357.91799927 0.977150 -0.180034 0.112987
44.81800079 14.86900043 342.91799927 -0.027402 0.922537 -0.384934
63.13700104 -24.94700050 354.31799316 0.745885 -0.577616 0.331684
44.51800156 14.86299992 342.91799927 0.016637 0.932952 -0.359615
68.80599976 -10.84700012 357.91799927 0.973185 -0.193122 0.124961
68.72699738 -11.14700031 358.21798706 0.982908 -0.176237 0.053226
44.81800079 15.16499996 343.51800537 0.011872 0.898286 -0.439250
44.51800156 15.18400002 343.51800537 0.039290 0.887417 -0.459289
68.77899933 -10.84700012 358.21798706 0.980561 -0.187971 0.056272
27.11800003 -27.38100052 353.41799927 -0.670659 -0.620981 0.405708
27.32900047 -27.64699936 353.41799927 -0.750799 -0.525069 0.400753
63.38100052 -24.64699936 354.31799316 0.761111 -0.499223 0.414110
27.41799927 -27.81800079 353.41799927 -0.660485 -0.633999 0.402250
27.14800072 -27.64699936 353.11801147 -0.687780 -0.571208 0.447973
63.19200134 -24.64699936 354.61801147 0.804617 -0.496736 0.325338
68.63999939 -11.74699974 357.91799927 0.966456 -0.237487 0.097789
68.69599915 -11.44699955 357.91799927 0.976404 -0.189822 0.102975
68.61399841 -11.74699974 358.21798706 0.971914 -0.230479 0.047559
20.08499908 5.05299997 375.31799316 -0.996817 0.070198 -0.037799
68.67299652 -11.44699955 358.21798706 0.982001 -0.183165 0.046087
20.11599922 5.35300016 375.31799316 -0.986761 0.146665 -0.069226
20.07399940 5.05299997 375.61801147 -0.995003 0.085223 -0.052019
20.10700035 5.35300016 375.61801147 -0.991665 0.124660 -0.032569
20.05699921 5.05299997 375.91799927 -0.996878 0.078950 -0.001053
20.09700012 5.35300016 375.91799927 -0.990609 0.133805 -0.028110
20.07900047 5.05299997 376.21798706 -0.998373 0.045237 0.034717
20.09099960 5.35300016 376.21798706 -0.995026 0.099610 -0.001071
46.61800003 -29.82999992 364.21798706 0.143130 -0.924093 0.354352
46.31800079 -29.86800003 364.21798706 0.095000 -0.910076 0.403407
46.61800003 -29.95599937 363.91799927 0.143472 -0.899189 0.413371
46.31800079 -29.98600006 363.91799927 0.093816 -0.920487 0.379344
68.98600006 -12.64700031 343.51800537 0.981799 -0.128061 0.140257
68.92400360 -12.64700031 343.81799316 0.984864 -0.171631 -0.024190
20.13899994 5.65299988 375.91799927 -0.987206 0.158272 -0.019357
20.18899918 5.95300007 375.91799927 -0.989098 0.146741 -0.012322
20.13500023 5.65299988 376.21798706 -0.985538 0.165607 -0.035901
20.19599915 5.95300007 376.21798706 -0.986017 0.164528 -0.026463
69.01200104 -12.34700012 343.51800537 0.990076 -0.049218 0.131629
69.03199768 -12.04699993 343.51800537 0.979875 0.078924 0.183347
68.98200226 -12.34700012 343.81799316 0.995777 -0.064918 0.064918
46.01800156 -30.13699913 363.61801147 0.087588 -0.925742 0.367871
45.71799850 -30.16799927 363.61801147 0.101684 -0.928717 0.356573
68.97499847 -12.04699993 343.81799316 0.996175 0.026982 0.083105
46.01800156 -30.26399994 363.31799316 0.077230 -0.914568 0.396990
45.71799850 -30.28800011 363.31799316 0.097315 -0.914214 0.393373
68.59999847 -11.74699974 358.51800537 0.969137 -0.240741 0.053086
68.66799927 -11.44699955 358.51800537 0.980892 -0.191939 0.031794
68.57700348 -11.74699974 358.81799316 0.968274 -0.243614 0.055648
68.65599823 -11.44699955 358.81799316 0.975836 -0.210236 0.059547
52.61800003 -28.53100014 363.91799927 0.328035 -0.881309 0.340128
52.31800079 -28.52499962 364.21798706 0.285478 -0.877580 0.385169
52.61800003 -28.42700005 364.21798706 0.327364 -0.865287 0.379620
52.31800079 -28.64200020 363.91799927 0.296820 -0.884434 0.360102
20.22800064 6.25299978 375.91799927 -0.995199 0.094625 -0.025016
20.24600029 6.55299997 375.91799927 -0.987979 0.142798 -0.059209
20.23399925 6.25299978 376.21798706 -0.995830 0.090919 0.007487
20.24300003 6.55299997 376.21798706 -0.995265 0.096177 0.014048
68.72000122 -11.14700031 358.51800537 0.983925 -0.177956 0.014925
68.76999664 -10.84700012 358.51800537 0.981867 -0.189483 -0.005742
68.70899963 -11.14700031 358.81799316 0.979098 -0.193893 0.061419
68.77899933 -10.84700012 358.81799316 0.976221 -0.209797 0.054571
58.91799927 11.19600010 345.91799927 0.597351 0.730096 -0.331862
58.91799927 11.34799957 346.21798706 0.599108 0.734756 -0.318125
59.26499939 11.05300045 346.21798706 0.629392 0.722279 -0.286669
20.31399918 6.85300016 375.91799927 -0.980192 0.188360 -0.061187
20.36499977 7.15299988 375.91799927 -0.984064 0.170477 -0.050555
20.29500008 6.85300016 376.21798706 -0.983127 0.179283 -0.036325
20.35300064 7.15299988 376.21798706 -0.983590 0.171625 -0.055630
20.22500038 6.25299978 376.51800537 -0.990325 0.136325 -0.025913
20.25699997 6.55299997 376.51800537 -0.994943 0.098735 0.018445
20.21899986 6.25299978 376.81799316 -0.987298 0.151625 -0.047455
20.26199913 6.55299997 376.81799316 -0.990074 0.138543 -0.023654
68.57099915 -11.74699974 359.11801147 0.971353 -0.234632 0.037687
68.63600159 -11.44699955 359.11801147 0.977879 -0.203274 0.049315
68.55799866 -11.74699974 359.41799927 0.961924 -0.253680 0.101730
66.45300293 14.35299969 373.21798706 0.864265 0.458254 -0.207483
68.61799622 -11.44699955 359.41799927 0.973963 -0.207729 0.090804
66.61000061 14.05300045 373.21798706 0.861941 0.451349 -0.230958
20.29299927 6.85300016 376.51800537 -0.990935 0.133970 0.009965
20.33399963 7.15299988 376.51800537 -0.987462 0.156035 -0.023918
20.29599953 6.85300016 376.81799316 -0.993736 0.111619 0.005418
66.40100098 14.35299969 372.91799927 0.878912 0.448899 -0.161255
66.54199982 14.05300045 372.91799927 0.892115 0.416320 -0.175522
20.33499908 7.15299988 376.81799316 -0.991139 0.130737 -0.023466
68.55300140 -7.84700012 370.21798706 0.966930 -0.247644 0.060978
68.57900238 -7.84700012 369.91799927 0.968377 -0.234872 0.084152
68.51999664 -8.14700031 369.91799927 0.971032 -0.221771 0.088959
67.96299744 -8.44699955 373.81799316 0.933256 -0.338254 0.120902
68.00099945 -8.44699955 373.51800537 0.953802 -0.283140 0.100469
66.33499908 14.35299969 372.61801147 0.869956 0.452022 -0.197111
66.49800110 14.05300045 372.61801147 0.896019 0.406755 -0.178046
66.27100372 14.35299969 372.31799316 0.877288 0.428995 -0.215240
66.41699982 14.05300045 372.31799316 0.870914 0.436206 -0.226348
68.44699860 -6.94700003 373.81799316 0.953102 -0.286323 0.098056
68.46499634 -6.94700003 373.51800537 0.962127 -0.264237 0.067008
20.38299942 7.45300007 376.51800537 -0.984777 0.163933 -0.057789
20.44499969 7.75299978 376.51800537 -0.974139 0.209186 -0.085407
20.37800026 7.45300007 376.81799316 -0.991081 0.125726 -0.044174
20.40800095 7.75299978 376.81799316 -0.979146 0.186098 -0.081494
68.54199982 -6.64699984 373.81799316 0.952719 -0.293443 0.078855
68.55999756 -6.64699984 373.51800537 0.959428 -0.275028 0.062103
46.61800003 -30.31299973 363.01800537 0.110788 -0.923232 0.367925
66.94599915 12.55300045 371.41799927 0.893785 0.420351 -0.156376
20.57099915 8.35299969 376.51800537 -0.968933 0.230578 -0.089459
66.88099670 12.55300045 371.11801147 0.878373 0.423581 -0.221451
20.53800011 8.35299969 376.81799316 -0.972197 0.217842 -0.085892
20.50699997 8.05300045 376.51800537 -0.977274 0.202739 -0.061914
20.48299980 8.05300045 376.81799316 -0.974012 0.209692 -0.085614
66.79699707 12.55300045 370.81799316 0.876417 0.425518 -0.225450
66.73400116 12.55300045 370.51800537 0.894962 0.409167 -0.177836
66.72899628 12.25300026 369.91799927 0.908316 0.383574 -0.166833
20.52000046 8.35299969 377.11801147 -0.976187 0.207880 -0.061999
46.61800003 -30.10600090 363.61801147 0.097176 -0.915642 0.390072
46.31800079 -30.11400032 363.61801147 0.065789 -0.917015 0.393390
20.45400047 8.05300045 377.11801147 -0.975225 0.214962 -0.052223
46.61800003 -30.21400070 363.31799316 0.092399 -0.933365 0.346832
20.45100021 8.05300045 377.41799927 -0.978706 0.201463 -0.039339
20.50799942 8.35299969 377.41799927 -0.980627 0.190908 -0.043873
46.31800079 -30.25200081 363.31799316 0.088070 -0.922704 0.375314
20.64800072 8.65299988 376.51800537 -0.975050 0.203908 -0.087742
20.69799995 8.95300007 376.51800537 -0.980842 0.169363 -0.096257
20.61800003 8.65299988 376.81799316 -0.974366 0.204803 -0.093092
20.66300011 8.95300007 376.81799316 -0.982728 0.162783 -0.088023
20.59000015 8.65299988 377.11801147 -0.973982 0.215483 -0.070186
20.64200020 8.95300007 377.11801147 -0.985097 0.165159 -0.048025
20.56399918 8.65299988 377.41799927 -0.973160 0.226626 -0.039993
20.63699913 8.95300007 377.41799927 -0.981453 0.191699 -0.001148
20.69400024 9.25300026 377.11801147 -0.975919 0.213520 -0.044634
20.77199936 9.55300045 377.11801147 -0.964267 0.263428 -0.028181
20.68600082 9.25300026 377.41799927 -0.977855 0.209123 0.008178
20.76799965 9.55300045 377.41799927 -0.960349 0.278733 0.006086
20.81800079 9.67000008 377.41799927 -0.926145 0.363114 0.101998
68.23300171 -12.34700012 360.91799927 0.957027 -0.273251 0.097127
68.31300354 -12.04699993 360.91799927 0.961772 -0.259283 0.088131
68.19899750 -12.34700012 361.21798706 0.953260 -0.295575 0.062698
68.28900146 -12.04699993 361.21798706 0.962127 -0.264237 0.067008
60.71799850 -16.19000053 381.61801147 0.661564 -0.699823 0.269408
61.01800156 -16.04199982 381.31799316 0.638952 -0.706549 0.304186
60.71799850 -16.30699921 381.31799316 0.635457 -0.703369 0.318537
68.34999847 -11.74699974 361.51800537 0.965338 -0.237168 0.108969
68.41400146 -11.44699955 361.51800537 0.960454 -0.250836 0.120869
68.30500031 -11.74699974 361.81799316 0.969913 -0.223244 0.097117
68.37100220 -11.44699955 361.81799316 0.962388 -0.242216 0.123051
53.21799850 21.29999924 361.21798706 0.328334 0.861683 -0.386910
40.01800156 11.07999992 334.81799316 -0.165048 0.918346 -0.359721
39.41799927 10.89799976 334.81799316 -0.319298 0.869284 -0.377352
39.41799927 10.77299976 334.51800537 -0.314613 0.876966 -0.363249
39.41799927 11.03499985 335.11801147 -0.282427 0.889123 -0.360132
38.51800156 10.98700047 335.41799927 -0.380451 0.781948 -0.493776
37.91799927 10.58399963 334.81799316 -0.248544 0.920906 -0.300264
38.21799850 10.57999992 334.51800537 -0.186548 0.968764 -0.163390
37.91799927 10.52200031 334.51800537 -0.264971 0.955740 -0.127871
52.91799927 21.40399933 361.21798706 0.309725 0.880826 -0.358072
47.21799850 -30.03300095 363.61801147 0.083820 -0.902783 0.421849
46.91799927 -30.05400085 363.61801147 0.119476 -0.898178 0.423086
47.21799850 -30.15399933 363.31799316 0.105635 -0.917790 0.382756
46.91799927 -30.18000031 363.31799316 0.090351 -0.926436 0.365450
68.80500031 -6.34700012 371.71798706 0.973628 -0.217866 0.067699
68.87799835 -6.04699993 371.71798706 0.975473 -0.212587 0.057095
68.78399658 -6.34700012 372.01800537 0.968306 -0.238641 0.073716
68.85700226 -6.04699993 372.01800537 0.972534 -0.219285 0.078050
47.21799850 -30.28199959 363.01800537 0.080321 -0.913478 0.398881
46.91799927 -30.29100037 363.01800537 0.060033 -0.921846 0.382879
19.94899940 -9.94699955 358.81799316 -0.984712 -0.153601 0.082159
19.91600037 -9.94699955 358.51800537 -0.979253 -0.175260 0.101725
19.86899948 -9.64700031 358.51800537 -0.986557 -0.142962 0.079161
38.21799850 24.70599937 367.81799316 -0.281550 0.903612 -0.322824
37.91799927 24.61899948 367.81799316 -0.236254 0.920675 -0.310710
38.21799850 24.62999916 367.51800537 -0.260473 0.912383 -0.315769
19.89200020 -9.64700031 358.81799316 -0.984020 -0.159021 0.080109
37.91799927 24.52400017 367.51800537 -0.280618 0.895306 -0.345948
52.91799927 21.28899956 360.91799927 0.317196 0.878740 -0.356656
68.76599884 -6.34700012 372.31799316 0.965849 -0.251146 0.063724
38.21799850 24.50900078 367.21798706 -0.238829 0.901102 -0.361906
37.91799927 24.40999985 367.21798706 -0.300989 0.890987 -0.339923
38.21799850 24.39399910 366.91799927 -0.220184 0.888126 -0.403425
37.91799927 24.29700089 366.91799927 -0.292295 0.864643 -0.408601
68.83399963 -6.04699993 372.31799316 0.974976 -0.208307 0.077653
68.75199890 -6.34700012 372.61801147 0.965353 -0.252322 0.066533
68.80799866 -6.04699993 372.61801147 0.977360 -0.194981 0.082162
37.61800003 24.56999969 367.81799316 -0.276613 0.889648 -0.363335
37.31800079 24.42799950 367.81799316 -0.349678 0.853214 -0.386977
37.61800003 24.42300034 367.51800537 -0.325014 0.871283 -0.367739
37.31800079 24.31100082 367.51800537 -0.300491 0.892502 -0.336370
37.61800003 24.30599976 367.21798706 -0.317350 0.885873 -0.338406
36.71799850 24.21800041 367.81799316 -0.300656 0.899005 -0.318428
37.01800156 24.22800064 367.51800537 -0.293169 0.894390 -0.337814
36.71799850 24.12299919 367.51800537 -0.307238 0.888742 -0.340210
37.01800156 24.32399940 367.81799316 -0.307039 0.891163 -0.333999
47.81800079 -29.91799927 363.61801147 0.180800 -0.898214 0.400653
47.51800156 -29.98900032 363.61801147 0.161447 -0.901529 0.401473
66.70200348 -0.64700001 342.91799927 0.904917 0.374997 -0.201253
47.81800079 -30.05100060 363.31799316 0.177836 -0.894962 0.409167
47.51800156 -30.11199951 363.31799316 0.145762 -0.907118 0.394830
67.97799683 -12.34700012 363.31799316 0.960830 -0.270745 0.059186
68.04900360 -12.04699993 363.31799316 0.958573 -0.271488 0.086207
67.95600128 -12.34700012 363.61801147 0.945462 -0.305375 0.113349
66.23200226 -0.34700000 341.41799927 0.884653 0.445911 -0.136211
68.03500366 -12.04699993 363.61801147 0.962952 -0.261246 0.066889
66.21900177 -0.34700000 341.11801147 0.879780 0.465932 -0.094312
68.21800232 -6.04699993 341.02499390 0.900661 0.370516 0.226996
68.26899719 -6.04699993 340.81799316 0.969465 0.241447 0.042897
67.46800232 8.95300007 366.61801147 0.901867 0.381950 -0.201867
67.59400177 8.65299988 366.61801147 0.922019 0.343110 -0.179321
67.40699768 8.95300007 366.31799316 0.909365 0.379969 -0.169350
67.53099823 8.65299988 366.31799316 0.917470 0.360485 -0.168226
68.00299835 -12.04699993 363.91799927 0.941196 -0.310121 0.134070
67.95099640 -12.04699993 364.21798706 0.940089 -0.313363 0.134298
19.99600029 -7.84700012 363.01800537 -0.989199 -0.117679 0.087385
20.03700066 -8.14700031 363.01800537 -0.978607 -0.169066 0.117235
19.96699905 -7.84700012 362.71798706 -0.989566 -0.128170 0.065817
19.99600029 -8.14700031 362.71798706 -0.988051 -0.128059 0.085764
20.06399918 -7.84700012 363.61801147 -0.983345 -0.153233 0.097731
