31.31800079 23.70599937 379.21798706 -0.573859 0.773050 -0.270330
31.61800003 23.94799995 379.21798706 -0.590693 0.741988 -0.317075
61.01800156 -8.36999989 393.01800537 0.684412 -0.684412 0.251320
31.61800003 23.69700050 378.61801147 -0.571894 0.752323 -0.327027
61.04800034 -8.44699955 392.71798706 0.691223 -0.672155 0.265366
60.77600098 -8.74699974 392.71798706 0.705483 -0.651092 0.279953
62.57600021 20.05299950 379.81799316 0.765843 0.571596 -0.294555
62.77799988 21.85300064 384.31799316 0.757628 0.585367 -0.288696
62.54600143 22.15299988 384.31799316 0.735610 0.603619 -0.307443
62.88999939 21.85300064 384.61801147 0.768465 0.575160 -0.280450
62.66199875 22.15299988 384.61801147 0.758982 0.583955 -0.287999
61.25299835 -8.14700031 393.01800537 0.689048 -0.679544 0.251859
67.60099792 8.05300045 380.11801147 0.980259 0.184477 -0.071138
67.54000092 8.35299969 380.11801147 0.986375 0.131754 -0.098519
67.62100220 8.05300045 380.41799927 0.986681 0.129420 -0.098549
67.60099792 8.35299969 380.41799927 0.979318 0.124730 -0.159309
62.34899902 20.35300064 379.81799316 0.764464 0.576924 -0.287667
44.81800079 -15.47000027 393.01800537 0.014270 -0.917162 0.398259
44.51800156 -15.45600033 393.01800537 -0.075449 -0.901274 0.426630
44.81800079 -15.58699989 392.71798706 0.058120 -0.904237 0.423058
44.51800156 -15.59799957 392.71798706 -0.067438 -0.890456 0.450045
50.51800156 -15.59700012 390.91799927 0.255294 -0.871626 0.418441
50.81800079 -15.51700020 390.91799927 0.245123 -0.889870 0.384768
50.51800156 -15.45499992 391.21798706 0.233827 -0.883181 0.406591
50.81800079 -15.37500000 391.21798706 0.233871 -0.880366 0.412625
62.22600174 20.35300064 379.51800537 0.763837 0.575668 -0.291821
62.45199966 20.05299950 379.51800537 0.768575 0.571260 -0.288017
60.83300018 -8.44699955 393.31799316 0.696111 -0.664253 0.272391
32.21799850 -9.94699955 395.90701294 0.999999 0.000978 0.000978
32.21799850 -9.91899967 396.01800537 -0.454541 -0.787763 0.415719
45.41799927 -15.43299961 393.01800537 0.085667 -0.917863 0.387542
45.11800003 -15.47900009 393.01800537 0.035226 -0.927630 0.371835
45.41799927 -15.55000019 392.71798706 0.056845 -0.926702 0.371474
45.11800003 -15.54800034 392.71798706 0.040476 -0.928345 0.369510
32.21799850 -9.98799992 395.71798706 -0.378812 -0.917197 0.123496
21.96599960 5.35300016 381.01800537 -0.982119 0.179757 0.055951
21.91600037 5.05299997 381.01800537 -0.962995 0.015827 0.269054
21.95999908 5.35300016 380.71798706 -0.981011 0.166955 0.098710
21.77000046 5.05299997 380.71798706 -0.923065 0.217610 0.317170
47.81800079 -16.54700089 390.12600708 0.206738 -0.704154 0.679283
46.31800079 -13.70499992 396.91799927 0.096279 -0.894419 0.436744
46.91799927 -17.14699936 389.80300903 0.185715 -0.655374 0.732116
47.21799850 -16.84700012 389.99499512 0.117160 -0.668852 0.734106
46.91799927 -16.84700012 390.07101440 0.117137 -0.665751 0.736922
46.61800003 -13.67599964 396.91799927 0.052252 -0.912397 0.405957
46.31800079 -13.55000019 397.21798706 0.059947 -0.923181 0.379663
62.12500000 20.65299988 379.81799316 0.759220 0.595064 -0.263596
28.91799927 -6.86800003 396.01800537 -0.702588 -0.647924 0.294219
46.61800003 -13.55200005 397.21798706 0.046045 -0.924837 0.377565
67.75099945 7.45300007 380.71798706 0.992931 0.102562 -0.059734
67.70600128 7.75299978 380.71798706 0.986381 0.151300 -0.064508
62.00500107 20.65299988 379.51800537 0.736305 0.600967 -0.310956
46.61800003 -15.06999969 393.61801147 0.060459 -0.914943 0.399028
46.31800079 -15.11999989 393.61801147 0.106845 -0.906103 0.409342
46.61800003 -15.21700001 393.31799316 0.072728 -0.898814 0.432254
46.31800079 -15.25100040 393.31799316 0.077867 -0.905722 0.416659
67.77400208 7.45300007 381.01800537 0.990954 0.122016 -0.055877
67.71800232 7.75299978 381.01800537 0.987784 0.143107 -0.061664
61.52700043 -7.84700012 393.01800537 0.731655 -0.633680 0.251259
61.61800003 -7.84700012 392.71798706 0.717546 -0.641178 0.272063
64.06400299 -5.44700003 390.61801147 0.813725 -0.546032 0.199249
63.85200119 -5.74700022 390.61801147 0.804939 -0.557500 0.203144
64.12000275 -5.44700003 390.31799316 0.827534 -0.538270 0.159543
63.93299866 -5.74700022 390.31799316 0.821272 -0.535876 0.195830
47.21799850 -15.06099987 393.61801147 0.081303 -0.899846 0.428564
46.91799927 -15.06400013 393.61801147 0.030298 -0.912902 0.407052
47.21799850 -15.20400047 393.31799316 0.077638 -0.911222 0.404533
46.91799927 -15.21500015 393.31799316 0.027775 -0.908651 0.416631
48.11800003 -12.35599995 399.61801147 0.137926 -0.897231 0.419466
48.41799927 -12.44900036 399.31799316 0.170799 -0.902794 0.394703
48.11800003 -12.49600029 399.31799316 0.133665 -0.907516 0.398181
61.27399826 -7.84700012 393.61801147 0.725816 -0.630104 0.275970
49.01800156 -12.36400032 399.31799316 0.189808 -0.926547 0.324783
48.71799850 -12.38399982 399.31799316 0.136840 -0.924708 0.355232
61.02099991 -8.14700031 393.61801147 0.706752 -0.662481 0.248233
67.66300201 8.05300045 380.71798706 0.990618 0.107500 -0.084382
61.13700104 -8.14700031 393.31799316 0.691581 -0.666026 0.279507
31.36400032 -8.74699974 396.91799927 -0.669946 -0.653566 0.352172
47.81800079 -14.97399998 393.61801147 0.118291 -0.911536 0.393839
47.51800156 -15.01299953 393.61801147 0.112548 -0.910113 0.398782
47.81800079 -15.12399960 393.31799316 0.125978 -0.893167 0.431721
47.51800156 -15.16100025 393.31799316 0.110312 -0.900653 0.420305
50.63100052 26.05299950 369.91799927 0.267672 0.745998 -0.609786
67.65200043 8.35299969 380.71798706 0.993956 0.081987 -0.073002
67.68599701 8.05300045 381.01800537 0.990866 0.117988 -0.065294
67.64900208 8.35299969 381.01800537 0.994107 0.102839 -0.034280
48.11800003 -14.83199978 393.91799927 0.175247 -0.910427 0.374714
22.24099922 5.95300007 390.01800537 -0.999110 -0.036162 0.021697
22.25200081 5.65299988 390.01800537 -0.993320 -0.100119 0.057372
22.22699928 5.95300007 389.71798706 -0.997747 -0.058441 0.032939
22.23800087 5.65299988 389.71798706 -0.997545 -0.064803 0.026559
22.36199951 5.05299997 390.61801147 -0.986234 -0.120447 0.113292
22.32900047 5.05299997 390.31799316 -0.992136 -0.105691 0.067052
22.23699951 5.95300007 390.31799316 -0.997713 -0.064539 0.020102
22.27899933 5.65299988 390.31799316 -0.991791 -0.112729 0.060350
64.48999786 15.25300026 375.01800537 0.834928 0.471104 0.284528
64.01799774 15.77000046 375.01800537 0.768051 0.628406 -0.123304
22.38400078 9.85299969 383.71798706 -0.990377 0.131063 -0.044447
22.42099953 10.15299988 383.71798706 -0.983591 0.173159 -0.050652
22.36400032 9.85299969 384.01800537 -0.987860 0.148698 -0.044955
22.40399933 10.15299988 384.01800537 -0.985484 0.168645 -0.019503
48.41799927 -14.62500000 394.21798706 0.162720 -0.912647 0.374963
48.11800003 -14.68999958 394.21798706 0.156132 -0.898120 0.411101
48.41799927 -14.74300003 393.91799927 0.186332 -0.899880 0.394330
45.71799850 -13.72799969 396.91799927 -0.003829 -0.925357 0.379077
46.01800156 -13.74100018 396.91799927 0.030217 -0.915709 0.400705
45.71799850 -13.59599972 397.21798706 0.016994 -0.911128 0.411772
46.01800156 -13.58399963 397.21798706 0.066407 -0.909375 0.410642
57.71799850 22.90800095 375.61801147 0.568932 0.755890 -0.323953
58.01800156 22.67300034 375.61801147 0.593980 0.742072 -0.310672
57.71799850 22.79599953 375.31799316 0.563535 0.748674 -0.349164
49.01800156 -14.53600025 394.21798706 0.160687 -0.908666 0.385365
58.01800156 22.56100082 375.31799316 0.593076 0.735285 -0.328050
48.71799850 -14.56900024 394.21798706 0.135232 -0.915953 0.377813
49.01800156 -14.66800022 393.91799927 0.148038 -0.912195 0.382079
57.11800003 23.06500053 375.01800537 0.528176 0.770459 -0.356963
49.31800079 -12.39599991 399.01800537 0.205496 -0.899227 0.386216
48.71799850 -14.70499992 393.91799927 0.132745 -0.912450 0.387058
49.61800003 -12.48900032 398.71798706 0.166029 -0.890783 0.423014
49.31800079 -12.54100037 398.71798706 0.142051 -0.909970 0.389585
62.07899857 20.95299911 380.41799927 0.739798 0.612521 -0.278419
62.30899811 20.65299988 380.41799927 0.752288 0.603414 -0.264489
61.96900177 20.95299911 380.11801147 0.725997 0.644106 -0.240949
62.21300125 20.65299988 380.11801147 0.757381 0.603070 -0.250361
64.78299713 -3.04699993 393.61801147 0.859400 -0.476455 0.185535
64.60399628 -3.34699988 393.61801147 0.830067 -0.517464 0.207896
64.84300232 -3.04699993 393.31799316 0.870994 -0.453982 0.187803
64.67600250 -3.34699988 393.31799316 0.850238 -0.483055 0.209174
64.74700165 -3.34699988 393.01800537 0.866004 -0.463349 0.188004
64.79900360 -3.34699988 392.71798706 0.859998 -0.490388 0.141150
64.91899872 -3.04699993 393.01800537 0.867885 -0.458421 0.191380
64.97699738 -3.04699993 392.71798706 0.867795 -0.468404 0.165924
49.61800003 -14.38000011 394.21798706 0.212493 -0.895403 0.391281
49.31800079 -14.46800041 394.21798706 0.222281 -0.893541 0.390096
49.61800003 -14.52600002 393.91799927 0.207883 -0.886085 0.414293
49.31800079 -14.60200024 393.91799927 0.203070 -0.895553 0.395913
67.39499664 2.35299993 390.01800537 0.958677 -0.243955 0.146373
67.31900024 2.05299997 390.01800537 0.963541 -0.247621 0.101358
67.43399811 2.35299993 389.71798706 0.965070 -0.254097 0.063837
67.34999847 2.05299997 389.71798706 0.966009 -0.252381 0.055946
67.55799866 2.95300007 389.41799927 0.983189 -0.182412 0.008031
67.49800110 2.65300012 389.41799927 0.980527 -0.196105 0.010443
67.56500244 2.95300007 389.11801147 0.979475 -0.193491 0.056485
67.50900269 2.65300012 389.11801147 0.978339 -0.200469 0.051618
68.00399780 6.55299997 387.61801147 0.998927 0.013401 -0.044328
68.00499725 6.25299978 387.61801147 0.999223 -0.025727 -0.029843
67.98500061 6.55299997 387.31799316 0.999972 -0.002956 0.006896
68.00499725 6.25299978 387.31799316 0.999657 -0.025218 -0.007061
22.94199944 12.85299969 384.91799927 -0.950668 0.293221 -0.101247
23.03800011 13.15299988 384.91799927 -0.957901 0.273870 -0.086147
50.21799850 -12.49899960 398.41799927 0.208832 -0.898122 0.386996
49.91799927 -12.56000042 398.41799927 0.164788 -0.919712 0.356336
52.01800156 -14.22299957 393.01800537 0.291244 -0.879767 0.375749
51.71799850 -14.33300018 393.01800537 0.292041 -0.888104 0.354942
22.99699974 13.15299988 385.21798706 -0.959521 0.271418 -0.075182
50.21799850 -12.61800003 398.11801147 0.182006 -0.935037 0.304269
52.01800156 -14.35000038 392.71798706 0.271011 -0.884902 0.378816
51.71799850 -14.44299984 392.71798706 0.287145 -0.885488 0.365320
49.91799927 -12.65600014 398.11801147 0.143522 -0.948315 0.283019
61.41400146 -7.84700012 393.31799316 0.713373 -0.636425 0.293365
49.91799927 24.90800095 372.01800537 0.244108 0.892103 -0.380216
49.91799927 24.81399918 371.71798706 0.251685 0.899297 -0.357658
50.21799850 24.71500015 371.71798706 0.273976 0.887801 -0.369792
50.21799850 24.82699966 372.01800537 0.215289 0.894842 -0.391036
52.61800003 -14.27799988 392.41799927 0.319755 -0.880462 0.350063
50.51800156 24.90900040 372.31799316 0.247912 0.889218 -0.384487
50.51800156 25.02899933 372.61801147 0.307611 0.877374 -0.368225
52.31800079 -14.39799976 392.41799927 0.310551 -0.880146 0.359027
50.81800079 24.93400002 372.61801147 0.222673 0.889219 -0.399632
51.11800003 25.03899956 372.91799927 0.254273 0.874157 -0.413758
51.41799927 24.93499947 372.91799927 0.246287 0.898137 -0.364269
51.41799927 25.05599976 373.21798706 0.313776 0.877665 -0.362283
51.11800003 25.17600060 373.21798706 0.258963 0.884664 -0.387695
52.61800003 -14.39000034 392.11801147 0.310212 -0.879187 0.361662
52.31800079 -14.50699997 392.11801147 0.314265 -0.875995 0.365883
52.61800003 -14.16300011 392.71798706 0.349256 -0.852186 0.389615
52.31800079 -14.26900005 392.71798706 0.288149 -0.879534 0.378668
49.61800003 24.76799965 371.41799927 0.260057 0.893109 -0.367051
60.71799850 19.50499916 373.21798706 0.566363 0.804990 0.176705
52.61800003 -14.00899982 393.01800537 0.358018 -0.845797 0.395539
52.31800079 -14.13099957 393.01800537 0.308959 -0.862319 0.401186
51.41799927 -13.65999985 394.81799316 0.272547 -0.880885 0.386987
51.11800003 -13.76000023 394.81799316 0.247912 -0.889218 0.384487
51.41799927 -13.78999996 394.51800537 0.277478 -0.886430 0.370471
51.11800003 -13.87899971 394.51800537 0.244007 -0.894693 0.374145
53.21799850 -12.75500011 395.41799927 0.361717 -0.871477 0.331192
52.91799927 -12.89099979 395.41799927 0.359281 -0.869918 0.337877
53.21799850 -12.86699963 395.11801147 0.369849 -0.858854 0.354374
50.81800079 -12.56700039 397.81799316 0.255383 -0.899006 0.355764
50.51800156 -12.63399982 397.81799316 0.212712 -0.920802 0.326920
50.81800079 -12.68500042 397.51800537 0.240319 -0.894931 0.375959
50.51800156 -12.77200031 397.51800537 0.225409 -0.891324 0.393361
62.99100113 21.85300064 384.91799927 0.774710 0.576711 -0.259284
62.77600098 22.15299988 384.91799927 0.773786 0.571240 -0.273752
67.98100281 11.05300045 390.01800537 0.993731 0.093197 -0.061757
67.97100067 11.05300045 389.71798706 0.996439 0.068607 -0.049005
67.91000366 11.35299969 389.41799927 0.990954 0.122016 -0.055877
67.89199829 11.35299969 389.11801147 0.988702 0.124901 -0.082878
67.95200348 11.05300045 389.41799927 0.994638 0.091830 -0.047574
67.93800354 11.05300045 389.11801147 0.989830 0.123584 -0.070455
67.83399963 11.95300007 389.41799927 0.980106 0.172098 -0.098865
67.88800049 11.65299988 389.41799927 0.988874 0.120253 -0.087563
67.80500031 11.95300007 389.11801147 0.977994 0.183297 -0.099645
67.85700226 11.65299988 389.11801147 0.984634 0.145117 -0.097144
61.99000168 -5.74700022 396.91799927 0.718510 -0.669276 0.189244
67.86799622 11.35299969 388.81799316 0.983111 0.153196 -0.100120
67.90799713 11.05300045 388.81799316 0.988966 0.131320 -0.068565
67.82399750 11.35299969 388.51800537 0.976722 0.186927 -0.105224
67.89600372 11.05300045 388.51800537 0.982836 0.157977 -0.095269
67.77400208 11.95300007 388.81799316 0.977694 0.177199 -0.112763
67.82599640 11.65299988 388.81799316 0.978067 0.160318 -0.132977
67.73899841 11.95300007 388.51800537 0.981915 0.156960 -0.105857
67.76999664 11.65299988 388.51800537 0.983731 0.152544 -0.094890
23.89500046 14.95300007 382.81799316 -0.919760 0.373696 -0.119969
23.79299927 14.65299988 382.81799316 -0.932619 0.335524 -0.132840
23.94000053 14.95300007 382.51800537 -0.916961 0.391435 -0.077204
23.81900024 14.65299988 382.51800537 -0.949081 0.308613 -0.063272
62.21799850 -5.67700005 396.31799316 0.711600 -0.661333 0.237200
62.42800140 -5.44700003 396.31799316 0.740147 -0.641255 0.202420
67.51899719 12.55300045 387.01800537 0.960258 0.248859 -0.126384
67.59100342 12.25300026 387.01800537 0.984456 0.168193 -0.050575
62.32400131 -5.44700003 396.61801147 0.708583 -0.657856 0.255217
67.46499634 12.55300045 386.71798706 0.950885 0.264957 -0.160050
67.55300140 12.25300026 386.71798706 0.960311 0.237779 -0.145820
61.59500122 21.25300026 379.81799316 0.706195 0.661959 -0.251197
67.41600037 12.55300045 386.41799927 0.966207 0.236127 -0.103385
67.50399780 12.25300026 386.41799927 0.960073 0.240347 -0.143157
67.40100098 12.55300045 386.11801147 0.964419 0.242065 -0.106304
67.46800232 12.25300026 386.11801147 0.973963 0.207729 -0.090804
54.41799927 26.73500061 379.81799316 0.438101 0.817257 -0.374377
54.11800003 26.90200043 379.81799316 0.400623 0.846453 -0.350740
54.11800003 26.78100014 379.51800537 0.421531 0.828852 -0.367853
61.48600006 21.25300026 379.51800537 0.707135 0.646203 -0.287023
67.15799713 13.15299988 385.21798706 0.963624 0.222976 -0.147347
67.23400116 12.85299969 385.21798706 0.964986 0.230617 -0.124971
67.07900238 13.15299988 384.91799927 0.957246 0.222337 -0.185059
67.16200256 12.85299969 384.91799927 0.952065 0.261115 -0.159347
61.91799927 -5.87699986 396.61801147 0.713223 -0.663062 0.227291
67.21399689 12.55300045 384.61801147 0.965469 0.230118 -0.122130
67.27999878 12.25300026 384.61801147 0.965620 0.218460 -0.140900
67.17099762 12.55300045 384.31799316 0.968336 0.213622 -0.129197
67.23200226 12.25300026 384.31799316 0.965936 0.220527 -0.135412
67.01499939 13.15299988 384.61801147 0.965557 0.228176 -0.125045
67.13999939 12.85299969 384.61801147 0.954250 0.280662 -0.103127
67.01499939 13.15299988 384.31799316 0.963474 0.260025 -0.064064
67.09999847 12.85299969 384.31799316 0.966626 0.235607 -0.100611
50.51800156 -12.42800045 398.41799927 0.249673 -0.883572 0.396187
50.81800079 -12.43200016 398.11801147 0.287896 -0.893521 0.344580
50.51800156 -12.54399967 398.11801147 0.255616 -0.907070 0.334491
51.41799927 -12.37300014 397.81799316 0.272824 -0.890031 0.365256
51.11800003 -12.47399998 397.81799316 0.275651 -0.881181 0.384105
51.41799927 -12.51099968 397.51800537 0.285478 -0.877580 0.385169
51.11800003 -12.59899998 397.51800537 0.261661 -0.886657 0.381278
67.00000000 13.15299988 384.01800537 0.953721 0.275695 -0.120040
67.07299805 12.85299969 384.01800537 0.967184 0.221620 -0.124261
66.94300079 13.15299988 383.71798706 0.935078 0.296828 -0.193705
67.02200317 12.85299969 383.71798706 0.953376 0.258067 -0.156445
52.01800156 -12.68500042 396.61801147 0.253871 -0.878784 0.404090
51.71799850 -12.76700020 396.61801147 0.286660 -0.875148 0.389797
52.01800156 -12.82800007 396.31799316 0.254943 -0.873444 0.414848
51.71799850 -12.91699982 396.31799316 0.264399 -0.871761 0.412462
52.61800003 -12.48700047 396.61801147 0.348002 -0.847376 0.401060
52.31800079 -12.60000038 396.61801147 0.291114 -0.867246 0.403902
52.61800003 -12.61999989 396.31799316 0.340205 -0.852843 0.396129
52.31800079 -12.73799992 396.31799316 0.292295 -0.864643 0.408601
53.21799850 -12.22200012 396.61801147 0.352909 -0.850402 0.390221
52.91799927 -12.34300041 396.61801147 0.372280 -0.837236 0.400554
53.21799850 -12.35799980 396.31799316 0.362858 -0.848746 0.384661
52.91799927 -12.50000000 396.31799316 0.372747 -0.838288 0.397911
66.86900330 13.15299988 383.41799927 0.955011 0.273796 -0.113973
66.96399689 12.85299969 383.41799927 0.943662 0.302887 -0.133270
66.85900116 13.15299988 383.11801147 0.958043 0.275742 -0.078234
66.94599915 12.85299969 383.11801147 0.954896 0.285564 -0.081405
66.82800293 13.15299988 382.81799316 0.941810 0.303064 -0.145417
66.91200256 12.85299969 382.81799316 0.954646 0.272568 -0.119825
66.76599884 13.15299988 382.51800537 0.927177 0.334231 -0.169213
66.86699677 12.85299969 382.51800537 0.946010 0.287447 -0.149796
66.68399811 13.75300026 383.41799927 0.935932 0.314726 -0.158050
66.64900208 13.75300026 383.11801147 0.937351 0.322427 -0.131964
66.79799652 13.45300007 383.41799927 0.951957 0.283871 -0.114869
66.76699829 13.45300007 383.11801147 0.935944 0.331847 -0.117840
66.61000061 13.75300026 382.81799316 0.940615 0.308109 -0.142517
66.71600342 13.45300007 382.81799316 0.924582 0.342697 -0.166453
66.56300354 13.75300026 382.51800537 0.939642 0.297668 -0.168724
66.65599823 13.45300007 382.51800537 0.931647 0.320731 -0.170779
35.81800079 -11.94900036 396.01800537 -0.346055 -0.906753 0.240925
66.49800110 13.75300026 382.21798706 0.937434 0.304219 -0.169316
66.60099792 13.45300007 382.21798706 0.934005 0.321452 -0.155897
66.45200348 13.75300026 381.91799927 0.930700 0.333282 -0.150737
66.56199646 13.45300007 381.91799927 0.937190 0.330376 -0.111923
54.41799927 -11.96899986 396.01800537 0.396280 -0.841115 0.368086
54.11800003 -12.10999966 396.01800537 0.374359 -0.869430 0.322407
54.41799927 -12.09099960 395.71798706 0.360102 -0.884434 0.296820
54.11800003 -12.19600010 395.71798706 0.374785 -0.875511 0.304987
36.41799927 -12.89500046 394.81799316 -0.383310 -0.855076 0.349169
36.52600098 -12.94699955 394.81799316 -0.404719 -0.836210 0.370074
59.51800156 -10.55799961 391.21798706 0.603019 -0.734880 0.310354
36.41799927 -12.78400040 395.11801147 -0.343015 -0.837958 0.424461
59.51800156 -10.72000027 390.91799927 0.599283 -0.731740 0.324679
66.40000153 13.75300026 381.61801147 0.921406 0.354818 -0.158476
66.52799988 13.45300007 381.61801147 0.921981 0.358471 -0.146457
66.35500336 13.75300026 381.31799316 0.937333 0.325970 -0.123084
66.46900177 13.45300007 381.31799316 0.923313 0.355120 -0.146226
36.71799850 -12.64700031 395.58898926 -0.253919 -0.875945 0.410177
37.01800156 -12.85799980 395.41799927 -0.254481 -0.834389 0.488912
36.71799850 -12.72000027 395.41799927 -0.330798 -0.818289 0.470081
37.01800156 -12.94699955 395.24899292 -0.225462 -0.873478 0.431513
36.71799850 -12.90699959 395.11801147 -0.356790 -0.837749 0.413373
36.84299850 -12.94699955 395.11801147 -0.284622 -0.880973 0.377990
66.17099762 14.35299969 381.61801147 0.926156 0.344001 -0.154591
66.29000092 14.05300045 381.61801147 0.932064 0.333566 -0.141388
66.14099884 14.35299969 381.31799316 0.922233 0.363639 -0.131352
66.26799774 14.05300045 381.31799316 0.929816 0.341986 -0.135970
66.30899811 13.75300026 381.01800537 0.927444 0.346928 -0.139600
66.43000031 13.45300007 381.01800537 0.933978 0.329559 -0.138114
66.27200317 13.75300026 380.71798706 0.913260 0.378531 -0.150568
66.40000153 13.45300007 380.71798706 0.943662 0.302887 -0.133270
36.71799850 -13.03999996 394.81799316 -0.404719 -0.836210 0.370074
37.31800079 -13.10099983 394.81799316 -0.553473 -0.781840 0.287045
37.50899887 -13.24699974 394.81799316 -0.574449 -0.754668 0.316993
53.21799850 -13.78199959 393.01800537 0.371934 -0.859614 0.350327
66.19899750 14.05300045 381.01800537 0.922010 0.347689 -0.170325
66.14499664 14.05300045 380.71798706 0.924864 0.347347 -0.154842
38.21799850 -13.81700039 394.21798706 -0.421888 -0.839070 0.343470
38.26800156 -13.84700012 394.21798706 -0.537401 -0.795858 0.278944
66.09999847 14.35299969 381.01800537 0.929605 0.340167 -0.141851
66.04699707 14.35299969 380.71798706 0.912839 0.361422 -0.189996
61.21699905 -9.64700031 389.41799927 0.723084 -0.640808 0.257905
61.01800156 -9.87600040 389.41799927 0.693900 -0.661850 0.283650
61.04800034 -9.94699955 389.11801147 0.728131 -0.636522 0.254293
60.91500092 -10.24699974 388.81799316 0.713373 -0.636425 0.293365
60.71799850 -10.45699978 388.81799316 0.642962 -0.694787 0.322291
52.91799927 -13.87899971 393.01800537 0.337712 -0.872551 0.352994
61.01800156 -10.28400040 388.51800537 0.695329 -0.663360 0.276533
61.15800095 -9.94699955 388.81799316 0.723155 -0.623741 0.296638
61.30400085 -9.94699955 388.51800537 0.711888 -0.634754 0.300504
53.21799850 -13.88700008 392.71798706 0.367898 -0.855323 0.364793
61.31800079 -9.76500034 388.81799316 0.701766 -0.653809 0.282944
61.58900070 -9.64700031 388.51800537 0.723658 -0.631004 0.279559
52.91799927 -14.01500034 392.71798706 0.376478 -0.833292 0.404832
61.61800003 -9.70600033 388.21798706 0.762217 -0.613793 0.205628
61.40900040 -9.94699955 388.21798706 0.730422 -0.639315 0.240332
61.74499893 -9.64700031 387.91799927 0.735099 -0.623961 0.265144
61.50099945 -9.94699955 387.91799927 0.751574 -0.617197 0.232816
61.89500046 -9.34700012 388.21798706 0.736807 -0.633120 0.237224
65.97200012 14.35299969 380.41799927 0.897648 0.389710 -0.205802
66.09999847 14.05300045 380.41799927 0.915037 0.369126 -0.162642
65.90200043 14.35299969 380.11801147 0.903486 0.383078 -0.192262
66.03900146 14.05300045 380.11801147 0.889515 0.417825 -0.184891
62.82500076 -8.44699955 387.61801147 0.798493 -0.561560 0.216932
62.61600113 -8.74699974 387.61801147 0.798394 -0.553450 0.237193
62.91699982 -8.44699955 387.31799316 0.804363 -0.517878 0.291208
62.70399857 -8.74699974 387.31799316 0.776077 -0.542454 0.321632
63.02299881 -8.44699955 387.01800537 0.833455 -0.495775 0.244050
62.88100052 -8.74699974 387.01800537 0.803079 -0.494569 0.332363
63.09099960 -8.44699955 386.71798706 0.820443 -0.505966 0.266216
62.94699860 -8.74699974 386.71798706 0.874326 -0.442341 0.199719
63.46699905 -7.84700012 387.01800537 0.809707 -0.534128 0.243067
63.14599991 -5.44700003 393.91799927 0.781886 -0.575880 0.238780
63.23799896 -8.14700031 387.01800537 0.777991 -0.573670 0.256187
63.52899933 -7.84700012 386.71798706 0.807660 -0.533772 0.250546
63.31000137 -8.14700031 386.71798706 0.784598 -0.576407 0.228388
63.63700104 -7.84700012 386.41799927 0.788260 -0.548149 0.279603
63.42900085 -8.14700031 386.41799927 0.792213 -0.561864 0.238131
63.48699951 -8.14700031 386.11801147 0.770172 -0.607222 0.195233
63.77600098 -7.84700012 386.11801147 0.789070 -0.564955 0.241234
65.83999634 14.35299969 379.81799316 0.908426 0.380769 -0.172558
65.97699738 14.05300045 379.81799316 0.890594 0.416967 -0.181606
65.79399872 14.35299969 379.51800537 0.913064 0.375135 -0.159963
65.91999817 14.05300045 379.51800537 0.905971 0.385002 -0.176042
65.60900116 14.95300007 379.81799316 0.916364 0.367390 -0.159062
65.72399902 14.65299988 379.81799316 0.917030 0.360312 -0.170972
65.55999756 14.95300007 379.51800537 0.887761 0.407810 -0.213475
65.67400360 14.65299988 379.51800537 0.919712 0.356336 -0.164788
65.73300171 14.35299969 379.21798706 0.896886 0.384798 -0.218003
65.86799622 14.05300045 379.21798706 0.912869 0.364291 -0.184288
65.64099884 14.35299969 378.91799927 0.901552 0.374312 -0.217013
65.79299927 14.05300045 378.91799927 0.888825 0.405351 -0.213731
65.61699677 14.65299988 379.21798706 0.897162 0.380303 -0.224658
65.54199982 14.65299988 378.91799927 0.897725 0.391391 -0.202243
65.44699860 14.95300007 379.21798706 0.859156 0.442503 -0.256986
65.36799622 14.95300007 378.91799927 0.893334 0.411079 -0.181572
52.91799927 -13.01299953 395.11801147 0.342732 -0.875870 0.339685
65.04799652 15.55300045 378.61801147 0.861549 0.443645 -0.246806
65.19000244 15.25300026 378.61801147 0.886148 0.402255 -0.230072
64.96299744 15.55300045 378.31799316 0.881444 0.431157 -0.192770
65.09700012 15.25300026 378.31799316 0.875341 0.430960 -0.219208
65.31999969 14.95300007 378.61801147 0.891485 0.418926 -0.172499
65.48000336 14.65299988 378.61801147 0.898001 0.406615 -0.168106
65.25399780 14.95300007 378.31799316 0.871243 0.446753 -0.203340
65.41899872 14.65299988 378.31799316 0.879049 0.438791 -0.186376
65.19699860 14.95300007 378.01800537 0.878554 0.447290 -0.167552
65.33599854 14.65299988 378.01800537 0.870767 0.465284 -0.158984
65.14299774 14.95300007 377.71798706 0.878912 0.448899 -0.161255
65.30300140 14.65299988 377.71798706 0.868143 0.464287 -0.175397
64.85099792 15.55300045 377.71798706 0.849530 0.485660 -0.205992
64.92199707 15.55300045 378.01800537 0.882165 0.444704 -0.154995
65.03399658 15.25300026 378.01800537 0.900921 0.408474 -0.146595
64.99199677 15.25300026 377.71798706 0.890436 0.419798 -0.175763
67.62500000 8.65299988 381.31799316 0.989226 0.122342 -0.080396
64.91999817 15.25300026 377.41799927 0.863882 0.447771 -0.230670
64.76899719 15.55300045 377.41799927 0.835322 0.487656 -0.253827
64.66799927 15.55300045 377.11801147 0.840228 0.477716 -0.256523
64.82700348 15.25300026 377.11801147 0.847563 0.471887 -0.242815
67.60199738 8.95300007 381.31799316 0.990416 0.129085 -0.049121
64.09400177 16.15299988 376.21798706 0.839882 0.468664 -0.273774
64.24299622 15.85299969 376.21798706 0.845472 0.475482 -0.243092
63.96200180 16.15299988 375.91799927 0.856646 0.441303 -0.267225
64.15499878 15.85299969 375.91799927 0.814553 0.508118 -0.279856
63.74399948 16.45299911 375.61801147 0.805986 0.531608 -0.260347
63.91799927 16.15299988 375.61801147 0.882610 0.431791 -0.185890
64.03900146 15.85299969 375.61801147 0.846714 0.491786 -0.203031
63.84199905 16.15299988 375.31799316 0.837386 0.495720 -0.230319
63.99800110 15.85299969 375.31799316 0.846655 0.510938 -0.148717
65.63600159 16.15299988 373.81799316 0.841696 0.509801 -0.177907
54.71799850 -11.83199978 396.01800537 0.413898 -0.826211 0.382182
55.01800156 -11.79699993 395.71798706 0.447255 -0.823392 0.349270
54.71799850 -11.96199989 395.71798706 0.407794 -0.851251 0.330267
66.93199921 11.65299988 380.71798706 0.963989 0.231616 -0.130688
66.85299683 11.95300007 380.71798706 0.958539 0.265901 -0.102469
66.98100281 11.65299988 381.01800537 0.951265 0.266998 -0.154295
66.89199829 11.95300007 381.01800537 0.951833 0.272903 -0.139780
66.86499786 11.65299988 380.11801147 0.946418 0.270989 -0.175666
66.78099823 11.95300007 380.11801147 0.936760 0.295600 -0.187352
66.90000153 11.65299988 380.41799927 0.972197 0.217842 -0.085892
66.83399963 11.95300007 380.41799927 0.950441 0.287651 -0.117977
55.01800156 -11.67199993 396.01800537 0.443753 -0.815933 0.370589
67.67099762 8.65299988 381.61801147 0.982222 0.151765 -0.110485
60.41799927 19.65600014 373.51800537 0.588646 0.800030 -0.115968
60.38800049 19.75300026 373.81799316 0.692190 0.682772 -0.233869
60.11800003 20.05299950 373.81799316 0.677368 0.674150 -0.294438
67.61799622 8.95300007 381.61801147 0.985664 0.158599 -0.057566
60.41799927 19.62400055 373.21798706 0.432317 0.896606 -0.095916
60.11800003 19.79599953 373.21798706 0.596254 0.765271 -0.242571
39.11800003 -12.32199955 398.11801147 -0.232283 -0.848667 0.475193
66.71900177 12.25300026 380.41799927 0.936916 0.318688 -0.143615
39.11800003 -12.19900036 398.41799927 -0.223971 -0.900275 0.373285
39.41799927 -12.26599979 398.41799927 -0.237263 -0.881902 0.407376
67.02600098 11.65299988 381.31799316 0.955968 0.264305 -0.127550
66.93299866 11.95300007 381.31799316 0.952082 0.274869 -0.134115
67.05899811 11.65299988 381.61801147 0.959919 0.253981 -0.118525
66.98000336 11.95300007 381.61801147 0.951608 0.269020 -0.148563
39.41799927 -12.41800022 398.11801147 -0.220022 -0.845187 0.487083
57.41799927 24.05999947 377.71798706 0.549940 0.754342 -0.358515
67.09200287 11.65299988 381.91799927 0.965194 0.235194 -0.114384
57.41799927 24.20299911 378.01800537 0.538319 0.772929 -0.335847
67.02899933 11.95300007 381.91799927 0.963805 0.232195 -0.131015
67.13800049 11.65299988 382.21798706 0.952557 0.255891 -0.164788
67.06500244 11.95300007 382.21798706 0.963941 0.227039 -0.138818
57.11800003 24.26600075 377.71798706 0.500978 0.795483 -0.340921
57.11800003 24.37899971 378.01800537 0.488693 0.803876 -0.339061
56.81800079 24.43700027 377.71798706 0.483325 0.812936 -0.324857
56.51800156 24.62199974 377.71798706 0.520906 0.783764 -0.338188
56.51800156 24.75900078 378.01800537 0.516978 0.769795 -0.374364
56.81800079 24.56399918 378.01800537 0.498530 0.785710 -0.366234
67.23500061 11.05300045 381.91799927 0.967892 0.218639 -0.124023
67.16699982 11.35299969 381.91799927 0.965018 0.233202 -0.119822
67.28399658 11.05300045 382.21798706 0.967775 0.199740 -0.153349
67.22899628 11.35299969 382.21798706 0.955702 0.236586 -0.175101
38.51800156 -12.16100025 398.11801147 -0.285597 -0.862899 0.416941
38.81800079 -12.25399971 398.11801147 -0.262156 -0.850856 0.455323
67.33499908 11.05300045 382.51800537 0.975449 0.193097 -0.105892
67.35099792 11.05300045 382.81799316 0.971324 0.214872 -0.101782
67.27799988 11.35299969 382.51800537 0.968652 0.218234 -0.118689
67.29599762 11.35299969 382.81799316 0.975028 0.211643 -0.067286
38.81800079 -12.11699963 398.41799927 -0.246214 -0.884879 0.395435
38.51800156 -12.03600025 398.41799927 -0.317120 -0.865568 0.387591
38.51800156 -12.30799961 397.81799316 -0.301086 -0.853848 0.424608
37.91799927 -11.95499992 398.11801147 -0.243959 -0.862189 0.443975
38.21799850 -12.03299999 398.11801147 -0.299735 -0.840189 0.451931
67.56600189 11.05300045 384.91799927 0.977116 0.189000 -0.097588
67.52200317 11.35299969 384.91799927 0.977002 0.190965 -0.094867
67.60500336 11.05300045 385.21798706 0.976723 0.165906 -0.135968
67.54399872 11.35299969 385.21798706 0.970749 0.190068 -0.146697
37.91799927 -11.78999996 398.41799927 -0.248344 -0.871463 0.422938
38.21799850 -11.89099979 398.41799927 -0.360516 -0.874670 0.324008
37.91799927 -12.23099995 397.51800537 -0.335416 -0.885921 0.320375
37.91799927 -12.13000011 397.81799316 -0.323865 -0.853827 0.407543
38.21799850 -12.22399998 397.81799316 -0.286739 -0.860216 0.421674
63.42499924 21.25300026 384.91799927 0.812300 0.514926 -0.273897
67.88400269 10.45300007 387.31799316 0.993712 0.086654 -0.070899
67.84899902 10.75300026 387.31799316 0.983519 0.141540 -0.112506
67.87799835 10.45300007 387.61801147 0.994231 0.102396 -0.031930
67.87999725 10.75300026 387.61801147 0.995199 0.086874 -0.045086
63.21799850 21.55299950 384.91799927 0.782140 0.564966 -0.262812
67.88500214 10.45300007 387.91799927 0.993783 0.110420 -0.014213
67.88099670 10.75300026 387.91799927 0.998496 0.049244 -0.024098
67.89600372 10.45300007 388.21798706 0.995693 0.087951 -0.029317
67.89099884 10.75300026 388.21798706 0.996126 0.038020 -0.079299
37.61800003 -12.11699963 397.51800537 -0.313624 -0.880268 0.356046
67.91999817 10.45300007 388.51800537 0.996452 0.007428 -0.083834
67.93099976 10.75300026 388.51800537 0.995704 0.042720 -0.082154
37.31800079 -12.03100014 397.51800537 -0.361681 -0.855307 0.370995
67.96099854 10.45300007 388.81799316 0.990893 0.041901 -0.127967
67.94699860 10.75300026 388.81799316 0.995247 0.063102 -0.074173
37.31800079 -11.86400032 397.81799316 -0.338924 -0.866480 0.366529
37.61800003 -11.97900009 397.81799316 -0.326006 -0.867818 0.374983
68.00399780 10.45300007 389.11801147 0.994348 0.070466 -0.079414
37.61800003 -11.89000034 398.11801147 -0.293767 -0.872168 0.391182
67.96600342 10.75300026 389.11801147 0.993920 0.092796 -0.059255
68.01200104 10.45300007 389.41799927 0.995199 0.086874 -0.045086
67.97299957 10.75300026 389.41799927 0.994030 0.101069 -0.041094
63.50899887 21.25300026 385.21798706 0.837191 0.491295 -0.240291
68.01799774 9.85299969 389.11801147 0.991470 0.112952 -0.065033
68.01000214 10.15299988 389.11801147 0.995326 0.056339 -0.078433
68.05400085 9.85299969 389.41799927 0.992115 0.109983 -0.060094
68.03399658 10.15299988 389.41799927 0.996091 0.062461 -0.062461
68.02400208 10.45300007 389.71798706 0.994099 0.086103 -0.065975
67.98999786 10.75300026 389.71798706 0.992588 0.102994 -0.064513
68.04900360 10.45300007 390.01800537 0.993976 0.077496 -0.077496
68.02100372 10.75300026 390.01800537 0.991358 0.104535 -0.079263
68.05999756 9.85299969 389.71798706 0.998340 0.057137 -0.007272
68.04499817 10.15299988 389.71798706 0.997301 0.057019 -0.046261
68.06199646 9.85299969 390.01800537 0.999885 0.002979 -0.014894
68.05799866 10.15299988 390.01800537 0.997609 0.024384 -0.064670
36.71799850 -11.72200012 397.51800537 -0.376911 -0.846095 0.376911
68.06300354 9.85299969 390.31799316 0.999948 -0.008902 0.004945
68.08200073 10.15299988 390.31799316 0.998254 -0.013589 -0.057491
68.05400085 9.85299969 390.61801147 0.999505 0.011162 0.029427
36.71799850 -11.57600021 397.81799316 -0.407348 -0.835142 0.369601
37.01800156 -11.85200024 397.51800537 -0.420914 -0.830793 0.364162
37.01800156 -11.75800037 397.81799316 -0.408426 -0.843454 0.348961
38.81800079 -12.45499992 397.81799316 -0.324057 -0.837539 0.439904
38.81800079 -12.56299973 397.51800537 -0.342875 -0.890875 0.297957
38.51800156 -12.44200039 397.51800537 -0.311788 -0.884153 0.347938
39.41799927 -12.59500027 397.81799316 -0.186219 -0.856608 0.481191
39.11800003 -12.55700016 397.81799316 -0.225100 -0.853569 0.469840
39.41799927 -12.77999973 397.51800537 -0.209813 -0.890605 0.403487
39.11800003 -12.68000031 397.51800537 -0.303631 -0.899044 0.315480
67.70200348 8.05300045 381.31799316 0.989624 0.110475 -0.091869
67.67199707 8.35299969 381.31799316 0.986508 0.127023 -0.103281
67.73799896 8.05300045 381.61801147 0.995430 0.080294 -0.051696
48.11800003 25.99500084 373.51800537 0.144749 0.912061 -0.383656
48.41799927 25.93300056 373.51800537 0.262695 0.894943 -0.360649
67.70999908 8.35299969 381.61801147 0.990618 0.107500 -0.084382
48.41799927 26.04999924 373.81799316 0.213237 0.906621 -0.364099
35.21799850 23.47599983 372.61801147 -0.377005 0.889612 -0.257794
34.91799927 23.32399940 372.61801147 -0.456578 0.847052 -0.272102
34.61800003 23.19099998 372.61801147 -0.428262 0.881543 -0.198678
34.39300156 23.05299950 372.61801147 -0.488870 0.823113 -0.288949
35.81800079 24.21100044 373.81799316 -0.410261 0.825274 -0.388085
35.51800156 24.06999969 373.81799316 -0.380138 0.834411 -0.399066
35.81800079 24.10499954 373.51800537 -0.416522 0.825125 -0.381680
35.51800156 23.95000076 373.51800537 -0.348184 0.866627 -0.357388
50.51800156 26.54400063 375.91799927 0.151408 0.909861 -0.386302
50.81800079 26.46800041 375.91799927 0.272229 0.879856 -0.389543
50.51800156 26.64299965 376.21798706 0.212901 0.908086 -0.360628
50.81800079 26.57699966 376.21798706 0.254998 0.910708 -0.324941
51.71799850 26.65500069 377.11801147 0.272547 0.880885 -0.386987
51.71799850 26.78700066 377.41799927 0.273809 0.872862 -0.403907
60.41799927 -7.16200018 397.51800537 0.714660 -0.671441 0.196030
52.01800156 26.70100021 377.41799927 0.257399 0.891224 -0.373451
60.62099838 -6.94700003 397.51800537 0.688082 -0.688082 0.230406
52.01800156 26.55999947 377.11801147 0.238344 0.889720 -0.389345
56.21799850 -10.71000004 396.61801147 0.453070 -0.825629 0.336250
55.91799927 -10.88700008 396.61801147 0.481128 -0.811407 0.331867
56.21799850 -10.84399986 396.31799316 0.472648 -0.802700 0.363698
60.71799850 -7.08500004 396.91799927 0.673095 -0.685886 0.276593
60.99499893 -6.64699984 397.21798706 0.691803 -0.653101 0.308006
60.74100113 -6.94700003 397.21798706 0.677656 -0.687178 0.261858
61.14599991 -6.64699984 396.91799927 0.684610 -0.655478 0.318837
61.31800079 -6.46000004 396.91799927 0.704211 -0.646462 0.293555
55.91799927 -11.03299999 396.31799316 0.477670 -0.796117 0.371521
61.27700043 -6.64699984 396.61801147 0.712814 -0.649312 0.265122
61.01800156 -6.92500019 396.61801147 0.675430 -0.685011 0.273046
61.09500122 -6.94700003 396.31799316 0.706734 -0.672411 0.219977
23.46500015 0.85299999 392.41799927 -0.931848 -0.347583 0.104140
23.35700035 1.15300000 392.11801147 -0.948964 -0.273248 0.157488
23.43199921 0.85299999 392.11801147 -0.943247 -0.289916 0.161972
61.36999893 -6.64699984 396.31799316 0.717805 -0.661751 0.216431
61.18199921 -6.94700003 396.01800537 0.704341 -0.666524 0.244234
61.30300140 -6.94700003 395.71798706 0.690722 -0.668389 0.275970
24.04800034 -0.64700001 392.41799927 -0.911917 -0.366765 0.184096
23.97900009 -0.64700001 392.11801147 -0.921010 -0.339170 0.191582
24.09600067 -0.94700003 392.11801147 -0.915205 -0.357257 0.186457
24.16500092 -0.94700003 392.41799927 -0.925486 -0.335647 0.175547
24.27599907 -1.24699998 392.41799927 -0.921429 -0.361044 0.143581
24.39999962 -1.54700005 392.41799927 -0.901842 -0.403193 0.155293
24.21400070 -1.24699998 392.11801147 -0.910950 -0.370386 0.181618
24.34399986 -1.54700005 392.11801147 -0.901231 -0.398152 0.171047
61.45800018 -6.64699984 396.01800537 0.707673 -0.660178 0.251723
61.59600067 -6.64699984 395.71798706 0.705483 -0.651092 0.279953
24.10199928 -1.24699998 391.51800537 -0.919309 -0.347043 0.185562
24.15800095 -1.24699998 391.81799316 -0.914730 -0.364474 0.174437
24.28599930 -1.54700005 391.81799316 -0.897217 -0.396986 0.193403
61.91699982 -6.64699984 394.81799316 0.727819 -0.639407 0.247869
61.65000153 -6.94700003 394.81799316 0.721309 -0.645548 0.250959
61.76200104 -6.94700003 394.51800537 0.727246 -0.638904 0.250829
67.60900116 8.65299988 380.71798706 0.986495 0.124948 -0.105908
62.41199875 -6.04699993 394.81799316 0.757628 -0.585367 0.288696
62.18299866 -6.34700012 394.81799316 0.747204 -0.611348 0.260652
62.28099823 -6.34700012 394.51800537 0.747443 -0.625730 0.223141
61.55500031 21.55299950 380.41799927 0.727942 0.601485 -0.329114
62.01399994 -6.64699984 394.51800537 0.734812 -0.634110 0.240741
67.56999969 8.95300007 380.71798706 0.972763 0.200090 -0.117034
61.81000137 21.25300026 380.41799927 0.709606 0.635588 -0.304117
62.11600113 -6.64699984 394.21798706 0.733118 -0.632216 0.250679
62.24100113 -6.64699984 393.91799927 0.726810 -0.620917 0.293612
61.94800186 -6.94700003 393.91799927 0.722839 -0.633482 0.276051
67.61799622 8.65299988 381.01800537 0.995380 0.094231 -0.018413
67.59500122 8.95300007 381.01800537 0.979405 0.191544 -0.063848
61.43099976 21.55299950 380.11801147 0.739258 0.604556 -0.296665
61.67599869 21.25300026 380.11801147 0.719702 0.640264 -0.268498
62.98500061 -6.04699993 393.01800537 0.769946 -0.595736 0.228651
62.75699997 -6.34700012 393.01800537 0.758603 -0.608446 0.233055
63.06499863 -6.04699993 392.71798706 0.769646 -0.587815 0.249234
62.83800125 -6.34700012 392.71798706 0.752874 -0.611415 0.243623
62.70299911 -6.64699984 392.41799927 0.743796 -0.621141 0.246884
62.77999878 -6.64699984 392.11801147 0.752148 -0.621339 0.219571
62.54199982 -6.94700003 392.11801147 0.764987 -0.599161 0.236223
62.95500183 -6.34700012 392.41799927 0.760211 -0.588807 0.274565
63.05199814 -6.34700012 392.11801147 0.765404 -0.607685 0.211839
63.17599869 -6.04699993 392.41799927 0.779849 -0.572726 0.252627
63.25999832 -6.04699993 392.11801147 0.796775 -0.566493 0.210324
24.21599960 -1.54700005 391.51800537 -0.906929 -0.370558 0.200418
24.42600060 -1.84700000 391.81799316 -0.892883 -0.401870 0.203127
24.55999947 -2.14700007 391.81799316 -0.886172 -0.415898 0.204275
24.34799957 -1.84700000 391.51800537 -0.890716 -0.394396 0.226002
24.47800064 -2.14700007 391.51800537 -0.883374 -0.408282 0.230123
24.70400047 -2.44700003 391.81799316 -0.898303 -0.393280 0.195914
24.62599945 -2.44700003 391.51800537 -0.880853 -0.421921 0.214662
24.82299995 -2.74699998 391.81799316 -0.877154 -0.427408 0.218916
24.75099945 -2.74699998 391.51800537 -0.903486 -0.383078 0.192262
24.99900055 -3.04699993 391.81799316 -0.874063 -0.431802 0.222624
25.12100029 -3.34699988 391.81799316 -0.888934 -0.407000 0.210112
24.89800072 -3.04699993 391.51800537 -0.866525 -0.434019 0.246498
25.04500008 -3.34699988 391.51800537 -0.877302 -0.416980 0.237634
25.27199936 -3.64700007 391.81799316 -0.852777 -0.468043 0.231749
25.18899918 -3.64700007 391.51800537 -0.864660 -0.449623 0.224060
25.44400024 -3.94700003 391.81799316 -0.857594 -0.462709 0.224572
25.36199951 -3.94700003 391.51800537 -0.846340 -0.474256 0.242465
25.59700012 -4.24700022 391.81799316 -0.842910 -0.471354 0.259475
25.78800011 -4.54699993 391.81799316 -0.813373 -0.501868 0.294199
25.52300072 -4.24700022 391.51800537 -0.867892 -0.442190 0.226342
25.66200066 -4.54699993 391.51800537 -0.840228 -0.477716 0.256523
25.85199928 -4.84700012 391.51800537 -0.814073 -0.506639 0.283906
63.72600174 -6.04699993 390.31799316 0.812341 -0.539001 0.222664
63.61100006 -6.34700012 390.01800537 0.823290 -0.523912 0.218424
63.68099976 -6.34700012 389.71798706 0.822519 -0.509621 0.252487
25.96699905 -4.84700012 391.81799316 -0.846348 -0.477310 0.236368
26.12800026 -5.14699984 391.81799316 -0.841230 -0.482673 0.243635
26.04299927 -5.14699984 391.51800537 -0.837163 -0.482563 0.257470
26.30800056 -5.44700003 391.81799316 -0.785007 -0.554401 0.276411
26.20299911 -5.44700003 391.51800537 -0.793368 -0.560481 0.237545
26.48100090 -5.74700022 391.51800537 -0.746880 -0.582341 0.321013
26.56900024 -5.74700022 391.81799316 -0.767177 -0.606641 0.208388
64.18000031 -5.44700003 390.01800537 0.830587 -0.517788 0.204989
64.00399780 -5.74700022 390.01800537 0.827856 -0.516839 0.218017
64.27799988 -5.44700003 389.71798706 0.822253 -0.521016 0.229001
64.08799744 -5.74700022 389.71798706 0.834366 -0.504891 0.221176
63.80899811 -6.04699993 390.01800537 0.809140 -0.545056 0.219558
63.89799881 -6.04699993 389.71798706 0.803878 -0.539547 0.250337
64.14499664 -5.74700022 389.41799927 0.845101 -0.510613 0.158364
64.20200348 -5.74700022 389.11801147 0.826054 -0.524841 0.205372
64.35500336 -5.44700003 389.41799927 0.816731 -0.543982 0.192439
64.41600037 -5.44700003 389.11801147 0.811984 -0.550935 0.192751
63.99100113 -6.04699993 389.41799927 0.847896 -0.494980 0.189917
63.79299927 -6.34700012 389.41799927 0.818525 -0.510996 0.262487
64.02500153 -6.04699993 389.11801147 0.861345 -0.471583 0.188931
63.87599945 -6.34700012 389.11801147 0.852529 -0.488226 0.186631
64.29199982 -5.74700022 388.81799316 0.831192 -0.502403 0.238142
64.48999786 -5.44700003 388.81799316 0.836899 -0.516512 0.181153
64.55000305 -5.44700003 388.51800537 0.865024 -0.475690 0.159539
64.37699890 -5.74700022 388.51800537 0.852777 -0.468043 0.231749
56.51800156 -10.55799961 396.61801147 0.492161 -0.804341 0.332886
64.32199860 -6.04699993 388.21798706 0.858367 -0.468881 0.208225
64.36199951 -6.04699993 387.91799927 0.866720 -0.477639 0.143727
56.51800156 -10.68200016 396.31799316 0.467328 -0.815843 0.340595
64.59500122 -5.44700003 388.21798706 0.879660 -0.434673 0.193024
64.45600128 -5.74700022 388.21798706 0.877293 -0.436427 0.199721
64.67400360 -5.44700003 387.91799927 0.862965 -0.459151 0.210881
64.54000092 -5.74700022 387.91799927 0.872192 -0.454481 0.180910
64.74800110 -5.44700003 387.61801147 0.855952 -0.489327 0.167051
64.58000183 -5.74700022 387.61801147 0.869569 -0.470470 0.150026
64.79199982 -5.44700003 387.31799316 0.862308 -0.476112 0.172462
64.62400055 -5.74700022 387.31799316 0.866070 -0.457631 0.201238
64.86199951 -5.44700003 387.01800537 0.877216 -0.440819 0.190186
64.72100067 -5.74700022 387.01800537 0.874319 -0.437902 0.209302
64.78399658 -5.74700022 386.71798706 0.871243 -0.446753 0.203340
64.92900085 -5.44700003 386.71798706 0.869994 -0.447638 0.206716
53.81800079 23.58900070 372.01800537 0.411557 0.889022 -0.200652
53.81800079 23.58399963 371.71798706 0.365800 0.930544 -0.016686
64.85900116 -5.74700022 386.41799927 0.864644 -0.446607 0.230071
39.41799927 -13.39799976 396.01800537 -0.201340 -0.902407 0.380952
39.11800003 -13.31000042 396.01800537 -0.254943 -0.873444 0.414848
39.41799927 -13.52000046 395.71798706 -0.198634 -0.900379 0.387120
39.11800003 -13.46100044 395.71798706 -0.256321 -0.893418 0.368924
65.28399658 -4.84700012 386.41799927 0.894067 -0.422000 0.150203
65.14299774 -5.14699984 386.41799927 0.887025 -0.426762 0.176240
65.35099792 -4.84700012 386.11801147 0.886433 -0.406960 0.220498
65.22599792 -5.14699984 386.11801147 0.883882 -0.422087 0.201484
40.31800079 27.19199944 377.11801147 -0.201561 0.903401 -0.378471
39.41799927 -13.11999989 396.61801147 -0.276444 -0.859877 0.429175
39.11800003 -13.02900028 396.61801147 -0.291886 -0.866487 0.404972
39.11800003 -13.16600037 396.31799316 -0.303077 -0.856924 0.416924
39.41799927 -13.26799965 396.31799316 -0.231867 -0.890545 0.391367
40.01800156 -13.49600029 396.01800537 -0.214952 -0.879080 0.425457
39.71799850 -13.44499969 396.01800537 -0.163939 -0.905228 0.392028
65.00000000 -5.44700003 386.41799927 0.883164 -0.418652 0.211545
65.08100128 -5.44700003 386.11801147 0.897178 -0.401483 0.184074
64.95099640 -5.74700022 386.11801147 0.869956 -0.452022 0.197111
39.71799850 -13.22000027 396.61801147 -0.271007 -0.873582 0.404240
40.01800156 -13.31799984 396.61801147 -0.162925 -0.928812 0.332813
40.01800156 -13.38099957 396.31799316 -0.165826 -0.950467 0.262895
39.71799850 -13.32699966 396.31799316 -0.189163 -0.929002 0.318075
65.66600037 13.15299988 376.21798706 0.882903 0.469000 -0.022845
65.79900360 12.85299969 376.21798706 0.892505 0.450880 -0.011900
65.51799774 13.40100002 375.91799927 0.832238 0.552494 0.046158
65.70700073 13.15299988 375.91799927 0.863546 0.489965 0.119258
40.61800003 -13.39599991 396.61801147 -0.173199 -0.886371 0.429359
40.31800079 -13.35299969 396.61801147 -0.178331 -0.891657 0.416107
40.61800003 -13.54300022 396.31799316 -0.198929 -0.898811 0.390598
40.31800079 -13.43099976 396.31799316 -0.239330 -0.912354 0.332161
41.21799850 -13.63099957 396.31799316 -0.128404 -0.898826 0.419076
40.91799927 -13.58899975 396.31799316 -0.153596 -0.891429 0.426336
65.12000275 -5.44700003 385.81799316 0.888481 -0.427573 0.166681
65.00099945 -5.74700022 385.81799316 0.881545 -0.450120 0.142370
65.19100189 -5.44700003 385.51800537 0.884630 -0.432842 0.173428
65.05000305 -5.74700022 385.51800537 0.880057 -0.446574 0.161465
41.21799850 -13.50500011 396.61801147 -0.129857 -0.911795 0.389572
40.91799927 -13.44099998 396.61801147 -0.159793 -0.912092 0.377564
65.44699860 -4.84700012 385.81799316 0.895185 -0.413717 0.165775
65.29399872 -5.14699984 385.81799316 0.877719 -0.443988 0.180233
65.45800018 -4.84700012 385.51800537 0.908984 -0.407192 0.089116
65.32099915 -5.14699984 385.51800537 0.910113 -0.398782 0.112548
65.26000214 -5.44700003 385.21798706 0.890596 -0.415417 0.185116
41.81800079 -13.58699989 396.61801147 -0.184665 -0.909012 0.373625
65.09500122 -5.74700022 385.21798706 0.874210 -0.455409 0.168399
41.81800079 -13.70400047 396.31799316 -0.149587 -0.898949 0.411721
65.32499695 -5.44700003 384.91799927 0.926009 -0.351911 0.136624
41.51800156 -13.67899990 396.31799316 -0.116389 -0.901665 0.416477
65.15899658 -5.74700022 384.91799927 0.862120 -0.455886 0.221172
65.49700165 -4.84700012 385.21798706 0.903239 -0.405680 0.139938
65.36799622 -5.14699984 385.21798706 0.923722 -0.354209 0.145851
